ply
format ascii 1.0
element vertex 714
property float x
property float y
property float z
end_header
-0.0001902236690511927 -9.631577995605767e-06 0.0013725000899285078
-0.0001876926253316924 -9.625262464396656e-06 0.001371599966660142
-0.00018528632062952965 -9.625262464396656e-06 0.001371599966660142
-0.0001827666419558227 -9.619297998142429e-06 0.0013707500183954835
-0.00018022366566583514 -9.611928362573963e-06 0.0013696998357772827
-0.00017782070790417492 -9.611928362573963e-06 0.0013696998357772827
-0.00017539849795866758 -9.610876077204011e-06 0.0013695498928427696
-0.0001729200012050569 -9.606666026229504e-06 0.0013689498882740736
-0.00017051830946002156 -9.606666026229504e-06 0.0013689498882740736
-0.00016806754865683615 -9.603858416085131e-06 0.0013685498852282763
-0.00016564842371735722 -9.60280613071518e-06 0.0013683999422937632
-0.0001632477215025574 -9.60280613071518e-06 0.0013683999422937632
-0.0001607882441021502 -9.599296390661038e-06 0.0013678999384865165
-0.00015840578998904675 -9.600349585525692e-06 0.0013680499978363514
-0.0001559714728500694 -9.598245014785789e-06 0.0013677498791366816
-0.0001536056079203263 -9.600350495020393e-06 0.0013680499978363514
-0.00015131052350625396 -9.607016181689687e-06 0.0013689999468624592
-0.00014889244630467147 -9.605963896319736e-06 0.0013688498875126243
-0.00014650702360086143 -9.607016181689687e-06 0.0013689999468624592
-0.0001441789499949664 -9.611928362573963e-06 0.0013697000686079264
-0.00014176045078784227 -9.610876077204011e-06 0.0013695501256734133
-0.00013947472325526178 -9.618946933187544e-06 0.0013707000762224197
-0.00013705500168725848 -9.617894647817593e-06 0.0013705500168725848
-0.00013472912542056292 -9.623508049116936e-06 0.0013713500229641795
-0.0001324197364738211 -9.630525710235815e-06 0.0013723500305786729
-0.00012998367310501635 -9.628421139495913e-06 0.0013720500282943249
-0.00012767886801157147 -9.63614002102986e-06 0.0013731500366702676
-0.0001253838709089905 -9.64491209742846e-06 0.0013743999879807234
-0.0001229592162417248 -9.643859812058508e-06 0.0013742500450462103
-0.00012066228373441845 -9.652982043917291e-06 0.0013755501713603735
-0.00022154246107675135 -7.224210094136652e-06 0.001372600207105279
-0.00021913438104093075 -7.224210094136652e-06 0.0013726000906899571
-0.0002168920764233917 -7.229737093439326e-06 0.0013736499240621924
-0.00021448219195008278 -7.229737093439326e-06 0.0013736499240621924
-0.0002120722783729434 -7.229737093439326e-06 0.0013736500404775143
-0.0002097157994285226 -7.231578820210416e-06 0.0013740001013502479
-0.00020721473265439272 -7.2284201451111585e-06 0.0013734000967815518
-0.0002048499882221222 -7.229999027913436e-06 0.0013737000990658998
-0.00020232945098541677 -7.226051820907742e-06 0.0013729501515626907
-0.00019980431534349918 -7.221842679427937e-06 0.001372150145471096
-0.00019744018209166825 -7.2234215622302145e-06 0.0013724500313401222
-0.0001950110454345122 -7.2226321208290756e-06 0.0013723000884056091
-0.00019261051784269512 -7.222894964797888e-06 0.0013723500305786729
-0.0001902236690511927 -7.223684406199027e-06 0.0013725000899285078
-0.0001877131435321644 -7.219737199193332e-06 0.0013717500260099769
-0.00018528632062952965 -7.2189477577921934e-06 0.001371599966660142
-0.0001827666419558227 -7.214473043859471e-06 0.0013707500183954835
-0.00018024999008048326 -7.2099996941688005e-06 0.0013698998373001814
-0.00017784666852094233 -7.2099996941688005e-06 0.0013698998373001814
-0.00017539849795866758 -7.208157512650359e-06 0.0013695498928427696
-0.00017293894779868424 -7.205788278952241e-06 0.0013690999476239085
-0.00017053700867109 -7.205788278952241e-06 0.0013690999476239085
-0.0001680920977378264 -7.203946552181151e-06 0.001368749886751175
-0.000165690784342587 -7.203946552181151e-06 0.0013687500031664968
-0.00016330735525116324 -7.20473599358229e-06 0.0013688999461010098
-0.00016082350339274853 -7.201052540040109e-06 0.0013681999407708645
-0.00015845790039747953 -7.202631422842387e-06 0.0013685000594705343
-0.00015602279745507985 -7.201052540040109e-06 0.0013681999407708645
-0.00015365611761808395 -7.202631422842387e-06 0.0013684999430552125
-0.00015131052350625396 -7.205263500509318e-06 0.0013689999468624592
-0.00014889244630467147 -7.204473604360828e-06 0.0013688498875126243
-0.00014650702360086143 -7.205263500509318e-06 0.0013689999468624592
-0.0001442526263417676 -7.2126313170883805e-06 0.00137039995752275
-0.0001418329047737643 -7.2118418756872416e-06 0.0013702500145882368
-0.00013952053268440068 -7.216579433588777e-06 0.0013711501378566027
-0.0001371149846818298 -7.216579433588777e-06 0.0013711501378566027
-0.00013474386651068926 -7.218421615107218e-06 0.0013715000823140144
-0.00013247763854451478 -7.2260527304024436e-06 0.0013729501515626907
-0.0001300547446589917 -7.225263289001305e-06 0.0013728002086281776
-0.00012770676403306425 -7.228683443827322e-06 0.0013734500389546156
-0.00012541122850961983 -7.235262273752596e-06 0.0013747001066803932
-0.00012298606452532113 -7.234472832351457e-06 0.0013745499309152365
-0.00022138914209790528 -4.812807219423121e-06 0.0013716501416638494
-0.00021903860033489764 -4.814035492017865e-06 0.0013720000861212611
-0.00021672630100511014 -4.816140062757768e-06 0.0013725999742746353
-0.00021429483604151756 -4.815613465325441e-06 0.0013724500313401222
-0.00021181756164878607 -4.814034582523163e-06 0.0013720000861212611
-0.0002094105293508619 -4.814034582523163e-06 0.001372000202536583
-0.00020693561236839741 -4.812455699720886e-06 0.0013715501409024
-0.00020462631073314697 -4.814736257685581e-06 0.001372199971228838
-0.00020214523829054087 -4.81298138765851e-06 0.0013717000838369131
-0.00019965141837019473 -4.810876816918608e-06 0.0013710998464375734
-0.00019728911865968257 -4.811929102288559e-06 0.0013713999651372433
-0.00019484051153995097 -4.810876816918608e-06 0.001371100079268217
-0.00019236491061747074 -4.809121946891537e-06 0.0013706000754609704
-0.00019002964836545289 -4.810876816918608e-06 0.0013710999628528953
-0.00018752840696834028 -4.80842072647647e-06 0.00137039995752275
-0.00018512422684580088 -4.80842072647647e-06 0.00137039995752275
-0.0001826333173085004 -4.8061397137644235e-06 0.0013697498943656683
-0.00018015129899140447 -4.804033778782468e-06 0.0013691498897969723
-0.00017774931620806456 -4.804033778782468e-06 0.0013691498897969723
-0.00017525762086734176 -4.801578143087681e-06 0.001368449884466827
-0.0001728000061120838 -4.799999260285404e-06 0.0013680000556632876
-0.0001703999878372997 -4.799999260285404e-06 0.0013680000556632876
-0.00016793858958408237 -4.798245754500385e-06 0.001367500051856041
-0.00016555763431824744 -4.798771897185361e-06 0.0013676501112058759
-0.0001631940103834495 -4.799824637302663e-06 0.0013679501134902239
-0.0001607353478902951 -4.798070676770294e-06 0.0013674499932676554
-0.00015837105456739664 -4.799122962140245e-06 0.0013677499955520034
-0.0001559372612973675 -4.798069767275592e-06 0.0013674499932676554
-0.00015357192023657262 -4.7991225073928945e-06 0.0013677498791366816
-0.00015120551688596606 -4.8001757022575475e-06 0.0013680499978363514
-0.00014878911315463483 -4.799649559572572e-06 0.0013679000549018383
-0.000146426769788377 -4.800877377419965e-06 0.00136824999935925
-0.0001441000058548525 -4.803333467862103e-06 0.0013689498882740736
-0.00014166727487463504 -4.802280727744801e-06 0.0013686500024050474
-0.0001393933198414743 -4.806666765944101e-06 0.001369900070130825
-0.0001370050013065338 -4.8071929086290766e-06 0.00137005012948066
-0.00013462106289807707 -4.807895493286196e-06 0.0013702500145882368
-0.00013230874901637435 -4.811228791368194e-06 0.0013712001964449883
-0.00012990317190997303 -4.811228791368194e-06 0.0013712001964449883
-0.00012755332863889635 -4.8133333621080965e-06 0.0013718002010136843
-0.00012527895160019398 -4.818420620722463e-06 0.001373250037431717
-0.00022121968504507095 -2.4045614281931194e-06 0.0013706000754609704
-0.00021887096227146685 -2.4051755644904915e-06 0.0013709502527490258
-0.00021653684962075204 -2.405964778517955e-06 0.001371400081552565
-0.00021410745102912188 -2.405701707175467e-06 0.0013712500222027302
-0.00021162457414902747 -2.4048242721619317e-06 0.0013707501348108053
-0.00020919684902764857 -2.404561200819444e-06 0.0013706001918762922
-0.00020670176309067756 -2.4035084607021417e-06 0.0013699999544769526
-0.0002043877320829779 -2.404561200819444e-06 0.0013705999590456486
-0.00020190211944282055 -2.403596226940863e-06 0.0013700498966500163
-0.00019940384663641453 -2.402455947958515e-06 0.0013694000663235784
-0.0001970229932339862 -2.402719019301003e-06 0.0013695501256734133
-0.00019455631263554096 -2.401929577899864e-06 0.0013690999476239085
-0.00019214038911741227 -2.401754272796097e-06 0.0013689999468624592
-0.00018984946655109525 -2.403157623120933e-06 0.0013698000693693757
-0.00018739841470960528 -2.4025434868235607e-06 0.0013694500084966421
-0.0001850566768553108 -2.4033329282246996e-06 0.001369900070130825
-0.0001825066574383527 -2.4014029804675374e-06 0.0013687999453395605
-0.00018006577738560736 -2.4008766104088863e-06 0.0013685000594705343
-0.00017766491509974003 -2.4008766104088863e-06 0.0013685000594705343
-0.00017519999528303742 -2.3999994027690263e-06 0.0013679999392479658
-0.00017273682169616222 -2.3991226498765172e-06 0.001367500051856041
-0.00017037507495842874 -2.399648792561493e-06 0.0013678001705557108
-0.00016795701230876148 -2.399385721219005e-06 0.0013676502276211977
-0.00016552131273783743 -2.398859351160354e-06 0.0013673501089215279
-0.00016317612607963383 -2.3996490199351683e-06 0.001367800054140389
-0.0001607059530215338 -2.398596279817866e-06 0.001367200049571693
-0.00015837684622965753 -2.3996490199351683e-06 0.0013677999377250671
-0.0001559201773488894 -2.3987718122953083e-06 0.0013673000503331423
-0.00015352139598689973 -2.3987718122953083e-06 0.0013673000503331423
-0.00015113918925635517 -2.3990351110114716e-06 0.0013674499932676554
-0.00014872386236675084 -2.3987720396689838e-06 0.0013673000503331423
-0.00014637326239608228 -2.3995612536964472e-06 0.0013677499955520034
-0.00014405262481886894 -2.4008772925299127e-06 0.0013685000594705343
-0.00014163623563945293 -2.4006139938137494e-06 0.0013683500001206994
-0.00013929666602052748 -2.4016667339310516e-06 0.0013689500046893954
-0.0001369250239804387 -2.402193331363378e-06 0.0013692500069737434
-0.0001345915807178244 -2.4034211492107715e-06 0.0013699501287192106
-0.0001322460302617401 -2.4044738893280737e-06 0.0013705501332879066
-0.00012984158820472658 -2.4044738893280737e-06 0.0013705501332879066
-0.00012749289453495294 -2.405526629445376e-06 0.0013711501378566027
-0.00022121968504507095 0.0 0.0013706000754609704
-0.00021887096227146685 0.0 0.0013709502527490258
-0.00021653684962075204 0.0 0.001371400081552565
-0.00021410745102912188 0.0 0.0013712500222027302
-0.00021164774079807103 0.0 0.0013709000777453184
-0.00020921972463838756 0.0 0.0013707501348108053
-0.00020672439131885767 0.0 0.0013701498974114656
-0.0002044100983766839 0.0 0.0013707499019801617
-0.0002019242092501372 0.0 0.0013701998395845294
-0.0001994256890611723 0.0 0.0013695500092580914
-0.0001970445446204394 0.0 0.0013697000686079264
-0.00019457763119135052 0.0 0.0013692498905584216
-0.00019214038911741227 0.0 0.0013689999468624592
-0.00018987026123795658 0.0 0.0013699501287192106
-0.0001874189474619925 0.0 0.001369600067846477
-0.0001850566768553108 0.0 0.001369900070130825
-0.00018252665176987648 0.0 0.0013689498882740736
-0.00018008550978265703 0.0 0.0013686500024050474
-0.00017770387057680637 0.0 0.0013687999453395605
-0.00017521920381113887 0.0 0.0013681499985978007
-0.00017277472943533212 0.0 0.001367800054140389
-0.00017039374506566674 0.0 0.0013679501134902239
-0.00016795701230876148 0.0 0.0013676502276211977
-0.00016553947352804244 0.0 0.0013675001682713628
-0.00016317612607963383 0.0 0.001367800054140389
-0.00016074121231213212 0.0 0.001367500051856041
-0.00015841159620322287 0.0 0.001368100056424737
-0.0001559201773488894 0.0 0.0013673000503331423
-0.00015353823255281895 0.0 0.0013674499932676554
-0.0001511557784397155 0.0 0.0013675999362021685
-0.00014874017506372184 0.0 0.0013674499932676554
-0.0001463946682633832 0.0 0.0013679501134902239
-0.00014408418792299926 0.0 0.0013688000617548823
-0.0001416828017681837 0.0 0.0013688000617548823
-0.00013934753951616585 0.0 0.0013694500084966421
-0.00013696002133656293 0.0 0.001369600067846477
-0.00013460632180795074 0.0 0.0013701000716537237
-0.0001322460302617401 0.0 0.0013705501332879066
-0.00022105018433649093 2.4027194740483537e-06 0.0013695501256734133
-0.00021869534975849092 2.403245844107005e-06 0.0013698498951271176
-0.00021636314340867102 2.4040350581344683e-06 0.0013702998403459787
-0.0002139122661901638 2.4035089154494926e-06 0.0013699999544769526
-0.0002115010574925691 2.4034211492107715e-06 0.001369949895888567
-0.00020902891992591321 2.402631480435957e-06 0.0013694999506697059
-0.0002065659500658512 2.401929577899864e-06 0.0013690998312085867
-0.00020425350521691144 2.402982318017166e-06 0.0013696998357772827
-0.00020176211546640843 2.4019298052735394e-06 0.0013691000640392303
-0.000199331043404527 2.401578740318655e-06 0.0013688999461010098
-0.00019695823721121997 2.401929577899864e-06 0.0013690999476239085
-0.00019447105296421796 2.4008770651562372e-06 0.0013684999430552125
-0.0001920491486089304 2.4006139938137494e-06 0.0013683501165360212
-0.00018972471298184246 2.401578740318655e-06 0.0013689000625163317
-0.0001872205175459385 2.400262928858865e-06 0.001368149882182479
-0.00018484052270650864 2.4005262275750283e-06 0.0013683000579476357
-0.00018235330935567617 2.399385721219005e-06 0.001367649994790554
-0.00017991445201914757 2.398859351160354e-06 0.0013673501089215279
-0.0001775350683601573 2.3991226498765172e-06 0.001367500051856041
-0.0001750527007970959 2.3979823708941694e-06 0.0013668499886989594
-0.00017267365183215588 2.398245214862982e-06 0.0013669999316334724
-0.00017031900642905384 2.398859351160354e-06 0.0013673498760908842
-0.0001678833068581298 2.3983332084753783e-06 0.001367049990221858
-0.00016546683036722243 2.398070364506566e-06 0.0013669001637026668
-0.00016312242951244116 2.398859805907705e-06 0.0013673502253368497
-0.0001606471778359264 2.397719526925357e-06 0.00136670027859509
-0.00015828422328922898 2.3982456696103327e-06 0.001367000164464116
-0.0001558346557430923 2.397456228209194e-06 0.0013665501028299332
-0.00015348770830314606 2.3982454422366573e-06 0.0013670000480487943
-0.00015113918925635517 2.399034883637796e-06 0.0013674499932676554
-0.0001486912224208936 2.3982456696103327e-06 0.0013670000480487943
-0.0001463625521864742 2.399386175966356e-06 0.0013676501112058759
-0.00014399472274817526 2.3999123186513316e-06 0.0013679501134902239
-0.00014157930854707956 2.3996494746825192e-06 0.0013678001705557108
-0.00013928647967986763 2.4014912014536094e-06 0.001368850120343268
-0.00013690002379007638 2.4017545001697727e-06 0.001369000063277781
-0.00013452774146571755 2.4022808702284237e-06 0.001369300065562129
-0.0002209694794146344 4.8036845328169875e-06 0.0013690500054508448
-0.00021862350695300847 4.804912805411732e-06 0.0013694000663235784
-0.00021629210095852613 4.806491233466659e-06 0.0013698498951271176
-0.000213841994991526 4.805438493349357e-06 0.0013695498928427696
-0.00021140070748515427 4.804561285709497e-06 0.0013692999491468072
-0.00020902129472233355 4.805087428394472e-06 0.0013694498920813203
-0.00020649805082939565 4.802280727744801e-06 0.0013686500024050474
-0.00020414167374838144 4.803333467862103e-06 0.0013689498882740736
-0.00020169580238871276 4.80228027299745e-06 0.0013686500024050474
-0.00019922184583265334 4.80052585771773e-06 0.001368149882182479
-0.00019685034931171685 4.801227532880148e-06 0.0013683498837053776
-0.0001944070972967893 4.800174792762846e-06 0.0013680498814210296
-0.00019199296366423368 4.799824182555312e-06 0.001367949997074902
-0.0001895930472528562 4.799824182555312e-06 0.001367949997074902
-0.00018713157624006271 4.798244845005684e-06 0.0013674999354407191
-0.00018475946853868663 4.798946520168101e-06 0.0013677000533789396
-0.00018235997413285077 4.798946520168101e-06 0.0013677000533789396
-0.0001798947196220979 4.797192559635732e-06 0.0013671999331563711
-0.00017751558334566653 4.797718702320708e-06 0.001367349992506206
-0.00017505910363979638 4.79613981951843e-06 0.001366900047287345
-0.00017263575864490122 4.795438144356012e-06 0.0013666999293491244
-0.00017027542344294488 4.796490429725964e-06 0.0013669999316334724
-0.00016785874322522432 4.795964741788339e-06 0.0013668499886989594
-0.00016546077677048743 4.79596519653569e-06 0.0013668501051142812
-0.00016310453065671027 4.797193469130434e-06 0.001367200049571693
-0.00016061191854532808 4.794386313733412e-06 0.0013664000434800982
-0.00015829001495148987 4.7966668716981076e-06 0.0013670501066371799
-0.0001558745716465637 4.796140729013132e-06 0.0013669001637026668
-0.00015342597907874733 4.794561846210854e-06 0.001366449985653162
-0.0001511005248175934 4.79684240417555e-06 0.0013670999323949218
-0.0001486694673076272 4.795789664058248e-06 0.0013668000465258956
-0.00014635185652878135 4.7984212869778275e-06 0.0013675501104444265
-0.00014398420171346515 4.79947402709513e-06 0.0013678501127287745
-0.00014158447447698563 4.79947402709513e-06 0.0013678501127287745
-0.00013923051301389933 4.8010529098974075e-06 0.0013683001743629575
-0.0001368750090477988 4.802631792699685e-06 0.0013687501195818186
-0.0002209694794146344 7.20552634447813e-06 0.0013690500054508448
-0.00021862350695300847 7.207368525996571e-06 0.0013694000663235784
-0.00021629210095852613 7.209736850199988e-06 0.0013698498951271176
-0.000213841994991526 7.20815796739771e-06 0.0013695498928427696
-0.00021142384503036737 7.207631824712735e-06 0.0013694498920813203
-0.000209044199436903 7.2084212661138736e-06 0.0013695999514311552
-0.0002065659500658512 7.205789643194294e-06 0.0013691000640392303
-0.00020420877262949944 7.207368525996571e-06 0.0013693999499082565
-0.00020174002565909177 7.204999747045804e-06 0.0013689498882740736
-0.00019928735855501145 7.203158929769415e-06 0.00136859982740134
-0.00019691507623065263 7.204210760392016e-06 0.0013687998289242387
-0.00019444971985649318 7.201843345683301e-06 0.0013683498837053776
-0.00019206313299946487 7.202368578873575e-06 0.001368449884466827
-0.0001896623580250889 7.202368578873575e-06 0.001368449884466827
-0.00018719998479355127 7.200000254670158e-06 0.0013679999392479658
-0.00018482700397726148 7.20105299478746e-06 0.0013681999407708645
-0.00018239997734781355 7.200000254670158e-06 0.0013679999392479658
-0.00017998025577981025 7.199210813269019e-06 0.0013678499963134527
-0.00017759996990207583 7.200000254670158e-06 0.0013680000556632876
-0.0001750975352479145 7.1957897489483e-06 0.001367200049571693
-0.00017271154501941055 7.196316346380627e-06 0.0013673000503331423
-0.00017035016207955778 7.197895229182905e-06 0.0013675999362021685
-0.00016793241957202554 7.197105787781766e-06 0.0013674499932676554
-0.00016552131273783743 7.19657964509679e-06 0.001367349992506206
-0.0001631761115277186 7.198947969300207e-06 0.001367800054140389
-0.00016070007404778153 7.195526450232137e-06 0.0013671501073986292
-0.00015835950034670532 7.198157163657015e-06 0.0013676501112058759
-0.00015592589625157416 7.196578280854737e-06 0.0013673502253368497
-0.00015345965221058577 7.193420515250182e-06 0.0013667501043528318
-0.00015113367408048362 7.196841579570901e-06 0.0013674000510945916
-0.0001486857800045982 7.194472800620133e-06 0.0013669499894604087
-0.00014635185652878135 7.197631930466741e-06 0.0013675501104444265
-0.00014399999054148793 7.20000116416486e-06 0.0013680001720786095
-0.0001416000013705343 7.20000116416486e-06 0.0013680001720786095
-0.00013923051301389933 7.201580046967138e-06 0.0013683001743629575
-0.00022092107974458486 9.60526358539937e-06 0.001368749886751175
-0.00021851174824405462 9.604913429939188e-06 0.001368700060993433
-0.00021620525512844324 9.609122571418993e-06 0.001369300065562129
-0.00021375613869167864 9.607017091184389e-06 0.001369000063277781
-0.00021130035747773945 9.604561455489602e-06 0.0013686500024050474
-0.00020894501358270645 9.606666935724206e-06 0.0013689500046893954
-0.000206520693609491 9.605613740859553e-06 0.0013687999453395605
-0.0002041640254901722 9.607718311599456e-06 0.0013690999476239085
-0.00020167368347756565 9.603507351130247e-06 0.0013684999430552125
-0.00019924368825741112 9.602104000805411e-06 0.001368299825116992
-0.00019687190069817007 9.603507351130247e-06 0.0013684998266398907
-0.00019439999596215785 9.599998520570807e-06 0.001367999822832644
-0.00019197893561795354 9.598946235200856e-06 0.001367849879898131
-0.0001895999739645049 9.599998520570807e-06 0.001367999822832644
-0.00018715893384069204 9.597893040336203e-06 0.0013676999369636178
-0.00018478647689335048 9.599296390661038e-06 0.0013678998220711946
-0.000182339979801327 9.596840754966252e-06 0.0013675498776137829
-0.00017994076188188046 9.596840754966252e-06 0.0013675499940291047
-0.00017756104352883995 9.597893949830905e-06 0.0013677000533789396
-0.0001750591181917116 9.59227963903686e-06 0.001366900047287345
-0.00017267365183215588 9.592981768946629e-06 0.0013670000480487943
-0.00017031279276125133 9.595087249181233e-06 0.0013673000503331423
-0.00016787716594990343 9.592981768946629e-06 0.0013669999316334724
-0.00016544263053219765 9.590878107701428e-06 0.001366700162179768
-0.00016308068006765097 9.59298267844133e-06 0.001367000164464116
-0.0001606648147571832 9.591929483576678e-06 0.0013668501051142812
-0.00015828422328922898 9.59298267844133e-06 0.001367000164464116
-0.0001558004441903904 9.587719432602171e-06 0.0013662501005455852
-0.00015342034748755395 9.588771717972122e-06 0.0013664000434800982
-0.00015108393563423306 9.592631613486446e-06 0.0013669499894604087
-0.0001486694673076272 9.591579328116495e-06 0.0013668000465258956
-0.0001462555374018848 9.590527042746544e-06 0.0013666501035913825
-0.0001439526240574196 9.596843483450357e-06 0.0013675501104444265
-0.00014153790834825486 9.595791198080406e-06 0.0013674001675099134
-0.00022098564659245312 1.2010087630187627e-05 0.001369150006212294
-0.00021851174824405462 1.2006140423181932e-05 0.001368700060993433
-0.0002162289310945198 1.2012719707854558e-05 0.0013694500084966421
-0.00021380298130679876 1.2011403669021092e-05 0.0013692999491468072
-0.00021130035747773945 1.2005701137240976e-05 0.0013686500024050474
-0.00020896790374536067 1.2009649253741372e-05 0.0013690999476239085
-0.0002065433218376711 1.2008333214907907e-05 0.0013689498882740736
-0.0002041640254901722 1.2009649253741372e-05 0.0013690999476239085
-0.00020169580238871276 1.200570295623038e-05 0.0013686498859897256
-0.00019926551613025367 1.2003945812466554e-05 0.001368449768051505
-0.00019689349574036896 1.2005701137240976e-05 0.0013686498859897256
-0.0001944639370776713 1.2003945812466554e-05 0.001368449768051505
-0.00019202104886062443 1.2001315553789027e-05 0.001368149882182479
-0.00018966234347317368 1.2003945812466554e-05 0.001368449884466827
-0.00018724105029832572 1.200263068312779e-05 0.001368299825116992
-0.0001848472747951746 1.2003069059574045e-05 0.0013683498837053776
-0.00018240665667690337 1.2000437891401816e-05 0.0013680498814210296
-0.00017998681869357824 1.1999122762063053e-05 0.0013679000549018383
-0.00017762593051884323 1.2001754839729983e-05 0.0013682000571861863
-0.0001751423696987331 1.1996053217444569e-05 0.0013675501104444265
-0.00017276208382099867 1.1997368346783333e-05 0.0013677000533789396
-0.00017041867249645293 1.2001315553789027e-05 0.0013681499985978007
-0.00016792015230748802 1.1994297892670147e-05 0.001367349992506206
-0.00016551525914110243 1.1993859516223893e-05 0.0013673000503331423
-0.00016313437663484365 1.1995174645562656e-05 0.0013674499932676554
-0.00016070008859969676 1.1992544386885129e-05 0.0013671501073986292
-0.0001583189587108791 1.1993859516223893e-05 0.0013673000503331423
-0.00015585175424348563 1.1988594451395329e-05 0.0013667000457644463
-0.00015351016190834343 1.199298094434198e-05 0.0013671999331563711
-0.00015116683789528906 1.1997369256278034e-05 0.0013677001697942615
-0.00014873473264742643 1.1994737178611103e-05 0.0013674000510945916
-0.0001463037042412907 1.1992106010438874e-05 0.0013671001652255654
-0.0001440157793695107 1.2001316463283729e-05 0.0013681501150131226
-0.00022084037482272834 1.4402632587007247e-05 0.00136824999935925
-0.0002184558688895777 1.4403684872377198e-05 0.0013683501165360212
-0.00021613419812638313 1.4408948118216358e-05 0.001368850003927946
-0.00021368586749304086 1.4405790352611803e-05 0.0013685498852282763
-0.00021123090118635446 1.440210598957492e-05 0.0013681999407708645
-0.0002088762994389981 1.4405263755179476e-05 0.0013684999430552125
-0.00020647542260121554 1.4405263755179476e-05 0.0013684999430552125
-0.0002040969266090542 1.4406841728487052e-05 0.0013686498859897256
-0.0002016442158492282 1.4403160093934275e-05 0.001368299825116992
-0.00019921455532312393 1.4401055523194373e-05 0.0013680998235940933
-0.00019686471205204725 1.4404739886231255e-05 0.001368449768051505
-0.00019444261852186173 1.4403160093934275e-05 0.001368299825116992
-0.00019199999223928899 1.440000232832972e-05 0.0013679999392479658
-0.00018964154878631234 1.4403160093934275e-05 0.0013682999415323138
-0.0001872205175459385 1.4401581211131997e-05 0.001368149882182479
-0.0001847999810706824 1.4400000509340316e-05 0.0013679999392479658
-0.00018235997413285077 1.439684274373576e-05 0.0013676999369636178
-0.00017990131163969636 1.4392106095328927e-05 0.0013672502245754004
-0.00017758700414560735 1.4398948223970365e-05 0.0013679001713171601
-0.00017512316117063165 1.4393684978131205e-05 0.0013674001675099134
-0.0001727052585920319 1.4392106095328927e-05 0.0013672502245754004
-0.00017038130317814648 1.4398423445527442e-05 0.0013678499963134527
-0.00016788332141004503 1.4390001524589024e-05 0.001367049990221858
-0.00016549709835089743 1.4391052900464274e-05 0.0013671501073986292
-0.00016311647777911276 1.4392632692761254e-05 0.0013673000503331423
-0.00016068245167843997 1.4389474927156698e-05 0.001367000164464116
-0.00015830158372409642 1.4391052900464274e-05 0.0013671501073986292
-0.0001558346557430923 1.4384737369255163e-05 0.0013665499864146113
-0.00015345963765867054 1.4386841030500364e-05 0.0013667501043528318
-0.0001510949805378914 1.4390001524589024e-05 0.0013670501066371799
-0.0001486640248913318 1.4386843758984469e-05 0.0013667501043528318
-0.00022073544096201658 1.6795089322840795e-05 0.0013676000526174903
-0.00021841598208993673 1.6801230231067166e-05 0.001368100056424737
-0.0002160868316423148 1.6806756320875138e-05 0.001368550001643598
-0.0002136858820449561 1.6806756320875138e-05 0.001368550001643598
-0.00021138526790309697 1.68147398653673e-05 0.0013691999483853579
-0.00020900605886708945 1.6816582501633093e-05 0.001369349891319871
-0.0002064904838334769 1.6807371139293537e-05 0.0013686000602319837
-0.00020411184232216328 1.680921013758052e-05 0.0013687500031664968
-0.00020166630565654486 1.6805524865048937e-05 0.0013684500008821487
-0.00019926551613025367 1.6805524865048937e-05 0.001368449884466827
-0.00019690785848069936 1.680921013758052e-05 0.0013687500031664968
-0.0001944355171872303 1.6803071048343554e-05 0.0013682498829439282
-0.0001920631475513801 1.680552668403834e-05 0.001368449884466827
-0.00018973163969349116 1.6811667592264712e-05 0.0013689498882740736
-0.00018726156849879771 1.680552668403834e-05 0.001368449884466827
-0.00018486077897250652 1.680552668403834e-05 0.001368449884466827
-0.00018244664533995092 1.680430068518035e-05 0.0013683500001206994
-0.0001800197351258248 1.6801845049485564e-05 0.0013681501150131226
-0.00017761948402039707 1.6801845049485564e-05 0.0013681501150131226
-0.0001751423696987331 1.67944763234118e-05 0.0013675501104444265
-0.00017277474398724735 1.6797543139546178e-05 0.0013678001705557108
-0.0001703999878372997 1.680000059423037e-05 0.0013680000556632876
-0.00016789560322649777 1.6789563233032823e-05 0.0013671501073986292
-0.00016553947352804244 1.67938615049934e-05 0.0013675001682713628
-0.00016314034292008728 1.67938615049934e-05 0.0013675001682713628
-0.0001606295700185001 1.678219450695906e-05 0.001366550219245255
-0.00015824948786757886 1.678403714322485e-05 0.00136670027859509
-0.00015576623263768852 1.6774825780885294e-05 0.0013659500982612371
-0.00015344281564466655 1.6782809325377457e-05 0.001366600045002997
-0.00015109500964172184 1.678833541518543e-05 0.001367049990221858
-0.00022075965534895658 1.919649184856098e-05 0.0013677499955520034
-0.0002184399199904874 1.920350950967986e-05 0.001368250115774572
-0.00021615787409245968 1.9214034182368778e-05 0.0013689999468624592
-0.00021375613869167864 1.9214034182368778e-05 0.0013689999468624592
-0.0002114316012011841 1.9221051843487658e-05 0.0013694999506697059
-0.00020905185374431312 1.922315641422756e-05 0.0013696500100195408
-0.0002065961016342044 1.9218245142837986e-05 0.001369300065562129
-0.0002042386040557176 1.9222456103307195e-05 0.0013695999514311552
-0.00020180630963295698 1.9219649402657524e-05 0.0013693999499082565
-0.00019938200421165675 1.9217541193938814e-05 0.0013692500069737434
-0.00019700138363987207 1.921964758366812e-05 0.0013694000663235784
-0.00019457764574326575 1.9217541193938814e-05 0.0013692500069737434
-0.0001922175579238683 1.9221752154408023e-05 0.0013695500092580914
-0.00018988410010933876 1.92287679965375e-05 0.0013700500130653381
-0.00018739841470960528 1.9220347894588485e-05 0.0013694500084966421
-0.0001849283289629966 1.921333205245901e-05 0.0013689498882740736
-0.00018254664610140026 1.921543662319891e-05 0.0013690999476239085
-0.00018009866471402347 1.9210525351809338e-05 0.0013687500031664968
-0.0001777363067958504 1.9214736312278546e-05 0.0013690500054508448
-0.00017533446953166276 1.9214736312278546e-05 0.0013690500054508448
-0.0001728757779346779 1.9208420781069435e-05 0.0013686000602319837
-0.00017049963935278356 1.9211227481719106e-05 0.0013688000617548823
-0.00016798771684989333 1.919859460031148e-05 0.0013678999384865165
-0.0001655818341532722 1.9197894289391115e-05 0.0013678501127287745
-0.00016318209236487746 1.9197894289391115e-05 0.0013678501127287745
-0.0001607647427590564 1.9195791537640616e-05 0.0013677001697942615
-0.00015845790039747953 1.92070183402393e-05 0.0013685001758858562
-0.0001559144729981199 1.91894741874421e-05 0.0013672502245754004
-0.0001535157934995368 1.91894741874421e-05 0.0013672501081600785
-0.00022072736464906484 2.159289397241082e-05 0.0013675499940291047
-0.0002183601027354598 2.1596051738015376e-05 0.0013677499955520034
-0.00021610262047033757 2.1610259864246473e-05 0.0013686500024050474
-0.00021370146714616567 2.1610259864246473e-05 0.0013686500024050474
-0.00021136982832103968 2.1617366655846126e-05 0.0013690999476239085
-0.0002089907939080149 2.1619734980049543e-05 0.0013692498905584216
-0.00020656592096202075 2.1617366655846126e-05 0.0013690999476239085
-0.00020420877262949944 2.162210330425296e-05 0.0013693999499082565
-0.00020175473764538765 2.1616577214444987e-05 0.001369049889035523
-0.0001993528858292848 2.161657903343439e-05 0.0013690500054508448
-0.00019697259995155036 2.1618947357637808e-05 0.0013691999483853579
-0.00019454921130090952 2.161657903343439e-05 0.0013690500054508448
-0.00019214034546166658 2.1615789592033252e-05 0.0013689999468624592
-0.00018981480388902128 2.162447344744578e-05 0.0013695500092580914
-0.00018732997705228627 2.1615000150632113e-05 0.0013689498882740736
-0.00018490130605641752 2.1611840566038154e-05 0.001368749886751175
-0.00018249997810926288 2.161183874704875e-05 0.0013687500031664968
-0.00018009866471402347 2.1611840566038154e-05 0.0013687500031664968
-0.0001777363067958504 2.161657903343439e-05 0.0013690500054508448
-0.00017533446953166276 2.161657903343439e-05 0.0013690500054508448
-0.00017285051580984145 2.1606314476230182e-05 0.001368400058709085
-0.00017044981359504163 2.1606314476230182e-05 0.001368400058709085
-0.00016794473049230874 2.1592892153421417e-05 0.0013675499940291047
-0.00016549709835089743 2.1586576622212306e-05 0.0013671501073986292
-0.00016309857892338187 2.1586576622212306e-05 0.0013671501073986292
-0.00016070007404778153 2.1586576622212306e-05 0.0013671501073986292
-0.0001583942212164402 2.1599211322609335e-05 0.0013679501134902239
-0.0001558517396915704 2.157947346859146e-05 0.001366700162179768
-0.00022071930288802832 2.3991227863007225e-05 0.0013674999354407191
-0.00021836806263308972 2.3996490199351683e-05 0.001367800054140389
-0.00021615000150632113 2.401666461082641e-05 0.0013689500046893954
-0.00021374833886511624 2.401666461082641e-05 0.0013689500046893954
-0.00021132349502295256 2.4014034352148883e-05 0.0013687999453395605
-0.00020899076480418444 2.402192694717087e-05 0.0013692497741430998
-0.0002065885637421161 2.402192694717087e-05 0.0013692497741430998
-0.0002042609703494236 2.4030701752053574e-05 0.0013697498943656683
-0.00020185791072435677 2.4030701752053574e-05 0.0013697498943656683
-0.0001994693884626031 2.4032455257838592e-05 0.0013698498951271176
-0.00019715244707185775 2.4042981749516912e-05 0.0013704498996958137
-0.00019468420941848308 2.4035087335505523e-05 0.0013699999544769526
-0.00019230175530537963 2.4037719413172454e-05 0.0013701498974114656
-0.0001898979680845514 2.4037719413172454e-05 0.0013701498974114656
-0.0001874052541097626 2.4026316168601625e-05 0.0013694999506697059
-0.0001850701664807275 2.4035089154494926e-05 0.0013699999544769526
-0.0001826666557462886 2.4035089154494926e-05 0.0013699999544769526
-0.00018017103138845414 2.4022807338042185e-05 0.0013692999491468072
-0.00017776877211872488 2.4022807338042185e-05 0.0013692999491468072
-0.00017532806668896228 2.4017545001697727e-05 0.0013689999468624592
-0.0001729136856738478 2.4015789676923305e-05 0.0013689000625163317
-0.00017054945055861026 2.4021053832257167e-05 0.0013692000648006797
-0.0001680920977378264 2.4013159418245777e-05 0.0013687501195818186
-0.0001655878877500072 2.39982437051367e-05 0.0013679000549018383
-0.00016320592840202153 2.4000875782803632e-05 0.0013680501142516732
-0.00016070007404778153 2.3985086954780854e-05 0.0013671501073986292
-0.00015835947124287486 2.3993858121684752e-05 0.001367649994790554
-0.0002207919314969331 2.639903141243849e-05 0.0013679501134902239
-0.00021848781034350395 2.641061473696027e-05 0.001368550001643598
-0.00021624471992254257 2.6429912395542488e-05 0.0013695501256734133
-0.0002138185955118388 2.6427016564412042e-05 0.0013694000663235784
-0.0002114392991643399 2.6429912395542488e-05 0.0013695500092580914
-0.00020912813488394022 2.6441493901074864e-05 0.0013701498974114656
-0.00020672434766311198 2.6441493901074864e-05 0.0013701498974114656
-0.0002043728018179536 2.644824780873023e-05 0.001370500074699521
-0.0002019463136093691 2.6445351977599785e-05 0.0013703500153496861
-0.00019958587654400617 2.645114182087127e-05 0.0013706500176340342
-0.0001973250909941271 2.6470437660464086e-05 0.0013716499088332057
-0.00019486897508613765 2.6463681933819316e-05 0.001371299964375794
-0.00019244212307967246 2.646078974066768e-05 0.0013711500214412808
-0.00019009893003385514 2.6469473596080206e-05 0.001371599966660142
-0.00018762421677820385 2.64598256762838e-05 0.0013710999628528953
-0.00018526604981161654 2.646657776494976e-05 0.0013714500237256289
-0.00018283998360857368 2.6463685571798123e-05 0.0013713000807911158
-0.0001802105107344687 2.6430876459926367e-05 0.0013695999514311552
-0.00017782716895453632 2.6433772291056812e-05 0.0013697498943656683
-0.0001753856922732666 2.6427980628795922e-05 0.0013694500084966421
-0.00017300840409006923 2.643184234329965e-05 0.0013696500100195408
-0.0001706615585135296 2.6440524379722774e-05 0.0013700999552384019
-0.00016816577408462763 2.642605068103876e-05 0.0013693500077351928
-0.000165684730745852 2.6413506930111907e-05 0.001368700060993433
-0.00016328349011018872 2.6413506930111907e-05 0.001368700060993433
-0.00016078822955023497 2.6398070986033417e-05 0.0013679000549018383
-0.00022071933199185878 2.8789470889023505e-05 0.0013675001682713628
-0.00021843989088665694 2.8805259717046283e-05 0.00136824999935925
-0.00021611052216030657 2.881473301385995e-05 0.0013686999445781112
-0.0002137092815246433 2.881473301385995e-05 0.0013686999445781112
-0.0002114392991643399 2.8832630050601438e-05 0.0013695500092580914
-0.000209105244721286 2.8842105166404508e-05 0.0013699999544769526
-0.00020667907665483654 2.8838947400799952e-05 0.0013698500115424395
-0.00020435042097233236 2.884947207348887e-05 0.0013703500153496861
-0.0002019242092501372 2.8846314307884313e-05 0.001370200072415173
-0.0001995349011849612 2.8848418878624216e-05 0.0013702999567613006
-0.00019720999989658594 2.885999492718838e-05 0.0013708500191569328
-0.0001947623968590051 2.885367939597927e-05 0.0013705500168725848
-0.00019237896776758134 2.8856837161583826e-05 0.0013707000762224197
-0.0001900573552120477 2.8869471861980855e-05 0.0013713000807911158
-0.00018760368402581662 2.8862104954896495e-05 0.0013709500199183822
-0.00018521875608712435 2.886526272050105e-05 0.001371100079268217
-0.0001828133244998753 2.886526272050105e-05 0.001371100079268217
-0.0001802105107344687 2.8833685064455494e-05 0.0013695999514311552
-0.00017782716895453632 2.883684283006005e-05 0.0013697498943656683
-0.0001753856922732666 2.883052729885094e-05 0.0013694500084966421
-0.0001729326177155599 2.882210537791252e-05 0.0013690500054508448
-0.00017060551908798516 2.8834736440330744e-05 0.001369649893604219
-0.0001680920977378264 2.881578984670341e-05 0.0013687501195818186
-0.00016563026292715222 2.8805265174014494e-05 0.001368250115774572
-0.00022064668883103877 3.1178333301795647e-05 0.0013670501066371799
-0.00021834411018062383 3.1192019378067926e-05 0.0013676501112058759
-0.00021601577464025468 3.120228211628273e-05 0.001368100056424737
-0.00021361559629440308 3.120228211628273e-05 0.001368100056424737
-0.00021123855549376458 3.12057018163614e-05 0.00136824999935925
-0.00020908235455863178 3.1242194381775334e-05 0.0013698500115424395
-0.00020665644842665642 3.123877468169667e-05 0.0013697000686079264
-0.0002043280692305416 3.1250176107278094e-05 0.001370200072415173
-0.00020192419469822198 3.1250176107278094e-05 0.001370200072415173
-0.0001995640341192484 3.125701914541423e-05 0.001370500074699521
-0.0001972315803868696 3.126842057099566e-05 0.0013710000785067677
-0.00019474107830319554 3.1254741770680994e-05 0.0013704000739380717
-0.0001923508825711906 3.125701914541423e-05 0.001370500074699521
-0.00019000883912667632 3.1267285521607846e-05 0.0013709499035030603
-0.0001875626330729574 3.1260446121450514e-05 0.0013706500176340342
-0.00018525928317103535 3.1277544621843845e-05 0.0013713999651372433
-0.0001828533277148381 3.1277544621843845e-05 0.0013713999651372433
-0.00018034210370387882 3.125930015812628e-05 0.0013706000754609704
-0.00017796349129639566 3.126386582152918e-05 0.0013707999605685472
-0.00017549455515109003 3.125245711999014e-05 0.0013702999567613006
-0.0001729894574964419 3.123421629425138e-05 0.0013694999506697059
-0.00017062418919522315 3.124105933238752e-05 0.0013697999529540539
-0.00016812894318718463 3.122394991805777e-05 0.0013690500054508448
-0.00022071933199185878 3.3587719372007996e-05 0.0013675002846866846
-0.00021839200053364038 3.359877518960275e-05 0.0013679501134902239
-0.0002160947333322838 3.3614738640608266e-05 0.0013686000602319837
-0.0002136936382157728 3.3614738640608266e-05 0.0013686000602319837
-0.0002113389055011794 3.362210554769263e-05 0.0013689000625163317
-0.00020908235455863178 3.3645435905782506e-05 0.0013698500115424395
-0.000206679105758667 3.3645435905782506e-05 0.0013698500115424395
-0.0002043728018179536 3.3661399356788024e-05 0.0013704999582841992
-0.00020196840341668576 3.3661399356788024e-05 0.0013704999582841992
-0.0001996295468416065 3.3672455174382776e-05 0.0013709499035030603
-0.00019729630730580539 3.368473699083552e-05 0.001371449907310307
-0.00019482633797451854 3.3673681173240766e-05 0.001370999962091446
-0.00019237192464061081 3.3665088267298415e-05 0.0013706500176340342
-0.00019000883912667632 3.3672455174382776e-05 0.0013709499035030603
-0.0001875626330729574 3.3665088267298415e-05 0.0013706500176340342
-0.00018517822900321335 3.366877353983e-05 0.0013707999605685472
-0.00018277332128491253 3.366877353983e-05 0.0013707999605685472
-0.00018025656754616648 3.36478951794561e-05 0.0013699500123038888
-0.00017787262913770974 3.3651580451987684e-05 0.0013701000716537237
-0.00017544972070027143 3.36478951794561e-05 0.0013699500123038888
-0.00017293260316364467 3.362579082022421e-05 0.001369049889035523
-0.0001705681497696787 3.363316136528738e-05 0.001369349891319871
-0.0002182962343795225 3.598289185902104e-05 0.0013673502253368497
-0.0002159999858122319 3.5999993997393176e-05 0.0013680000556632876
-0.0002135999675374478 3.5999993997393176e-05 0.0013680000556632876
-0.0002113157679559663 3.6019733670400456e-05 0.0013687500031664968
-0.00020896026398986578 3.602762444643304e-05 0.0013690500054508448
-0.00020655841217376292 3.602762444643304e-05 0.0013690500054508448
-0.00020428332209121436 3.605000165407546e-05 0.001369900070130825
-0.00020187997142784297 3.605000165407546e-05 0.001369900070130825
-0.00019956400501541793 3.606578684411943e-05 0.001370500074699521
-0.00019720997079275548 3.607500184443779e-05 0.0013708500191569328
-0.00019478370086289942 3.60710546374321e-05 0.001370699959807098
-0.00019232281192671508 3.6060526326764375e-05 0.0013702999567613006
-0.00018996032304130495 3.606842437875457e-05 0.0013705998426303267
-0.0001875147281680256 3.6060526326764375e-05 0.0013702999567613006
-0.00018517824355512857 3.6073684896109626e-05 0.0013707999605685472
-0.0001828133244998753 3.6081579310121015e-05 0.0013710999628528953
-0.00018025655299425125 3.605131496442482e-05 0.001369949895888567
-0.0001778726145857945 3.6055258533451706e-05 0.0013700999552384019
-0.00017544973525218666 3.605131496442482e-05 0.001369949895888567
-0.00017297051090281457 3.603552613640204e-05 0.001369349891319871
-0.00021832817583344877 3.838737029582262e-05 0.0013675502268597484
-0.00021604735229630023 3.840841964120045e-05 0.0013683000579476357
-0.00021364682470448315 3.840841964120045e-05 0.0013683000579476357
-0.00021136207215022296 3.8429468986578286e-05 0.0013690500054508448
-0.00020900604431517422 3.84378909075167e-05 0.001369349891319871
-0.00020660366863012314 3.84378909075167e-05 0.001369349891319871
-0.0002043280692305416 3.846175241051242e-05 0.0013701999559998512
-0.00020192419469822198 3.846175241051242e-05 0.0013701999559998512
-0.0001995858474401757 3.847438347293064e-05 0.0013706500176340342
-0.00019726033497136086 3.848982305498794e-05 0.0013711999636143446
-0.0001948334538610652 3.8485610275529325e-05 0.0013710500206798315
-0.00019237193919252604 3.847438347293064e-05 0.0013706500176340342
-0.00019003656052518636 3.84884187951684e-05 0.0013711500214412808
-0.00018761052342597395 3.848420601570979e-05 0.001370999962091446
-0.00018524579354561865 3.8492627936648205e-05 0.0013713000807911158
-0.00018288000137545168 3.850104985758662e-05 0.001371599966660142
-0.00018035525863524526 3.847578773275018e-05 0.0013707000762224197
-0.00017795051098801196 3.847578773275018e-05 0.0013707000762224197
-0.00017547534662298858 3.846034815069288e-05 0.0013701498974114656
-0.00021819243556819856 4.0761224227026105e-05 0.00136670027859509
-0.00021594474674202502 4.0789556805975735e-05 0.0013676502276211977
-0.0002135453250957653 4.0789556805975735e-05 0.0013676502276211977
-0.00021123858459759504 4.080744838574901e-05 0.00136824999935925
-0.00020886103447992355 4.0811923099681735e-05 0.001368400058709085
-0.00020646033226512372 4.0811923099681735e-05 0.001368400058709085
-0.0002041565894614905 4.083130988874473e-05 0.0013690500054508448
-0.00020170313655398786 4.0820868889568374e-05 0.0013686999445781112
-0.00019936743774451315 4.083429303136654e-05 0.0013691498897969723
-0.00019708769104909152 4.0859646105673164e-05 0.0013699999544769526
-0.00019466291996650398 4.085517502971925e-05 0.0013698500115424395
-0.00019232984050177038 4.087008346687071e-05 0.0013703500153496861
-0.00018995339632965624 4.087604975211434e-05 0.0013705500168725848
-0.0001875489397207275 4.087604975211434e-05 0.0013705500168725848
-0.00018514448311179876 4.087604975211434e-05 0.0013705501332879066
-0.00018278000061400235 4.0884999179979786e-05 0.0013708501355722547
-0.00018028946942649782 4.0865612390916795e-05 0.001370200072415173
-0.0002180567244067788 4.313210229156539e-05 0.001365849981084466
-0.00021568422380369157 4.313683893997222e-05 0.001366000040434301
-0.00021328769798856229 4.313683893997222e-05 0.001366000040434301
-0.000210999307455495 4.315894693718292e-05 0.0013667000457644463
-0.00020867027342319489 4.317315324442461e-05 0.0013671501073986292
-0.0002062717394437641 4.317315324442461e-05 0.0013671501073986292
-0.00020392544684000313 4.318420906201936e-05 0.0013675001682713628
-0.00020150418276898563 4.317946877563372e-05 0.0013673501089215279
-0.00019924368825741112 4.3209474824834615e-05 0.0013683000579476357
-0.00019688629254233092 4.321894812164828e-05 0.0013686000602319837
-0.00019448527018539608 4.321894812164828e-05 0.0013686000602319837
-0.0001921263028634712 4.322842141846195e-05 0.0013688999461010098
-0.00018981480388902128 4.324894689489156e-05 0.0013695498928427696
-0.00018739158986136317 4.324421024648473e-05 0.0013693998334929347
-0.00018498912686482072 4.324421024648473e-05 0.0013693998334929347
-0.0001826333173085004 4.325526242610067e-05 0.0013697498943656683
-0.0002180567244067788 4.552832251647487e-05 0.001365849981084466
-0.00021568422380369157 4.5533324737334624e-05 0.001366000040434301
-0.00021328769798856229 4.5533324737334624e-05 0.001366000040434301
-0.000210999307455495 4.555665873340331e-05 0.0013667000457644463
-0.00020867027342319489 4.557165812002495e-05 0.0013671501073986292
-0.0002062717394437641 4.557165812002495e-05 0.0013671501073986292
-0.00020392544684000313 4.55833287560381e-05 0.0013675001682713628
-0.00020150418276898563 4.557832653517835e-05 0.0013673501089215279
-0.00019924368825741112 4.560999514069408e-05 0.0013683000579476357
-0.0001969078730326146 4.562499452731572e-05 0.0013687500031664968
-0.00019450658874120563 4.562499452731572e-05 0.0013687500031664968
-0.0001921263028634712 4.562999674817547e-05 0.0013688999461010098
-0.00018981480388902128 4.565166454995051e-05 0.0013695498928427696
-0.00018739158986136317 4.564666232909076e-05 0.0013693998334929347
-0.00018498912686482072 4.564666232909076e-05 0.0013693998334929347
-0.00021796095825266093 4.790350794792175e-05 0.0013652502093464136
-0.0002155894908355549 4.790876846527681e-05 0.0013654001522809267
-0.0002131705841748044 4.790350794792175e-05 0.0013652502093464136
-0.00021075227414257824 4.78982474305667e-05 0.0013651001499965787
-0.00020842603407800198 4.791403262061067e-05 0.0013655500952154398
-0.0002059850812656805 4.790350067196414e-05 0.0013652500929310918
-0.00020373155712150037 4.793683910975233e-05 0.0013662001583725214
-0.00020133471116423607 4.793683910975233e-05 0.0013662001583725214
-0.00019902523490600288 4.7957895731087774e-05 0.0013668002793565392
-0.0001966921117855236 4.797368455911055e-05 0.0013672502245754004
-0.00019427211373113096 4.796842040377669e-05 0.0013671001652255654
-0.00019195789354853332 4.798947338713333e-05 0.0013677000533789396
-0.00018959998851642013 4.7999998059822246e-05 0.0013679999392479658
-0.0001871999993454665 4.7999998059822246e-05 0.0013679999392479658
-0.00021778533118776977 5.025815335102379e-05 0.001364150200970471
-0.0002154157991753891 5.026367580285296e-05 0.001364300143904984
-0.0002129519998561591 5.024710117140785e-05 0.001363850082270801
-0.00021055927209090441 5.024710117140785e-05 0.001363850082270801
-0.0002082352584693581 5.026367580285296e-05 0.0013643000274896622
-0.00020584173034876585 5.026367580285296e-05 0.0013643000274896622
-0.00020351533021312207 5.0280254072276875e-05 0.001364750089123845
