0.897869 0.192945 -0.395731
0.909205 0.155015 -0.386416
0.904629 0.182335 -0.385228
0.896143 0.172840 -0.408723
0.899561 0.128418 -0.417492
0.911278 0.115262 -0.395332
0.896149 0.070046 -0.438191
0.907452 0.080551 -0.412362
0.886389 0.027601 -0.462118
0.897899 0.019990 -0.439748
0.877604 -0.012407 -0.479226
0.884030 -0.033560 -0.466223
0.872185 -0.059395 -0.485558
0.865103 -0.036278 -0.500280
0.862513 -0.042942 -0.504209
0.865704 -0.053813 -0.497656
0.853355 -0.027169 -0.520621
0.856020 -0.031178 -0.516002
0.851021 -0.015276 -0.524909
0.840968 -0.001717 -0.541082
0.858976 -0.033155 -0.510942
0.856983 -0.008589 -0.515272
0.849005 0.009059 -0.528307
0.843240 0.023148 -0.537039
0.854765 0.035045 -0.517830
0.846530 0.032125 -0.531371
0.855978 0.030239 -0.516127
0.858423 0.018151 -0.512621
0.903529 0.022377 -0.427942
0.901976 0.033534 -0.430481
0.903842 0.027720 -0.426968
0.898270 0.057612 -0.435652
0.881973 0.212280 -0.420786
0.888337 0.190898 -0.417631
0.890292 0.205546 -0.406364
0.873190 0.203599 -0.442816
0.888259 0.156072 -0.432015
0.879987 0.151862 -0.450068
0.878528 0.216393 -0.425867
0.888713 0.205978 -0.409587
0.868298 0.219111 -0.445026
0.879596 0.159064 -0.448341
0.873973 0.198168 -0.443735
0.895068 0.176964 -0.409314
0.901467 0.118625 -0.416277
0.888720 0.127048 -0.440494
0.900839 0.052628 -0.430952
0.886217 0.047584 -0.460820
0.885797 -0.018714 -0.463695
0.872271 -0.040623 -0.487332
0.863027 -0.088561 -0.497335
0.871754 -0.070931 -0.484782
0.862994 -0.097483 -0.495721
0.860637 -0.100455 -0.499212
0.867037 -0.075136 -0.492545
0.865576 -0.078024 -0.494663
0.863102 -0.091907 -0.496596
0.865541 -0.041172 -0.499143
0.868902 -0.051966 -0.492248
0.870386 -0.049276 -0.489898
0.872881 -0.013849 -0.487736
0.867414 0.008546 -0.497514
0.877174 0.006616 -0.480127
0.878626 0.067593 -0.472702
0.878169 0.045117 -0.476218
0.869216 0.041038 -0.492727
0.873649 0.053668 -0.483588
0.877533 0.067312 -0.474768
0.869233 0.042276 -0.492591
0.873054 0.052098 -0.484832
0.866958 0.036092 -0.497073
0.869886 0.039088 -0.491702
0.950665 0.181112 -0.251862
0.940677 0.185918 -0.283834
0.948540 0.182076 -0.259077
0.953251 0.181834 -0.241346
0.954911 0.185456 -0.231843
0.957885 0.185657 -0.219060
0.952548 0.183575 -0.242802
0.955094 0.185114 -0.231363
0.949851 0.183891 -0.252918
0.948989 0.183507 -0.256407
0.952329 0.188161 -0.240134
0.950947 0.186365 -0.246919
0.990132 0.132849 -0.044614
0.989654 0.129039 -0.062727
0.990844 0.132205 -0.027401
0.988804 0.130978 -0.071499
0.991551 0.125452 -0.033004
0.990813 0.135081 0.006575
0.993381 0.113993 -0.014149
0.991988 0.125762 0.012015
0.994492 0.101943 0.024369
0.992283 0.119491 0.033113
0.991129 -0.104745 0.081808
0.995125 -0.098491 0.005090
0.988948 -0.104968 0.104708
0.992897 -0.106946 0.052134
0.994374 -0.105897 0.002455
0.996333 -0.079964 -0.030424
0.993926 -0.077071 0.078558
0.996770 -0.016499 0.078594
0.999410 -0.028831 -0.018658
0.999382 0.035096 0.001840
0.996508 0.027440 0.078859
0.983825 0.142909 0.108007
0.983221 0.181784 0.015218
0.972571 0.184799 0.141264
0.990244 0.125422 -0.060706
0.993655 0.078061 0.080972
0.982161 0.174597 -0.069826
0.974834 0.206473 0.084071
0.977160 0.201399 -0.067794
0.979154 0.190170 -0.071357
0.975511 0.205852 -0.077481
0.971657 0.219595 0.087521
0.979364 0.201080 -0.020326
0.972707 0.219253 0.075957
0.975483 0.200936 0.089766
0.984607 0.174780 0.000518
0.960528 0.168320 0.221484
0.951509 0.190496 0.241541
0.956920 0.182993 0.225427
0.963462 0.161527 0.213661
0.967262 0.144041 0.208943
0.962807 0.152888 0.222776
0.961400 0.201668 0.187192
0.941982 0.180205 0.283191
0.942113 0.133649 0.307507
0.936312 0.192732 0.293554
0.942064 0.211378 0.260451
0.940961 0.194954 0.276741
0.950095 0.212164 0.228706
0.945288 0.195809 0.260940
0.950618 0.209611 0.228888
0.952701 0.219043 0.210669
0.948619 0.198219 0.246640
0.951051 0.190192 0.243577
0.949878 0.193700 0.245380
0.975555 0.134762 0.173583
0.975432 0.117068 0.186623
0.988827 0.097859 0.112453
0.984439 0.084705 0.153967
0.970631 -0.103159 0.217334
0.973512 -0.162518 0.160818
0.951071 -0.099622 0.292471
0.958297 -0.176935 0.224412
0.943478 -0.135900 0.302293
0.941425 -0.178891 0.285862
0.926495 -0.113193 0.358878
0.933024 -0.083767 0.349927
0.906317 -0.069468 0.416850
0.913784 -0.045480 0.403646
0.892801 -0.017947 0.450093
0.895617 -0.006765 0.444774
0.894412 0.026504 0.446459
0.888571 0.036388 0.457293
0.898807 0.066517 0.433269
0.889092 0.074271 0.451662
0.902885 0.097916 0.418582
0.892772 0.097929 0.439736
0.898786 0.105514 0.425499
0.920462 0.134784 0.366856
0.914915 0.130090 0.382110
0.926466 0.127684 0.354058
0.908101 0.098221 0.407070
0.926994 -0.156385 0.340918
0.910723 -0.085964 0.403973
0.906807 0.068710 0.415908
0.913510 0.065320 0.401539
0.909588 0.056925 0.411593
0.903712 0.055713 0.424501
0.921148 0.087510 0.379247
0.914144 0.064194 0.400274
0.925806 0.059764 0.373245
0.932244 0.071471 0.354700
0.945465 0.070995 0.317892
0.937837 0.050689 0.343354
0.953301 0.074282 0.292746
0.947069 0.051208 0.316920
0.957133 0.081679 0.277893
0.953310 0.062341 0.295487
0.959177 0.077885 0.271869
0.953400 0.068529 0.293825
0.945620 0.056076 0.320402
0.954738 0.058108 0.291717
0.950277 0.071737 0.303030
0.946978 0.130012 0.293819
0.946693 0.135421 0.292290
0.936056 0.118555 0.331277
0.930580 0.107150 0.350057
0.940662 0.137035 0.310444
0.935516 0.125933 0.330077
0.926414 0.133081 0.352203
0.920084 0.119653 0.373000
0.913655 0.129375 0.385352
0.902025 0.113000 0.416631
0.910435 0.127726 0.393440
0.891802 0.109126 0.439068
0.920044 0.128399 0.370180
0.891583 0.108944 0.439558
0.890749 0.107405 0.441623
0.896465 0.120489 0.426418
0.885244 0.110672 0.451769
0.896822 0.129243 0.423092
0.887800 0.125559 0.442771
0.891810 0.136343 0.431376
0.886172 0.140274 0.441613
0.897940 0.133121 0.419502
0.903300 0.025572 0.428247
0.915805 0.122066 0.382625
0.911633 0.124363 0.391740
0.902796 0.130463 0.409804
0.922728 0.049848 0.382216
0.913198 0.025328 0.406728
0.936358 0.067033 0.344586
0.923946 0.040489 0.380374
0.943781 0.079089 0.320971
0.930799 0.050571 0.362016
0.951431 0.090199 0.294352
0.939039 0.063836 0.337831
0.946830 0.073399 0.313249
0.962776 0.093338 0.253674
0.951122 0.075162 0.299529
0.961745 0.104123 0.253387
0.971733 0.100282 0.213725
0.958114 0.080488 0.274845
0.971387 0.115639 0.207447
0.977488 0.102076 0.184657
0.965621 0.086126 0.245272
0.978169 0.117543 0.171373
0.980351 0.102609 0.168472
0.971947 0.094749 0.215270
0.982455 0.110891 0.149952
0.875684 0.075796 0.476899
0.885539 0.075657 0.458364
0.873161 0.076087 0.481456
0.872452 0.075229 0.482876
0.894059 0.079829 0.440779
0.897838 0.080746 0.432860
0.893257 0.082032 0.441999
0.878225 0.074844 0.472354
0.885171 0.083461 0.457719
0.871321 0.072808 0.485283
0.864130 0.067096 0.498776
0.866516 0.068467 0.494431
0.864945 0.063493 0.497833
0.869984 0.073900 0.487511
0.869242 0.072169 0.489092
0.867503 0.065153 0.493146
0.870063 0.077359 0.486833
0.874001 0.080495 0.479211
0.871495 0.069056 0.485518
0.874571 0.085736 0.477258
0.878416 0.091912 0.468976
0.878425 0.085239 0.470218
0.879028 0.095172 0.467175
0.882909 0.103144 0.458076
0.882154 0.107684 0.458485
0.887614 0.117262 0.445411
0.886125 0.124762 0.446337
0.891047 0.131153 0.434551
0.898706 0.123797 0.420716
0.900503 0.098638 0.423515
0.901451 0.053767 0.429529
0.898302 0.011807 0.439220
0.902371 0.016125 0.430657
0.904715 0.004943 0.425988
0.904339 0.000316 0.426815
0.908081 0.005997 0.418751
0.906379 -0.000219 0.422465
0.915165 0.021897 0.402484
0.909888 0.013980 0.414619
0.924288 0.042148 0.379362
0.910089 0.030488 0.413290
0.936956 0.060307 0.344204
0.916947 0.046392 0.396304
0.938181 0.061973 0.340552
0.914417 0.049891 0.401687
0.824275 0.054742 0.563536
0.829423 0.045074 0.556799
0.818595 0.059025 0.571331
0.814091 0.069838 0.576523
0.832348 0.052051 0.551803
0.839905 0.038522 0.541365
0.833946 0.040002 0.550395
0.816232 0.060850 0.574510
0.842094 0.034902 0.538200
0.827485 0.049460 0.559305
0.806112 0.071346 0.587447
0.842157 0.039393 0.537792
0.819771 0.058918 0.569653
0.796466 0.076649 0.599805
0.843500 0.049476 0.534846
0.809891 0.065076 0.582959
0.786013 0.077552 0.613326
0.835317 0.058337 0.546665
0.812667 0.061961 0.579425
0.787558 0.066095 0.612685
0.841121 0.066493 0.536744
0.818971 0.060401 0.570648
0.799447 0.045460 0.599014
0.839212 0.068503 0.539473
0.829589 0.023676 0.557873
0.841300 0.062890 0.536898
0.850549 0.053274 0.523191
0.866209 0.040276 0.498057
0.847886 -0.003721 0.530166
0.890975 0.041979 0.452108
0.876531 0.003114 0.481335
0.902813 0.025072 0.429302
0.893468 0.002389 0.449121
0.912953 0.014950 0.407792
0.900777 0.015653 0.434000
0.842031 0.157205 0.516014
0.829782 0.167721 0.532289
0.809411 0.200232 0.552052
0.918631 0.013661 0.394881
0.909149 0.027133 0.415586
0.908439 0.037950 0.416290
0.893016 0.065494 0.445234
0.883018 0.089349 0.460757
0.869974 0.112043 0.480199
0.857217 0.125996 0.499303
0.810659 0.186105 0.555155
0.789929 0.212418 0.575232
0.774890 0.208706 0.596647
0.797540 0.174032 0.577619
0.773049 0.167404 0.611859
0.813343 0.064984 0.578144
0.793374 0.038567 0.607512
0.815756 0.090761 0.571230
0.748522 0.057531 0.660610
0.769920 0.102207 0.629902
0.792430 0.120098 0.598023
0.829572 0.081145 0.552472
0.807971 0.115758 0.577739
0.819524 0.095102 0.565098
0.825648 0.065824 0.560332
0.835113 0.055319 0.547290
0.838247 0.009962 0.545200
0.837180 0.019644 0.546574
0.843726 -0.022187 0.536315
0.837250 -0.015919 0.546589
0.828784 -0.028431 0.558845
0.843547 -0.038797 0.535652
0.836496 -0.043810 0.546218
0.832845 -0.037959 0.552203
0.820100 -0.025093 0.571670
0.843839 -0.049815 0.534279
0.844844 -0.040352 0.533488
0.828626 -0.016002 0.559574
0.815640 -0.014744 0.578372
0.828720 0.022296 0.559219
0.805190 0.014234 0.592846
0.847799 -0.015199 0.530099
0.854740 0.012977 0.518894
0.821038 0.065427 0.567112
0.798662 0.049952 0.599703
0.819246 0.086104 0.566941
0.800199 0.081047 0.594233
0.851178 0.048871 0.522597
0.835890 0.078385 0.543271
0.798712 0.094547 0.594238
0.825283 0.090838 0.557365
0.811621 0.097327 0.576019
0.796304 0.093796 0.597580
0.798871 0.090661 0.594631
0.800953 0.088554 0.592143
0.800656 0.090783 0.592206
0.798090 0.080703 0.597109
0.803303 0.082499 0.589828
0.793920 0.074754 0.603409
0.795274 0.073590 0.601767
0.802600 0.079960 0.591135
0.786588 0.062095 0.614348
0.799638 0.091166 0.593522
0.805297 0.089511 0.586076
0.788834 0.101325 0.606197
0.809786 0.087225 0.580206
0.780718 0.110263 0.615078
0.793019 0.100191 0.600902
0.805589 0.085261 0.586308
0.814166 0.081736 0.574850
0.818168 0.071726 0.570488
0.686613 0.130020 0.715302
0.696736 0.106328 0.709404
0.674148 0.159524 0.721163
0.695732 0.106655 0.710339
0.710562 0.080773 0.698983
0.705822 0.082200 0.703604
0.711601 0.070384 0.699050
0.703196 0.089008 0.705402
0.693868 0.116126 0.710677
0.664392 0.180629 0.725229
0.711548 0.083764 0.697627
0.714372 0.182988 0.675417
0.719481 0.207580 0.662765
0.709797 0.199662 0.675517
0.728074 0.206805 0.653559
0.715589 0.202805 0.668433
0.736200 0.198093 0.647123
0.728049 0.191379 0.658270
0.738353 0.160808 0.654963
0.748405 0.138793 0.648557
0.743225 0.138898 0.654464
0.751500 0.155569 0.641128
0.748513 0.182956 0.637382
0.761768 0.109154 0.638589
0.753161 0.115745 0.647574
0.761015 0.135624 0.634399
0.780079 0.065356 0.622258
0.772128 0.073491 0.631203
0.773887 0.103918 0.624739
0.794829 0.024206 0.606351
0.794217 0.018987 0.607337
0.789281 0.058623 0.611227
0.566366 0.013867 0.824037
0.567069 0.015078 0.823533
0.565770 0.011695 0.824480
0.568372 0.015335 0.822628
0.584173 0.021557 0.811343
0.572711 0.018274 0.819553
0.563323 0.004478 0.826224
0.563427 0.006931 0.826137
0.565482 0.014366 0.824636
0.570988 0.019610 0.820724
0.565713 0.017211 0.824423
0.760906 0.095384 -0.641813
0.768148 0.086478 -0.634405
0.765979 0.092055 -0.636241
0.763163 0.085069 -0.640582
0.760985 0.095111 -0.641760
0.763356 0.085553 -0.640287
0.764348 0.077093 -0.640178
0.766251 0.061519 -0.639590
0.770445 0.034643 -0.636565
0.772476 0.046607 -0.633331
0.775449 0.029776 -0.630708
0.777194 0.017814 -0.629009
0.771517 0.010364 -0.636124
0.778288 0.005090 -0.627886
0.775644 -0.001984 -0.631167
0.779356 -0.003698 -0.626571
0.755918 0.120483 -0.643484
0.773469 0.073768 -0.629527
0.761093 0.114797 -0.638404
0.782598 -0.007664 -0.622480
0.782122 -0.003655 -0.623115
0.779836 0.022435 -0.625582
0.778852 0.046012 -0.625517
0.742588 0.154585 -0.651664
0.743854 0.156973 -0.649646
0.728473 0.183692 -0.659988
0.723677 0.178424 -0.666676
0.725463 0.186113 -0.662620
0.726181 0.174771 -0.664918
0.725436 0.164121 -0.668436
0.727978 0.152358 -0.668457
0.726398 0.140294 -0.672803
0.729514 0.127449 -0.671987
0.728370 0.110553 -0.676206
0.731335 0.105300 -0.673840
0.731086 0.088548 -0.676515
0.733400 0.088156 -0.674057
0.735299 0.080605 -0.672933
0.737860 0.089801 -0.668954
0.742517 0.086219 -0.664255
0.744989 0.096902 -0.660000
0.752504 0.119400 -0.647674
0.754458 0.168930 -0.634237
0.754284 0.155539 -0.637858
0.753474 0.167430 -0.635802
0.755459 0.143827 -0.639215
0.754106 0.179174 -0.631839
0.752793 0.180501 -0.633026
0.751991 0.188889 -0.631530
0.750488 0.186135 -0.634130
0.736141 0.159163 -0.657848
0.727598 0.154966 -0.668271
0.731125 0.146934 -0.666234
0.725911 0.147141 -0.671865
0.723990 0.162806 -0.670323
0.722998 0.151579 -0.674016
0.723018 0.146016 -0.675222
0.725703 0.143069 -0.672968
0.727478 0.143037 -0.671056
0.725539 0.139032 -0.673990
0.729096 0.136953 -0.670569
0.728565 0.134931 -0.671555
0.729726 0.131969 -0.670883
0.736928 0.119725 -0.665284
0.735422 0.126112 -0.665770
0.728734 0.131429 -0.672067
0.748932 0.104658 -0.654330
0.741709 0.118850 -0.660108
0.749969 0.104256 -0.653206
0.832606 -0.069645 -0.549470
0.829626 -0.063149 -0.554736
0.831866 -0.081663 -0.548935
0.838689 -0.084512 -0.538013
0.841947 -0.065670 -0.535549
0.847287 -0.040369 -0.529600
0.837811 -0.020459 -0.545577
0.838184 0.015754 -0.545160
0.873640 0.045583 -0.484432
0.852175 0.056157 -0.520234
0.890641 0.089900 -0.445732
0.862344 0.076418 -0.500523
0.884393 0.092625 -0.457460
0.872766 0.061975 -0.484188
0.849262 0.063050 -0.524194
0.847385 0.044733 -0.529091
0.894218 0.081051 -0.440234
0.882957 0.049279 -0.466861
0.849402 0.034152 -0.526641
0.911283 0.055207 -0.408062
0.868600 0.032086 -0.494473
0.896238 0.031730 -0.442437
0.915160 0.021526 -0.402515
0.865079 0.027679 -0.500871
0.898549 0.015641 -0.438594
0.908040 -0.001809 -0.418880
0.884275 0.020554 -0.466513
0.849717 0.046575 -0.525178
0.894915 0.003263 -0.446224
0.868579 0.058176 -0.492124
0.841202 0.084866 -0.534020
0.879900 0.038952 -0.473559
0.850168 0.119958 -0.512664
0.834390 0.129062 -0.535850
0.858625 0.107446 -0.501217
0.836054 0.167250 -0.522534
0.828412 0.190136 -0.526861
0.832349 0.165691 -0.528906
0.838892 0.135115 -0.527261
0.832117 0.144556 -0.535429
0.839970 0.160402 -0.518383
0.825151 0.169641 -0.538840
0.842949 0.160628 -0.513455
0.829798 0.205655 -0.518788
0.833229 0.192136 -0.518472
0.829136 0.196689 -0.523304
0.831069 0.187446 -0.523629
0.835012 0.148917 -0.529698
0.836852 0.107910 -0.536688
0.829785 0.127315 -0.543367
0.819466 0.106014 -0.563237
0.831438 0.079353 -0.549921
0.807998 0.098434 -0.580904
0.825113 0.066338 -0.561060
0.803369 0.097241 -0.587488
0.783346 0.133569 -0.607066
0.842821 0.060741 -0.534756
0.855125 0.068201 -0.513917
0.844865 0.076256 -0.529517
0.859970 0.081831 -0.503742
0.829542 0.106629 -0.548170
0.813824 0.099320 -0.572561
0.798961 0.109743 -0.591285
0.835428 0.087023 -0.542667
0.855468 0.090463 -0.509893
0.856486 0.100804 -0.506231
0.820859 0.109835 -0.560470
0.780837 0.115147 -0.614031
0.816048 0.107657 -0.567869
0.789518 0.116401 -0.602588
0.850963 0.102442 -0.515139
0.843133 0.097432 -0.528804
0.815153 0.101446 -0.570293
0.793872 0.111577 -0.597761
0.814322 0.095387 -0.572521
0.796615 0.102996 -0.595648
0.836027 0.087649 -0.541642
0.828776 0.082831 -0.553416
0.813741 0.081380 -0.575502
0.798075 0.097740 -0.594578
0.823081 0.078501 -0.562473
0.786533 0.101626 -0.609129
0.855737 0.202624 -0.476085
0.871372 0.209199 -0.443786
0.869826 0.214446 -0.444315
0.859081 0.212517 -0.465635
0.878212 0.214817 -0.427313
0.877956 0.222827 -0.423722
0.870832 0.225715 -0.436696
0.864223 0.225546 -0.449720
0.870762 0.239803 -0.429264
0.867649 0.232983 -0.439208
0.872806 0.237991 -0.426110
0.870735 0.233678 -0.432684
0.865957 0.227996 -0.445125
0.866790 0.223431 -0.445817
0.872353 0.239989 -0.425918
0.874501 0.228102 -0.428040
0.869862 0.216349 -0.443320
0.876256 0.236608 -0.419753
0.876621 0.232756 -0.421142
0.890556 0.179659 -0.417891
0.881401 0.214215 -0.421003
0.878033 0.195090 -0.437032
0.892384 0.142708 -0.428118
0.897854 0.143524 -0.416243
0.888391 0.078963 -0.452246
0.902902 0.076040 -0.423068
0.891216 -0.008163 -0.453505
0.909502 -0.008287 -0.415617
0.879102 -0.073203 -0.470978
0.907152 -0.061544 -0.416277
0.906192 -0.093572 -0.412384
0.867654 -0.087146 -0.489472
0.898718 -0.087969 -0.429613
0.922900 -0.088838 -0.374650
0.862901 -0.063089 -0.501419
0.894648 -0.054073 -0.443487
0.923372 -0.054800 -0.379976
0.867160 -0.008092 -0.497964
0.909559 -0.006470 -0.415524
0.930408 -0.001837 -0.366520
0.896937 0.044892 -0.439874
0.866058 0.048872 -0.497549
0.922028 0.045979 -0.384383
0.889293 0.082795 -0.449780
0.866277 0.088231 -0.491711
0.909434 0.085172 -0.407032
0.894409 0.137668 -0.425535
0.897210 0.114182 -0.426588
0.871532 0.124486 -0.474274
0.870104 0.139146 -0.472818
0.889489 0.137803 -0.435682
0.876530 0.131494 -0.463037
0.867489 0.140651 -0.477159
0.862430 0.139562 -0.486557
0.869653 0.122227 -0.478293
0.855260 0.138232 -0.499422
0.882343 0.218357 -0.416882
0.880381 0.228331 -0.415685
0.874152 0.246083 -0.418690
0.875029 0.244025 -0.418063
0.874438 0.247640 -0.417173
0.876343 0.225596 -0.425592
0.877189 0.239867 -0.415938
0.875173 0.248440 -0.415151
0.888579 0.184954 -0.419784
0.881074 0.193877 -0.431417
0.896761 0.144547 -0.418241
0.889871 0.149561 -0.431000
0.905487 0.064949 -0.419375
0.899651 0.099805 -0.425048
0.907457 0.031717 -0.418947
0.917098 -0.037669 -0.396878
0.912967 -0.008532 -0.407945
0.919882 -0.075743 -0.384812
0.921923 -0.046116 -0.384618
0.928209 -0.072950 -0.364838
0.936927 -0.056270 -0.344967
0.939105 -0.021537 -0.342954
0.938758 0.031553 -0.343129
0.924786 0.091339 -0.369361
0.910777 0.128374 -0.392436
0.923279 0.114390 -0.366703
0.903403 0.136674 -0.406427
0.914737 0.126170 -0.383844
0.897872 0.148878 -0.414321
0.907790 0.160072 -0.387678
0.910220 0.117279 -0.397173
0.907885 0.062868 -0.414480
0.895447 -0.002397 -0.445162
0.882597 -0.047732 -0.467702
0.865128 0.041234 -0.499853
0.863163 0.037173 -0.503554
0.852845 0.033380 -0.521096
0.863188 0.034299 -0.503716
0.857893 0.032215 -0.512818
0.906605 0.007925 -0.421907
0.910591 -0.004588 -0.413284
0.911510 0.010120 -0.411153
0.917645 0.020218 -0.396887
0.915108 0.034325 -0.401744
0.903407 0.033408 -0.427480
0.914510 0.027839 -0.403605
0.924886 0.032590 -0.378844
0.925653 0.037642 -0.376496
0.918501 0.052965 -0.391856
0.928673 0.054215 -0.366915
0.932430 0.050769 -0.357767
0.922272 0.082043 -0.377735
0.906321 0.101914 -0.410116
0.931296 0.091168 -0.352671
0.879226 0.034678 -0.475141
0.873408 0.117843 -0.472517
0.866636 0.046207 -0.496797
0.914438 0.127241 -0.384203
0.886247 0.170488 -0.430697
0.922819 0.133803 -0.361249
0.894643 0.177088 -0.410187
0.878937 0.186528 -0.438950
0.909866 0.160425 -0.382632
0.871027 0.177133 -0.458187
0.900110 0.141510 -0.412040
0.899476 0.064968 -0.432114
0.870154 0.002091 -0.492776
0.879229 -0.007226 -0.476345
0.879111 -0.038417 -0.475066
0.898829 -0.002717 -0.438291
0.906146 -0.045521 -0.420508
0.889903 -0.066202 -0.451321
0.887121 -0.074292 -0.455519
0.907580 -0.063320 -0.415078
0.895628 -0.055495 -0.441329
0.914652 -0.054096 -0.400606
0.899181 0.100751 -0.425821
0.892722 0.078949 -0.443638
0.889506 0.097109 -0.446484
0.901207 0.097101 -0.422370
0.893104 0.083806 -0.441975
0.893820 -0.010356 -0.448306
0.914957 -0.017531 -0.403171
0.889855 0.034777 -0.454916
0.906380 0.043284 -0.420240
0.912938 0.085814 -0.398974
0.915823 0.092488 -0.390787
0.915452 0.075612 -0.395260
0.897218 0.062272 -0.437174
0.937210 0.047228 -0.345554
0.941751 0.058284 -0.331221
0.916676 0.052099 -0.396221
0.934371 0.076843 -0.347918
0.914337 0.042670 -0.402700
0.947597 0.046659 -0.316043
0.950600 0.049311 -0.306477
0.956893 0.052988 -0.285565
0.960174 0.049411 -0.274999
0.981844 0.072717 -0.175197
0.976126 0.052694 -0.210717
0.969724 0.053886 -0.238183
0.969855 0.048070 -0.238894
0.982626 0.070255 -0.171784
0.978444 0.118152 -0.169375
0.974177 0.104016 -0.200401
0.981165 0.088861 -0.171522
0.972195 0.135145 -0.191239
0.977168 0.077785 -0.197718
0.983404 0.079405 -0.163129
0.981710 0.073669 -0.175551
0.986902 0.087652 -0.135434
0.987437 0.084408 -0.133579
0.990260 0.101868 -0.094907
0.991979 0.103862 -0.072040
0.991501 0.099984 -0.083237
0.992349 0.105170 -0.064671
0.992365 0.107376 -0.060684
0.990784 0.099444 -0.091964
0.991681 0.105460 -0.073804
0.936434 0.169049 -0.307432
0.927846 0.169330 -0.332310
0.916702 0.188168 -0.352491
0.953692 0.140125 -0.266152
0.958476 0.152800 -0.240784
0.980119 0.114057 -0.162351
0.940932 0.191220 -0.279433
0.944855 0.176837 -0.275642
0.918755 0.196019 -0.342732
0.923338 0.200756 -0.327327
0.946541 0.203892 -0.249977
0.931941 0.200218 -0.302323
0.957047 0.210888 -0.198963
0.951935 0.185512 -0.243730
0.933108 0.189062 -0.305883
0.942331 0.161014 -0.293406
0.980461 0.126725 -0.150459
0.977415 0.165489 -0.131430
0.964164 0.124071 -0.234510
0.970460 0.035827 -0.238588
0.977779 0.074786 -0.195847
0.996307 0.013307 -0.084827
0.984859 -0.027129 -0.171220
0.968729 0.199688 -0.147269
0.992665 0.035644 -0.115527
0.996134 0.087484 0.007978
0.992871 0.095271 -0.071635
0.991571 0.126352 0.028659
0.989435 0.136605 -0.048546
0.989498 0.141336 0.030289
0.986499 0.152235 -0.060363
0.989394 0.144668 -0.013059
0.989982 0.138650 -0.026668
0.985867 0.150518 -0.073552
0.991680 0.123024 -0.037905
0.982482 0.163664 -0.089121
0.983061 0.149903 -0.105453
0.990360 0.122370 -0.064909
0.981385 0.136124 -0.135473
0.988060 0.119927 -0.096726
0.987747 0.098792 -0.120813
0.960652 0.186103 0.206186
0.937236 0.163076 0.308213
0.943521 0.142332 0.299181
0.916038 0.101087 0.388143
0.961875 0.192347 0.194419
0.945704 0.158295 0.283878
0.943270 0.116737 0.310829
0.964768 0.167292 0.203067
0.959917 0.131126 0.247719
0.956883 0.078196 0.279752
0.977183 0.068649 0.200998
0.975970 0.082648 0.201623
0.960565 0.080514 0.266142
0.960047 0.086443 0.266152
0.964694 0.102415 0.242644
0.958994 0.089964 0.268771
0.972141 0.102200 0.210945
0.966851 0.112182 0.229377
0.961937 0.096211 0.255777
0.966345 0.099348 0.237291
0.966316 0.064782 0.249071
0.980515 0.065261 0.185287
0.972826 0.022435 0.230446
0.977085 0.014906 0.212327
0.975393 0.013235 0.220078
0.986986 0.037550 0.156359
0.954066 0.011507 0.299375
0.968366 0.033659 0.247254
0.957235 0.003727 0.289287
0.978093 0.070265 0.195950
0.968723 0.011986 0.247854
0.985286 0.059723 0.160142
0.986136 0.037195 0.161716
0.987145 0.031615 0.156670
0.974184 0.008293 0.225603
0.731137 0.048107 0.680532
0.716807 0.051119 0.695395
0.730281 0.059225 0.680574
0.755084 0.088972 -0.649563
0.759466 0.081460 -0.645427
0.752109 0.081256 -0.654011
0.770312 0.083250 -0.632209
0.765139 0.081815 -0.638646
0.771456 0.085004 -0.630579
0.761015 0.082901 -0.643416
0.764254 0.088962 -0.638750
0.776826 0.082818 -0.624246
0.780445 0.082456 -0.619763
0.903363 0.122754 -0.410934
0.901364 0.115386 -0.417407
0.925627 0.126458 -0.356683
0.924551 0.114351 -0.363496
0.914646 0.105984 -0.390114
0.939237 0.116786 -0.322792
0.913562 0.116417 -0.389680
0.914241 0.077742 -0.397641
0.913656 0.091811 -0.395984
0.896689 0.087854 -0.433855
0.898107 0.075552 -0.433240
0.900773 0.101928 -0.422159
0.939853 0.084929 -0.330854
0.920423 0.093086 -0.379680
0.944003 0.051896 -0.325830
0.926870 0.064219 -0.369849
0.945086 0.011977 -0.326603
0.923252 0.031993 -0.382861
0.947065 -0.013880 -0.320741
0.923500 0.001506 -0.383596
0.943870 -0.003824 -0.330296
0.923199 -0.004094 -0.384301
0.937361 0.021042 -0.347722
0.927109 0.016707 -0.374420
0.927772 0.042473 -0.370722
0.922460 0.037369 -0.384279
0.922231 0.049564 -0.383450
0.920594 0.036120 -0.388847
0.915078 0.027067 -0.402367
0.920669 0.014297 -0.390082
0.901662 -0.009150 -0.432345
0.916218 -0.017278 -0.400308
0.898200 -0.036784 -0.438045
0.906983 -0.057053 -0.417285
0.874188 -0.059769 -0.481895
0.895239 -0.070105 -0.440037
0.868753 -0.070620 -0.490185
0.900512 -0.070465 -0.429083
0.890461 -0.059048 -0.451213
0.907880 -0.063131 -0.414450
0.907885 -0.045636 -0.416728
0.892407 -0.039616 -0.449488
0.907048 -0.030561 -0.419917
0.904100 -0.001769 -0.427318
0.906588 -0.016854 -0.421680
0.895724 -0.014964 -0.444358
0.910931 -0.029412 -0.411510
0.900889 0.016236 -0.433747
0.903450 0.009493 -0.428589
0.900792 0.046855 -0.431715
0.887200 0.104588 -0.449374
0.893946 0.097645 -0.437408
0.995162 0.060607 0.077322
0.995307 0.096240 -0.010088
0.995209 0.095736 -0.019864
0.995462 0.066298 0.068258
0.995530 0.094394 0.003103
0.914403 0.090348 0.394595
0.916517 0.095667 0.388386
0.913615 0.102803 0.393369
0.897474 0.099584 0.429679
0.880657 0.089709 0.465182
0.877173 0.091704 0.471336
0.879637 0.095967 0.465865
0.895697 0.020072 0.444212
0.903798 0.012704 0.427770
0.914985 0.021635 0.402908
0.925505 0.040510 0.376563
0.933727 0.054179 0.353863
0.884816 0.080103 0.459004
0.922680 0.099424 0.372527
0.910115 0.088724 0.404746
0.822767 0.076475 0.563211
0.828398 0.069928 0.555758
0.835889 0.060739 0.545528
0.802799 -0.005732 0.596222
0.805471 -0.014786 0.592450
0.803721 0.005293 0.594982
0.807659 -0.023003 0.589201
0.806453 -0.020610 0.590938
0.811817 -0.027368 0.583271
0.806491 -0.024131 0.590753
0.802742 -0.017940 0.596057
0.813875 -0.033713 0.580062
0.803286 -0.016376 0.595368
0.783280 0.017593 0.621421
0.812786 -0.029645 0.581808
0.784812 0.012105 0.619616
0.758569 0.044218 0.650091
0.768156 0.034501 0.639332
0.733314 0.065710 0.676707
0.689998 0.067986 0.720612
0.707851 0.083457 0.701414
0.661841 0.063337 0.746963
0.732835 0.087128 0.674805
0.760377 0.095657 0.642399
0.748228 0.100240 0.655825
0.733315 0.099598 0.672554
0.729508 0.100462 0.676554
0.747013 0.105619 0.656365
0.752487 0.094234 0.651831
0.708908 0.057581 0.702946
0.747498 0.077281 0.659753
0.751676 0.047711 0.657804
0.739953 0.021142 0.672326
0.709595 0.007424 0.704571
0.740455 -0.019151 0.671833
0.715013 -0.032233 0.698368
0.721636 -0.059940 0.689672
0.740049 -0.059362 0.669928
0.729664 -0.073397 0.679856
0.742119 -0.085993 0.664729
0.728599 -0.077618 0.680528
0.719141 -0.068738 0.691456
0.739494 -0.084979 0.667778
0.732420 -0.071975 0.677038
0.719636 -0.058815 0.691856
0.746778 -0.068180 0.661570
0.733380 -0.040960 0.678584
0.720731 -0.013297 0.693087
0.745428 -0.021626 0.666235
0.733900 0.027014 0.678720
0.722343 0.041744 0.690274
0.746500 0.027082 0.664834
0.726905 0.105190 0.678634
0.719603 0.079614 0.689807
0.739959 0.102474 0.664801
0.724657 0.157647 0.670835
0.719987 0.139036 0.679918
0.732028 0.162730 0.661554
0.724408 0.210201 0.656543
0.726815 0.193067 0.659140
0.733840 0.218244 0.643311
0.742312 0.207063 0.637258
0.814165 0.063322 -0.577170
0.784383 0.076647 -0.615523
0.814811 0.099546 -0.571116
0.775887 0.048074 -0.629038
0.784976 0.118002 -0.608184
0.814596 0.134419 -0.564238
0.789551 0.170344 -0.589570
0.799839 0.153976 -0.580128
0.765527 0.150954 -0.625445
0.755753 0.121765 -0.643436
0.764957 0.171728 -0.620766
0.786695 0.179608 -0.590637
0.777151 0.181694 -0.602515
0.762084 0.180984 -0.621670
0.748974 0.179070 -0.637943
0.806898 0.176644 -0.563659
0.787287 0.165027 -0.594092
0.752256 0.158344 -0.639561
0.818411 0.153460 -0.553763
0.780516 0.140045 -0.609248
0.754856 0.137408 -0.641335
0.810571 0.134919 -0.569888
0.773880 0.124781 -0.620918
0.751350 0.125418 -0.647876
0.797307 0.120510 -0.591421
0.742757 0.174516 -0.646418
0.741231 0.138863 -0.656730
0.744047 0.161603 -0.648289
0.762754 0.140429 -0.631257
0.783948 0.116851 -0.609731
0.749341 0.124034 -0.650464
0.748904 0.171166 -0.640191
0.744753 0.191378 -0.639310
0.757425 0.192479 -0.623906
0.763490 0.201888 -0.613453
0.774029 0.196807 -0.601786
0.744624 0.206244 -0.634821
0.743575 0.194068 -0.639870
0.802903 0.168922 -0.571675
0.791339 0.178134 -0.584851
0.808368 0.153220 -0.568389
0.783327 0.176011 -0.596171
0.804730 0.148757 -0.574702
0.808294 0.132937 -0.573576
0.787498 0.136501 -0.601011
0.802868 0.116215 -0.584720
0.801067 0.120834 -0.586252
0.787071 0.101529 -0.608450
0.798283 0.102252 -0.593540
0.788728 0.114068 -0.604067
0.790484 0.086210 -0.606386
0.782264 0.086111 -0.616967
0.771762 0.106544 -0.626922
0.775330 0.065112 -0.628191
0.764448 0.081555 -0.639506
0.755927 0.099861 -0.646994
0.768436 0.065283 -0.636588
0.809374 0.064666 -0.583723
0.816873 0.066505 -0.572970
0.813091 0.037471 -0.580930
0.821057 0.046006 -0.568990
0.823232 0.024801 -0.567164
0.816383 0.020040 -0.577163
0.803161 0.065275 -0.592175
0.809003 0.048949 -0.585763
0.982076 0.142846 -0.122970
0.972975 0.158386 -0.168027
0.980974 0.144040 -0.130164
0.971493 0.159618 -0.175282
0.969262 0.162901 -0.184378
0.976999 0.147809 -0.153706
0.951749 0.186436 -0.243753
0.967413 0.159435 -0.196705
0.945280 0.189661 -0.265469
0.957765 0.167717 -0.233574
0.940768 0.178178 -0.288459
0.940653 0.192229 -0.279680
0.938713 0.184579 -0.291115
0.950975 0.167535 -0.259958
0.940215 0.158653 -0.301371
0.941218 0.163287 -0.295713
0.949237 0.145185 -0.279052
0.940876 0.123834 -0.315306
0.946328 0.118877 -0.300553
0.947280 0.112150 -0.300139
0.940831 0.087249 -0.327450
0.944681 0.070590 -0.320304
0.943483 0.073256 -0.323223
0.939539 0.037017 -0.340436
0.946081 0.027331 -0.322776
0.945794 0.029722 -0.323403
0.939962 0.006563 -0.341216
0.937478 0.008659 -0.347936
0.938270 0.037312 -0.343887
0.952233 0.104051 -0.287099
0.958311 0.080864 -0.274046
0.964209 0.080333 -0.252682
0.959281 0.099081 -0.264504
0.970070 0.069206 -0.232753
0.965273 0.083794 -0.247440
0.979791 0.146926 -0.135727
0.984836 0.154542 0.078835
0.990082 0.139095 -0.019770
0.984200 0.127466 0.122896
0.986349 0.162331 -0.027646
0.989985 0.107071 -0.092013
0.991151 0.106331 0.079462
0.992625 0.062061 -0.104138
0.994631 0.071075 0.075214
0.995080 0.018926 -0.097253
0.997820 0.043942 0.049243
0.997113 0.000219 -0.075931
0.996912 0.039456 0.067902
0.999300 0.014720 -0.034396
0.992575 0.060680 0.105415
0.995561 0.075692 0.055931
0.983950 0.097708 0.149319
0.975915 0.211943 -0.051669
0.982075 0.184521 -0.038477
0.979918 0.184689 0.075170
0.974810 0.204422 0.089202
0.984977 0.114956 0.128864
0.988338 0.113114 0.101943
0.992321 0.102103 0.069809
0.984900 0.110415 0.133346
0.990184 0.112835 0.082482
0.988669 0.094168 0.116904
0.985503 0.133385 0.104847
0.989995 0.135114 0.040669
0.987295 0.142203 0.070894
0.992751 0.076337 0.092828
0.993673 0.107598 0.032205
0.996832 0.073155 0.031212
0.994389 0.105592 -0.006372
0.995077 0.048077 0.086664
0.995660 0.090176 -0.022995
0.998076 0.061035 0.010919
0.997093 0.044794 0.061635
0.997558 0.067476 -0.018003
0.993505 0.093089 -0.065434
0.998256 0.048822 0.033173
0.997027 0.070771 0.030475
0.997917 0.054218 0.034970
0.995596 0.076407 -0.054310
0.994601 0.086595 -0.057185
0.995061 0.096319 0.023996
0.993098 0.106376 -0.049408
0.992830 0.118968 0.011664
0.991725 0.123599 -0.034706
0.991010 0.131041 0.026983
0.991051 0.131039 -0.025441
0.990668 0.136267 0.002789
0.992636 0.113966 -0.041049
0.993250 0.106568 -0.045807
0.992360 0.110902 -0.054059
0.991683 0.119591 -0.047577
0.991616 0.127603 -0.020364
0.840096 -0.008423 -0.542373
0.836738 0.000468 -0.547604
0.829056 -0.008418 -0.559103
0.835408 -0.016928 -0.549369
0.836369 -0.005247 -0.548141
0.832223 -0.019668 -0.554091
0.822847 -0.016703 -0.568017
0.809480 0.002470 -0.587143
0.820173 -0.028524 -0.571404
0.798770 -0.008578 -0.601576
0.786221 0.019688 -0.617632
0.804040 -0.030781 -0.593777
0.768569 0.013819 -0.639618
0.762789 0.042571 -0.645245
0.779957 -0.016918 -0.625604
0.744810 0.030267 -0.666589
0.742921 0.050494 -0.667472
0.752211 0.006639 -0.658889
0.727673 0.039904 -0.684763
0.732353 0.059427 -0.678327
0.732001 0.020810 -0.680985
0.717245 0.044274 -0.695413
0.721721 0.058104 -0.689741
0.716035 0.028329 -0.697489
0.705866 0.031104 -0.707662
0.715057 0.049515 -0.697311
0.713514 0.020676 -0.700336
0.705811 0.026044 -0.707922
0.694857 0.014162 -0.719009
0.701077 0.014931 -0.712929
0.696532 0.005591 -0.717504
0.693770 0.007357 -0.720159
0.710311 0.010928 -0.703803
0.701726 0.005769 -0.712423
0.705447 -0.004110 -0.708751
0.728653 0.014082 -0.684738
0.706189 0.005689 -0.708000
0.715524 0.003533 -0.698579
0.724622 0.017660 -0.688920
0.721556 0.019831 -0.692072
0.724594 0.015910 -0.688992
0.741009 0.033834 -0.670642
0.735765 0.038844 -0.676122
0.736513 0.044536 -0.674955
0.754719 0.056841 -0.653582
0.740072 0.072246 -0.668635
0.743899 0.069622 -0.664656
0.759295 0.089600 -0.644548
0.743935 0.100915 -0.660589
0.740288 0.111479 -0.662982
0.828509 0.110558 -0.548954
0.827616 0.094642 -0.553258
0.821951 0.105493 -0.559703
0.819798 0.108605 -0.562260
0.824273 0.098923 -0.557483
0.804438 0.078356 -0.588846
0.796434 0.096266 -0.597014
0.794907 0.118732 -0.595001
0.799332 0.135403 -0.585435
0.825269 0.057794 -0.561775
0.818931 0.051721 -0.571557
0.794577 0.076543 -0.602319
0.831816 0.045014 -0.553224
0.815120 0.074398 -0.574495
0.772065 0.092352 -0.628798
0.806578 0.087782 -0.584573
0.753965 0.102045 -0.648940
0.761575 0.108453 -0.638938
0.759424 0.119966 -0.639440
0.735135 0.112170 -0.668577
0.736057 0.117232 -0.666691
0.764282 0.120813 -0.633465
0.741326 0.119918 -0.660345
0.768245 0.119083 -0.628982
0.745897 0.121770 -0.654836
0.767358 0.118538 -0.630167
0.752574 0.119812 -0.647516
0.777189 0.111817 -0.619252
0.763729 0.112192 -0.635713
0.889344 0.125842 -0.439580
0.885512 0.107287 -0.452060
0.856078 0.111630 -0.504648
0.841135 0.133777 -0.524019
0.838995 0.097597 -0.535315
0.828867 0.105866 -0.549338
0.874797 0.093384 -0.475404
0.859541 0.083940 -0.504126
0.826543 0.082756 -0.556757
0.823449 0.085022 -0.560984
0.827751 0.062346 -0.557621
0.824795 0.053153 -0.562928
0.841669 0.073208 -0.535009
0.851714 0.061346 -0.520403
0.835772 0.042158 -0.547456
0.829298 0.023805 -0.558299
0.846536 0.023401 -0.531817
0.831133 0.005805 -0.556043
0.866453 0.055698 -0.496142
0.881731 0.047299 -0.469376
0.837288 0.003457 -0.546751
0.863660 0.017993 -0.503754
0.840299 0.009941 -0.542033
0.859179 0.016840 -0.511398
0.899200 0.040798 -0.435632
0.887233 0.023917 -0.460700
0.839963 0.036954 -0.541384
0.872599 0.031469 -0.487422
0.857343 0.058100 -0.511456
0.827481 0.083331 -0.555275
0.902884 0.031408 -0.428735
0.894532 0.046170 -0.444613
0.856475 0.121310 -0.501732
0.844489 0.134522 -0.518403
0.875236 0.073640 -0.478058
0.866969 0.082677 -0.491457
0.888365 0.030035 -0.458154
0.872747 0.018368 -0.487828
0.895691 -0.002855 -0.444669
0.879112 -0.004347 -0.476595
0.810430 0.145502 -0.567479
0.808975 0.138655 -0.571257
0.817609 0.133824 -0.560005
0.819806 0.137070 -0.555995
0.837330 0.115686 -0.534317
0.830040 0.113517 -0.546029
0.838905 0.106545 -0.533748
0.831183 0.090332 -0.548611
0.845976 0.094334 -0.524810
0.832217 0.073317 -0.549581
0.849674 0.081803 -0.520924
0.832964 0.060916 -0.549964
0.847846 0.064471 -0.526308
0.815153 0.024110 -0.578744
0.824055 0.035607 -0.565390
0.833767 0.041418 -0.550560
0.829060 0.028160 -0.558450
0.810868 0.014261 -0.585055
0.821044 0.015760 -0.570648
0.807840 0.009531 -0.589325
0.811514 0.016317 -0.584105
0.870713 0.119031 -0.477170
0.867988 0.089238 -0.488501
0.837562 0.143318 -0.527210
0.845870 0.161041 -0.508497
0.806079 0.184850 -0.562198
0.909325 0.071662 -0.409870
0.927971 0.038842 -0.370622
0.885580 0.119226 -0.448925
0.824338 0.194245 -0.531729
0.802611 0.211770 -0.557646
0.797160 0.212339 -0.565197
0.794123 0.218063 -0.567289
0.803947 0.211502 -0.555821
0.805814 0.192922 -0.559862
0.831889 0.186591 -0.522632
0.854005 0.166714 -0.492830
0.807923 0.190289 -0.557719
0.832280 0.154607 -0.532359
0.804537 0.152776 -0.573916
0.820720 0.129235 -0.556522
0.846471 0.073437 -0.527345
0.810938 0.097632 -0.576930
0.824617 -0.019258 -0.565363
0.823692 0.041676 -0.565503
0.844177 -0.004241 -0.536048
0.824732 -0.060911 -0.562234
0.861399 -0.048888 -0.505571
0.838336 -0.111997 -0.533525
0.818574 -0.105011 -0.564720
0.862168 -0.121110 -0.491934
0.839837 -0.154087 -0.520510
0.818931 -0.131338 -0.558661
0.855183 -0.160001 -0.493013
0.840933 -0.172446 -0.512927
0.825146 -0.157249 -0.542592
0.847278 -0.161030 -0.506152
0.823737 -0.148379 -0.547212
0.835548 -0.142307 -0.530668
0.840624 -0.120752 -0.527986
0.845629 -0.096281 -0.525016
0.829706 -0.104854 -0.548265
0.862694 -0.083234 -0.498831
0.824809 -0.044398 -0.563666
0.854274 -0.048435 -0.517561
0.848918 -0.008585 -0.528455
0.824111 0.020473 -0.566058
0.867435 -0.057873 -0.494174
0.874958 -0.000246 -0.484199
0.858552 0.043680 -0.510863
0.827360 0.078557 -0.556151
0.870169 0.139074 -0.472721
0.873695 0.103862 -0.475257
0.840604 0.128550 -0.526174
0.885095 0.060614 -0.461446
0.817086 0.147478 -0.557334
0.854256 0.159225 -0.494868
0.828732 0.171981 -0.532565
0.815117 0.160842 -0.556520
0.813638 0.161575 -0.558468
0.856720 0.174906 -0.485221
0.843159 0.167366 -0.510952
0.820118 0.152035 -0.551627
0.873510 0.175224 -0.454177
0.846227 0.148529 -0.511702
0.834613 0.132490 -0.534666
0.873694 0.155580 -0.460926
0.867319 0.079303 -0.491394
0.870449 0.113122 -0.479085
0.846079 0.101598 -0.523286
0.833862 0.082497 -0.545773
0.853531 0.063992 -0.517097
0.827589 0.061426 -0.557964
0.839295 0.049646 -0.541406
0.824584 0.049741 -0.563549
0.833056 0.027050 -0.552527
0.824862 0.006580 -0.565295
0.809446 0.017235 -0.586941
0.804116 0.013976 -0.594308
0.811139 0.010067 -0.584767
0.804459 0.009725 -0.593929
0.814167 0.013986 -0.580462
0.808537 0.011982 -0.588324
0.820475 0.019127 -0.571362
0.989185 0.133195 -0.061409
0.664053 0.029422 -0.747106
0.664681 0.031063 -0.746481
0.658566 0.036507 -0.751637
0.675600 0.020362 -0.736987
0.672808 0.020402 -0.739536
0.655078 0.039558 -0.754525
0.658638 0.034488 -0.751669
0.653403 0.040655 -0.755918
0.654675 0.040691 -0.754814
0.650922 0.042063 -0.757978
0.649027 0.036054 -0.759910
0.649116 0.041907 -0.759534
0.654714 0.035735 -0.755031
0.655894 0.037348 -0.753929
0.651049 0.029378 -0.758467
0.650329 0.037168 -0.758743
0.655333 0.025901 -0.754896
0.648936 0.025071 -0.760429
0.657371 0.010652 -0.753492
0.663241 0.009002 -0.748352
0.652421 0.010014 -0.757791
0.668068 -0.006800 -0.744069
0.665912 -0.010664 -0.745954
0.660876 -0.010759 -0.750418
0.677895 -0.028611 -0.734602
0.677340 -0.037305 -0.734723
0.690701 -0.047239 -0.721596
0.705307 -0.047304 -0.707322
0.691447 -0.043295 -0.721128
0.717123 -0.034085 -0.696113
0.733889 -0.034669 -0.678384
0.741484 -0.026453 -0.670449
0.745849 -0.010393 -0.666034
0.755207 -0.015768 -0.655296
0.762153 -0.003108 -0.647389
0.781788 0.018146 -0.623280
0.781409 0.023139 -0.623591
0.771859 0.022512 -0.635395
0.795556 0.051607 -0.603679
0.800271 0.045858 -0.597883
0.807370 0.051805 -0.587767
0.820388 0.067799 -0.567774
0.824760 0.070212 -0.561107
0.815662 0.070558 -0.574210
0.832313 0.083530 -0.547976
0.844737 0.080395 -0.529109
0.840680 0.083061 -0.535125
0.834881 0.076996 -0.545019
0.831707 0.074259 -0.550226
0.832128 0.075213 -0.549459
0.827063 0.074062 -0.557209
0.839391 0.073394 -0.538550
0.825995 0.072821 -0.558954
0.820781 0.071545 -0.566745
0.831397 0.064839 -0.551882
0.819127 0.066258 -0.569772
0.812534 0.064413 -0.579344
0.808096 0.056264 -0.586357
0.801551 0.054973 -0.595394
0.795493 0.047547 -0.604095
0.789869 0.047981 -0.611396
0.768465 0.069632 -0.636092
0.783501 0.044924 -0.619765
0.780876 0.048049 -0.622836
0.774726 0.051320 -0.630211
0.777522 0.056780 -0.626287
0.768797 0.066224 -0.636055
0.772453 0.072928 -0.630870
0.889126 0.103362 -0.445837
0.897596 0.131131 -0.420864
0.906835 0.092698 -0.411166
0.894851 0.147391 -0.421328
0.899138 0.050055 -0.434795
0.917993 0.049650 -0.393477
0.911914 0.007565 -0.410312
0.900755 0.001699 -0.434325
0.903891 -0.031171 -0.426626
0.896178 -0.059331 -0.439711
0.889196 -0.042054 -0.455589
0.878651 0.002736 -0.477456
0.884181 -0.016144 -0.466865
0.869099 0.042636 -0.492798
0.884193 0.003343 -0.467109
0.869053 0.056656 -0.491464
0.852788 0.100097 -0.512575
0.837813 0.138595 -0.528073
0.821736 0.158040 -0.547516
0.825725 0.165547 -0.539234
0.821123 0.170734 -0.544616
0.815810 0.146704 -0.559403
0.820359 0.154069 -0.550703
0.815055 0.126265 -0.565458
0.824138 0.107253 -0.556141
0.816470 0.092565 -0.569920
0.828818 0.069174 -0.555227
0.824094 0.052438 -0.564020
0.835265 0.040918 -0.548323
0.834835 0.028903 -0.549740
0.832916 0.031499 -0.552503
0.831655 0.031698 -0.554387
0.834320 0.035589 -0.550130
0.926261 0.061674 -0.371803
0.900277 0.070091 -0.429638
0.930881 0.070200 -0.358514
0.892687 0.061729 -0.446430
0.890988 0.080345 -0.446861
0.916000 0.083450 -0.392403
0.888283 0.104679 -0.447209
0.881238 0.091910 -0.463651
0.872026 0.103733 -0.478340
0.892975 0.109341 -0.436624
0.875246 0.107222 -0.471644
0.910764 0.100874 -0.400417
0.913771 0.110127 -0.391016
0.898072 0.112034 -0.425341
0.884896 0.105003 -0.453799
0.907419 0.104662 -0.406985
0.884767 0.093425 -0.456574
0.908828 0.112096 -0.401829
0.912593 0.113683 -0.392747
0.900907 0.084521 -0.425702
0.921824 0.093046 -0.376276
0.913415 0.067060 -0.401468
0.926851 0.076266 -0.367603
0.915141 0.050047 -0.400016
0.927913 0.055448 -0.368650
0.915177 0.036167 -0.401426
0.931364 0.025159 -0.363220
0.911442 0.015908 -0.411122
0.930965 -0.015237 -0.364790
0.899414 -0.002856 -0.437088
0.908826 -0.032865 -0.415878
0.885030 -0.026036 -0.464805
0.908486 -0.051418 -0.414741
0.905049 -0.058726 -0.421233
0.868685 -0.047128 -0.493118
0.874428 -0.054458 -0.482088
0.903283 -0.057388 -0.425190
0.858816 -0.050017 -0.509837
0.871386 -0.047805 -0.488264
0.860021 -0.040456 -0.508653
0.876743 -0.034399 -0.479728
0.897554 -0.044749 -0.438628
0.915319 -0.026874 -0.401831
0.877100 -0.016985 -0.480007
0.864760 -0.025070 -0.501560
0.881003 0.005115 -0.473084
0.877606 -0.007023 -0.479332
0.908082 0.003640 -0.418776
0.900734 0.021966 -0.433814
0.900361 0.044980 -0.432813
0.898756 0.030654 -0.437376
0.892926 0.017621 -0.449859
0.911756 0.054722 -0.407070
0.939010 0.145434 -0.311623
0.956812 0.108277 -0.269789
0.953008 0.125450 -0.275751
0.949127 0.110058 -0.295033
0.965615 0.093197 -0.242698
0.972812 0.076542 -0.218583
0.978544 0.062482 -0.196334
0.955367 0.124038 -0.268121
0.975604 0.048747 -0.214058
0.981599 0.045401 -0.185478
0.966449 0.079346 -0.244294
0.985043 0.010766 -0.171973
0.972952 0.024364 -0.229719
0.980979 -0.032705 -0.191339
0.987803 -0.013727 -0.155102
0.985082 -0.034641 -0.168562
0.978896 -0.054414 -0.196982
0.982601 -0.045564 -0.180055
0.978749 -0.049060 -0.199107
0.978101 -0.022821 -0.206878
0.977985 -0.047724 -0.203144
0.977049 0.010398 -0.212761
0.982723 0.003284 -0.185055
0.977989 0.049915 -0.202600
0.986028 0.067028 -0.152501
0.976175 0.110015 -0.187025
0.984771 0.120458 -0.125361
0.976538 0.147932 -0.156494
0.981270 0.157223 -0.111308
0.973730 0.172049 -0.149161
0.969136 0.179391 -0.169099
0.977024 0.173294 -0.124068
0.977040 0.173925 -0.123058
0.966907 0.177241 -0.183512
0.974574 0.168383 -0.147828
0.967326 0.161896 -0.195114
0.973196 0.153188 -0.171531
0.970418 0.131792 -0.202287
0.972132 0.108413 -0.207859
0.974090 0.082916 -0.210411
0.978091 0.064411 -0.197962
0.982895 0.065866 -0.171984
0.990032 0.091528 -0.107047
0.985824 0.066104 -0.154212
0.986528 0.076939 -0.144369
0.988181 0.087269 -0.126029
0.936472 0.062429 0.345141
0.937163 0.070270 0.341743
0.940531 0.031440 0.338251
0.958384 -0.009626 0.285321
0.956708 -0.007082 0.290963
0.955912 0.035636 0.291482
0.957618 0.053360 0.283056
0.951693 0.082618 0.295727
0.953432 0.111458 0.280258
0.945373 0.114600 0.305182
0.949332 0.138873 0.281929
0.948398 0.145258 0.281854
0.941244 0.125675 0.313473
0.950222 0.140515 0.278089
0.936788 0.099316 0.335507
0.940791 0.114496 0.319066
0.954044 0.108608 0.279294
0.934513 0.098250 0.342099
0.958433 0.057064 0.279551
0.935446 0.071891 0.346080
0.933555 0.039539 0.356247
0.929660 0.018504 0.367953
0.955445 0.009270 0.295023
0.929984 -0.007024 0.367532
0.956653 -0.040129 0.288453
0.933107 -0.044125 0.356881
0.951892 -0.075341 0.297026
0.944870 -0.092206 0.314195
0.933937 -0.067818 0.350946
0.924429 -0.043682 0.378843
0.930446 -0.046870 0.363419
0.777493 0.054494 0.626527
0.777583 0.063036 0.625613
0.774809 0.001469 0.632193
0.772116 0.000750 0.635481
0.765422 -0.050665 0.641531
0.771531 -0.058479 0.633499
0.764374 -0.082112 0.639523
0.753639 -0.078358 0.652602
0.759457 -0.044158 0.649057
0.762803 -0.096980 0.639317
0.775752 -0.083939 0.625430
0.768593 -0.100799 0.631747
0.790416 -0.097141 0.604820
0.782067 -0.098622 0.615341
0.806245 -0.086347 0.585247
0.785086 -0.068814 0.615552
0.768937 -0.077331 0.634630
0.812534 -0.046428 0.581062
0.788927 -0.008223 0.614433
0.768430 -0.019735 0.639630
0.817347 0.019026 0.575832
0.794637 0.063824 0.603720
0.772121 0.052861 0.633273
0.818492 0.083557 0.568409
0.782312 0.110340 0.613036
0.763590 0.120269 0.634402
0.801749 0.119602 0.585572
0.752316 0.170539 0.636347
0.753076 0.215582 0.621612
0.737434 0.200435 0.644994
0.754621 0.229364 0.614767
0.740595 0.219696 0.635022
0.771754 0.207075 0.601262
0.789277 0.165167 0.591407
0.772309 0.228958 0.592551
0.750997 0.228892 0.619363
0.762738 0.234602 0.602655
0.761707 0.232206 0.604883
0.751305 0.220192 0.622138
0.767319 0.204771 0.607693
0.756298 0.202419 0.622125
0.764549 0.223247 0.604670
0.779411 0.179205 0.600337
0.767687 0.182292 0.614351
0.776419 0.196398 0.598833
0.785441 0.157652 0.598521
0.779891 0.152465 0.607062
0.783860 0.158192 0.600449
0.785925 0.110379 0.608389
0.785866 0.128327 0.604936
0.785430 0.094530 0.611689
0.786439 0.063665 0.614378
0.791439 0.073963 0.606756
0.784821 0.030735 0.618960
0.795662 0.025951 0.605184
0.783021 0.004247 0.621981
0.801602 -0.014735 0.597676
0.791373 -0.019364 0.611027
0.809179 -0.029867 0.586802
0.804217 -0.024581 0.593828
0.820274 -0.030375 0.571163
0.750111 0.112021 0.651755
0.767474 0.087315 0.635105
0.766953 0.081247 0.636539
0.742938 0.114320 0.659525
0.732316 0.141626 0.666075
0.751796 0.116914 0.648948
0.781239 0.062661 0.621079
0.786935 0.048921 0.615093
0.774803 0.076077 0.627609
0.792968 0.039898 0.607955
0.797239 0.028277 0.603001
0.792670 0.037223 0.608514
0.803696 0.014478 0.594864
0.801123 0.018046 0.598228
0.805937 0.006457 0.591966
0.807107 0.004832 0.590386
0.804086 0.011262 0.594406
0.807866 0.000019 0.589366
0.800142 0.020724 0.599453
0.798888 0.022355 0.601064
0.806196 0.001132 0.591647
0.765910 0.082191 0.637673
0.754254 0.088089 0.650647
0.769844 0.069389 0.634449
0.730186 0.090158 0.677274
0.756761 0.074065 0.649482
0.784659 0.055606 0.617428
0.785346 0.052757 0.616805
0.794076 0.029917 0.607082
0.771316 0.080600 0.631328
0.771420 0.077684 0.631567
0.772865 0.071578 0.630521
0.741265 0.109446 0.662230
0.752788 0.098587 0.650838
0.725701 0.106214 0.679762
0.702652 0.086131 0.706301
0.718228 0.088160 0.690200
0.688499 0.081509 0.720642
0.688838 0.092352 0.719009
0.671672 0.084585 0.736005
0.652570 0.051296 0.755990
0.657665 0.065183 0.750485
0.655432 0.052089 0.753456
0.669545 0.069053 0.739554
0.645028 0.040550 0.763083
0.654587 0.062124 0.753430
0.644685 0.033407 0.763718
0.701377 0.092109 0.706815
0.682672 0.078921 0.726451
0.792336 0.210330 0.572683
0.818424 0.177971 0.546359
0.828966 0.129903 0.544005
0.789181 0.226556 0.570846
0.806226 0.206945 0.554232
0.766609 0.232483 0.598550
0.771258 0.221142 0.596873
0.770708 0.236354 0.591731
0.786365 0.227939 0.574173
0.767498 0.223421 0.600858
0.775060 0.208749 0.596411
0.778263 0.153970 0.608769
0.772850 0.181657 0.608032
0.770992 0.210092 0.601193
0.781177 0.092822 0.617371
0.777992 0.111313 0.618335
0.777424 0.062413 0.625872
0.769126 0.063040 0.635981
0.776038 0.031519 0.629898
0.764147 0.028269 0.644422
0.767196 0.006939 0.641375
0.754942 0.000006 0.655792
0.770911 -0.010541 0.636856
0.756563 -0.014057 0.653770
0.785220 -0.018825 0.618931
0.781068 -0.014295 0.624283
0.567412 0.021747 0.823147
0.570031 0.024466 0.821259
