0.854562 0.013615 -0.519172
0.936665 -0.049316 -0.346736
0.927564 -0.179458 -0.327749
0.935248 -0.213659 -0.282242
0.962745 -0.119219 -0.242711
0.951398 -0.097673 -0.292066
0.961873 0.032687 -0.271537
0.984608 -0.136233 -0.109490
0.994509 -0.080681 -0.066645
0.994628 0.063026 -0.082117
0.942012 0.132722 -0.308219
0.897707 0.273714 -0.345257
0.993358 -0.023003 -0.112738
0.950779 -0.305597 -0.051287
0.984427 -0.175056 0.016101
0.933968 -0.309286 -0.179014
0.999090 -0.014296 -0.040180
0.995507 -0.025051 0.091319
0.999903 0.009652 -0.010088
0.984900 0.036945 0.169139
0.989004 0.009892 0.147556
0.963758 -0.261783 -0.051380
0.999769 0.010689 0.018645
0.996226 -0.029900 -0.081489
0.983725 0.163307 -0.074933
0.868435 -0.487917 -0.088075
0.950041 -0.312028 0.007823
0.994639 0.073409 -0.072826
0.992764 0.116494 -0.029137
0.986120 -0.155469 0.058283
0.997511 0.066420 0.023682
0.978194 -0.103342 -0.180158
0.988881 0.126466 -0.078240
0.969577 0.023963 -0.243611
0.989639 0.132628 0.054988
0.972604 0.226210 0.053577
0.947569 -0.266335 0.176573
0.982815 -0.166262 0.080194
0.992796 0.050395 0.108703
0.969082 -0.188373 0.159359
0.982389 -0.117355 0.145395
0.991455 0.024602 0.128110
0.976115 0.149331 0.157796
0.903284 0.352038 0.245249
0.891597 0.436848 0.119245
0.901114 -0.403816 0.157883
0.965709 0.093621 0.242161
0.924596 0.136274 0.355741
0.927555 0.005746 0.373643
0.918133 0.079293 0.388258
0.895549 0.155480 0.416914
0.876253 0.119691 0.466750
0.811074 0.337962 0.477431
0.723263 0.465786 -0.509838
0.523699 0.528745 -0.667958
0.637186 0.578275 -0.509503
0.663201 0.613797 -0.428273
0.638479 -0.573587 -0.513169
0.558196 -0.722311 -0.408271
0.532494 -0.618810 -0.577516
0.659053 -0.751137 -0.037983
0.735781 -0.668657 -0.107349
0.737622 -0.672399 -0.061586
0.798454 -0.597710 -0.072206
0.670382 -0.740165 0.052377
0.715058 -0.681599 0.155288
0.811799 -0.583793 0.012968
0.119290 -0.592785 -0.796477
0.212811 -0.626383 -0.749904
0.047821 -0.719074 -0.693287
0.131405 -0.748432 -0.650063
0.880193 0.254433 -0.400656
0.851817 0.340774 -0.397846
0.840235 0.489117 -0.234029
0.859134 0.342816 -0.379956
0.759349 0.538351 -0.365469
0.485744 0.868406 -0.099613
0.350758 0.922347 -0.162000
0.404004 0.914241 -0.030746
0.800509 -0.552204 0.232931
0.860797 -0.508152 -0.028448
0.896901 -0.365680 0.248691
0.934228 -0.220047 0.280709
0.946071 -0.026361 0.322885
0.797483 0.512148 0.318944
0.754758 0.365454 0.544779
0.200942 -0.600653 0.773846
0.144035 -0.558905 0.816627
0.158769 -0.690428 0.705763
0.224216 -0.189611 -0.955916
0.187056 -0.192672 -0.963269
0.238937 0.079332 -0.967789
0.286004 -0.052419 -0.956794
0.173945 -0.483391 -0.857949
0.177181 -0.356772 -0.917235
0.235339 -0.432852 -0.870204
0.318403 -0.304118 -0.897849
0.334201 0.468881 -0.817595
0.240652 0.376469 -0.894627
0.244986 0.467385 -0.849431
0.171066 -0.821688 -0.543658
0.239851 -0.791080 -0.562730
0.335977 -0.716748 -0.611057
0.188505 0.939401 -0.286340
0.292094 0.894729 -0.337847
0.412107 -0.862164 -0.294688
0.433606 -0.815423 -0.383499
0.528576 -0.810163 -0.253464
0.099663 0.992316 -0.073323
0.136689 0.988503 -0.064629
0.152587 0.970287 -0.187776
0.536171 -0.843604 0.029197
0.473111 -0.861095 0.186227
0.673899 0.650415 0.350458
0.533411 0.807639 0.251381
0.513434 0.669697 0.536555
0.247956 0.849308 0.466041
0.211972 0.931640 0.295151
0.208410 0.825228 0.524942
0.383734 0.743591 0.547558
0.356039 0.845178 0.398636
0.230376 0.797976 0.556921
0.665390 0.009269 0.746439
0.672795 -0.221189 0.705990
0.758237 0.033304 0.651128
0.587906 -0.528246 -0.612636
0.678916 -0.497919 -0.539583
0.614978 -0.421434 -0.666480
0.669417 -0.235012 -0.704734
0.756585 -0.367006 -0.541189
0.741499 -0.167329 -0.649754
0.619749 -0.002578 -0.784795
0.694180 0.109268 -0.711459
0.172502 -0.942446 -0.286425
0.220659 -0.942062 -0.252643
0.195520 -0.980699 -0.000673
0.289504 -0.956926 -0.021912
0.410398 -0.894816 -0.175721
0.548345 0.832730 0.076673
0.233700 0.966644 0.104806
0.216178 -0.908105 0.358626
0.190432 -0.957235 0.217801
0.200587 -0.965745 0.164624
0.264597 -0.934675 0.237424
0.342467 -0.857691 0.383512
0.693623 -0.556103 0.457861
0.781145 -0.381874 0.493949
0.274414 -0.580913 0.766314
0.451649 -0.549752 0.702699
0.381905 -0.472896 0.794051
0.467830 -0.419811 0.777749
0.554728 -0.442865 0.704377
0.161046 -0.392423 0.905576
0.153202 -0.317945 0.935650
0.148373 -0.316482 0.936923
0.168812 -0.233278 0.957645
0.247408 -0.282265 0.926885
0.270904 -0.128497 0.953991
0.432836 -0.122988 0.893044
0.284462 0.091072 0.954352
0.330351 0.028778 0.943419
0.559008 -0.818021 -0.135467
0.376208 0.918131 0.124515
0.861107 0.470508 0.192658
0.815019 0.558737 0.153482
0.602390 -0.751320 0.269526
0.533973 -0.721490 0.440824
0.764596 0.134853 0.630244
0.688495 0.158514 0.707706
0.820630 0.084337 0.565202
0.869618 0.018644 0.493373
0.843599 0.135827 0.519511
0.666329 0.249885 0.702540
0.668005 0.455235 0.588668
0.162236 -0.418785 0.893475
0.235334 -0.425059 0.874038
0.160994 0.945109 -0.284340
0.633205 0.773102 -0.036937
0.663931 0.743433 0.080638
0.798763 0.601527 -0.011922
0.786615 0.614960 0.055324
0.117162 0.986919 0.110740
0.173865 0.969753 0.171317
0.523387 -0.353925 -0.775115
0.468582 -0.263480 -0.843214
0.577452 -0.198208 -0.791999
0.523613 -0.150013 -0.838645
0.543803 -0.049889 -0.837729
0.349095 0.354268 0.867541
0.390655 0.209984 0.896267
0.486922 0.380992 0.785972
0.269254 0.407143 0.872776
0.309829 0.473593 0.824449
0.422829 0.455024 0.783689
0.515820 0.087015 0.852266
0.413510 -0.473633 -0.777613
0.447439 0.673250 -0.588670
0.288327 0.625900 -0.724650
0.249094 0.685043 -0.684594
0.292895 0.810761 -0.506833
0.210303 0.730233 -0.650026
0.214361 0.800830 -0.559214
0.484278 0.761016 -0.431660
0.922746 0.375612 -0.086347
0.442985 -0.014284 -0.896415
0.554562 0.183997 -0.811545
0.192487 0.889592 -0.414215
0.606401 0.114973 -0.786803
0.383879 -0.608777 -0.694282
0.648684 -0.745836 -0.151452
0.758790 -0.622752 -0.190835
0.903572 0.101427 0.416258
0.306049 -0.542721 -0.782169
0.660163 -0.667100 -0.345198
0.274380 -0.883277 -0.380180
0.192415 -0.754207 0.627812
0.180894 -0.811196 0.556092
0.292130 -0.802070 0.520907
0.548711 -0.483995 0.681663
0.622973 -0.450039 0.639820
0.710020 -0.324301 0.625060
0.882383 -0.118358 0.455403
0.785343 -0.158062 0.598542
0.573410 0.404324 0.712547
0.431144 0.551705 0.713958
0.347010 0.661245 0.665086
0.363660 -0.189371 -0.912080
0.411741 -0.251267 -0.875976
0.412089 0.204555 -0.887885
0.189200 0.479249 -0.857043
0.446895 0.371958 -0.813592
0.324833 0.278670 -0.903784
0.566125 0.793622 -0.222861
0.697670 0.684663 -0.210933
0.766445 0.612621 -0.193023
0.299250 0.284734 0.910701
0.263416 0.466736 0.844257
0.276940 0.372712 0.885658
0.631714 0.705591 -0.321059
0.583491 0.264532 0.767829
0.266319 0.576460 0.772508
0.762695 -0.525509 -0.377010
0.854256 -0.287720 -0.432971
0.830110 -0.414945 -0.372476
0.179011 0.665370 -0.724733
0.512017 0.329888 -0.793103
0.735320 0.271731 -0.620860
0.827555 0.294973 -0.477643
0.813946 0.392188 -0.428581
0.831618 0.332180 -0.445048
0.782189 0.343336 -0.519904
0.920720 -0.368996 -0.126951
0.846580 -0.460405 -0.267078
0.456215 -0.719736 -0.523306
0.167419 0.965796 0.198012
0.375033 0.892631 0.250121
0.719643 0.671050 0.178342
0.207090 0.719242 0.663177
0.560588 -0.244257 0.791252
0.657856 0.384111 -0.647831
0.202172 0.875987 -0.437919
0.510719 -0.607592 0.608275
0.313900 -0.693004 0.649009
0.220893 0.291042 -0.930860
0.620848 -0.519339 0.587226
0.152098 -0.913322 -0.377768
0.416533 -0.259766 0.871218
0.171230 -0.878235 -0.446524
0.650887 -0.483017 0.585696
