0.620278 -0.380332 -0.686004
0.607324 -0.376083 -0.699800
0.599248 -0.349918 -0.720041
0.585919 -0.375132 -0.718314
0.568920 -0.352347 -0.743089
0.554242 -0.306733 -0.773777
0.545083 -0.336934 -0.767698
0.672288 0.051294 -0.738511
0.671892 0.049579 -0.738988
0.671367 0.043089 -0.739871
0.670510 0.041724 -0.740726
0.670300 0.039837 -0.741020
0.668539 0.027009 -0.743186
0.671687 0.032586 -0.740118
0.673853 -0.000035 -0.738865
0.664600 -0.012331 -0.747097
0.666201 0.005570 -0.745751
0.667979 0.019340 -0.743929
0.674207 -0.032606 -0.737823
0.664841 -0.038700 -0.745982
0.675789 -0.086656 -0.731984
0.659859 -0.070557 -0.748070
0.668772 -0.111350 -0.735082
0.657373 -0.111528 -0.745267
0.679909 -0.148206 -0.718163
0.666453 -0.167604 -0.726463
0.666755 -0.243474 -0.704385
0.649309 -0.145283 -0.746519
0.646523 -0.202415 -0.735551
0.657524 -0.289224 -0.695709
0.640166 -0.261236 -0.722456
0.635999 -0.313795 -0.705009
0.635441 -0.341960 -0.692299
0.622758 -0.337681 -0.705794
0.627478 -0.356552 -0.692201
0.610096 -0.349436 -0.711110
0.614543 -0.369656 -0.696916
0.600214 -0.383422 -0.701948
0.595296 -0.368163 -0.714198
0.581248 -0.385153 -0.716804
0.574605 -0.393762 -0.717482
0.576504 -0.384445 -0.721003
0.563094 -0.396421 -0.725104
0.558466 -0.399504 -0.726988
0.551622 -0.371354 -0.746867
0.558426 -0.389069 -0.732657
0.767084 0.036201 -0.640525
0.743940 0.070434 -0.664524
0.751287 0.046474 -0.658338
0.734769 0.072713 -0.674409
0.721901 0.101666 -0.684488
0.761126 0.064859 -0.645353
0.812035 0.006459 -0.583572
0.782777 0.051938 -0.620132
0.789005 0.023508 -0.613937
0.796663 0.043979 -0.602822
0.886161 0.032694 -0.462223
0.877466 -0.025909 -0.478938
0.881718 -0.030994 -0.470758
0.876149 0.004464 -0.482019
0.890783 0.024514 -0.453768
0.886513 -0.010089 -0.462593
0.667824 0.024692 -0.743910
0.668413 0.027456 -0.743283
0.666570 0.014633 -0.745299
0.666146 0.012802 -0.745711
0.665681 0.012115 -0.746138
0.664898 0.006499 -0.746906
0.657405 -0.012640 -0.753432
0.665060 0.007825 -0.746749
0.661722 -0.006044 -0.749725
0.657050 -0.013241 -0.753731
0.659844 -0.010370 -0.751331
0.653154 -0.036196 -0.756360
0.648854 -0.028650 -0.760373
0.642240 -0.048088 -0.764994
0.640056 -0.044270 -0.767052
0.643793 -0.094324 -0.759364
0.635262 -0.075779 -0.768570
0.636129 -0.162112 -0.754361
0.626422 -0.146365 -0.765620
0.624419 -0.219961 -0.749479
0.613015 -0.205425 -0.762897
0.616833 -0.280658 -0.735356
0.606679 -0.250598 -0.754414
0.600605 -0.289540 -0.745279
0.610996 -0.319302 -0.724382
0.593347 -0.330334 -0.734042
0.583610 -0.341123 -0.736909
0.577131 -0.371520 -0.727250
0.579244 -0.360784 -0.730966
0.571918 -0.390023 -0.721660
0.574216 -0.382215 -0.724008
0.569991 -0.397307 -0.719206
0.581249 -0.398015 -0.709742
0.565950 -0.408381 -0.716188
0.579668 -0.413084 -0.702386
0.572898 -0.415431 -0.706544
0.596736 -0.426113 -0.679952
0.581925 -0.408775 -0.703041
0.602772 -0.427554 -0.673694
0.576734 -0.380245 -0.723043
0.617223 -0.408390 -0.672498
0.604889 -0.360690 -0.709938
0.569334 -0.353915 -0.742026
0.566163 -0.328856 -0.755852
0.700193 0.333067 -0.631503
0.660053 0.293464 -0.691526
0.659546 0.293463 -0.692010
0.665086 -0.004707 -0.746752
0.665750 0.000429 -0.746175
0.662527 -0.008585 -0.748988
0.670805 -0.021736 -0.741315
0.668214 -0.032598 -0.743254
0.661589 -0.022883 -0.749518
0.659411 -0.019593 -0.751527
0.654507 -0.020859 -0.755768
0.653721 -0.026703 -0.756264
0.640831 -0.052229 -0.765903
0.626572 -0.106518 -0.772050
0.656606 -0.034113 -0.753462
0.648304 -0.047627 -0.759891
0.636006 -0.073853 -0.768142
0.624667 -0.105247 -0.773766
0.614612 -0.170035 -0.770286
0.604656 -0.222285 -0.764840
0.598376 -0.258784 -0.758273
0.616716 -0.141785 -0.774312
0.613461 -0.192014 -0.766026
0.600571 -0.237779 -0.763397
0.609792 -0.232101 -0.757815
0.600309 -0.275345 -0.750876
0.620616 -0.249822 -0.743253
0.594619 -0.312265 -0.740891
0.620609 -0.289666 -0.728654
0.599813 -0.333752 -0.727210
0.627751 -0.317123 -0.710888
0.592047 -0.373967 -0.713883
0.632326 -0.353476 -0.689361
0.666113 -0.382196 -0.640484
0.619633 -0.407403 -0.670878
0.668122 -0.410490 -0.620574
0.669935 -0.424740 -0.608920
0.641509 -0.431709 -0.634109
0.629516 -0.430283 -0.646967
0.666920 0.015002 -0.744979
0.669680 0.034431 -0.741851
0.668542 -0.009592 -0.743612
0.661553 -0.042102 -0.748716
0.654936 -0.048930 -0.754098
0.664532 -0.061414 -0.744732
0.672419 -0.052275 -0.738323
0.646953 -0.066502 -0.759624
0.657255 -0.073634 -0.750063
0.634560 -0.091913 -0.767389
0.647564 -0.084926 -0.757263
0.623986 -0.123490 -0.771616
0.650858 -0.109367 -0.751280
0.631566 -0.136677 -0.763180
0.662383 -0.133447 -0.737184
0.618310 -0.153092 -0.770880
0.635126 -0.162832 -0.755051
0.642990 -0.205603 -0.737761
0.672146 -0.158740 -0.723202
0.679456 -0.183096 -0.710503
0.654160 -0.255541 -0.711880
0.682575 -0.218979 -0.697237
0.705578 -0.268372 -0.655848
0.665474 -0.310872 -0.678603
0.704977 -0.310886 -0.637461
0.667437 -0.351014 -0.656748
0.703088 -0.347893 -0.620192
0.715983 -0.388970 -0.579717
0.694112 -0.415234 -0.588039
0.854475 0.435280 -0.283557
0.820573 0.425090 -0.382045
0.824343 0.404763 -0.395760
0.859459 0.409367 -0.306184
0.838871 0.397521 -0.371851
0.878516 0.427306 -0.213587
0.854500 0.385076 -0.348634
0.861813 0.340735 -0.375736
0.874407 0.358775 -0.326638
0.873375 0.386692 -0.296118
0.907748 0.236272 -0.346653
0.933812 0.159127 -0.320427
0.921380 0.171464 -0.348796
0.910367 0.217339 -0.352131
0.884434 0.294291 -0.362173
0.896610 0.286658 -0.337517
0.948855 0.100740 -0.299207
0.936097 0.094030 -0.338942
0.955789 0.030518 -0.292465
0.938781 0.026653 -0.343481
0.741664 -0.404824 -0.534839
0.690791 -0.070405 -0.719619
0.684264 -0.080779 -0.724746
0.663440 -0.083957 -0.743505
0.719723 -0.089638 -0.688450
0.722351 -0.097696 -0.684591
0.691090 -0.093341 -0.716716
0.664021 -0.094095 -0.741770
0.697379 -0.103782 -0.709148
0.689449 -0.114877 -0.715166
0.721232 -0.130069 -0.680372
0.707582 -0.157217 -0.688919
0.737914 -0.142541 -0.659671
0.704717 -0.187035 -0.684392
0.744168 -0.170120 -0.645967
0.724821 -0.216295 -0.654104
0.763130 -0.201093 -0.614161
0.766141 -0.248999 -0.592476
0.738900 -0.310842 -0.597833
0.750667 -0.350145 -0.560265
0.900026 0.375710 -0.220898
0.894991 0.412693 -0.169340
0.891418 0.349908 -0.287990
0.906310 0.335155 -0.257436
0.913264 0.169979 -0.370211
0.908573 0.245812 -0.337745
0.909024 0.294982 -0.294382
0.907553 0.198127 -0.370261
0.918472 0.109647 -0.379983
0.923560 0.017603 -0.383050
0.905782 0.117806 -0.407038
0.907160 0.044798 -0.418395
0.797116 -0.298454 -0.524911
0.795762 -0.350243 -0.494058
0.811291 -0.365194 -0.456553
0.683774 -0.037948 -0.728707
0.691920 -0.055248 -0.719857
0.721178 -0.069654 -0.689239
0.719902 -0.075021 -0.690009
0.720260 -0.080932 -0.688967
0.743422 -0.086651 -0.663186
0.750045 -0.094737 -0.654567
0.780988 -0.089251 -0.618136
0.788631 -0.091339 -0.608045
0.755668 -0.101263 -0.647079
0.790246 -0.095855 -0.605247
0.759139 -0.107954 -0.641914
0.784393 -0.103944 -0.611493
0.735675 -0.104712 -0.669192
0.798063 -0.107423 -0.592921
0.779934 -0.110476 -0.616034
0.734927 -0.105986 -0.669813
0.773112 -0.109228 -0.624794
0.733288 -0.111092 -0.670782
0.785453 -0.117540 -0.607657
0.787457 -0.140305 -0.600188
0.798624 -0.177307 -0.575119
0.791548 -0.208263 -0.574524
0.914363 0.386564 -0.120451
0.940260 0.317705 -0.122371
0.934266 0.273612 -0.228656
0.919105 0.245022 -0.308561
0.933381 0.199711 -0.298187
0.914197 0.194219 -0.355702
0.928032 0.130695 -0.348820
0.905048 0.120440 -0.407899
0.907826 0.029269 -0.418325
0.889743 0.019860 -0.456030
0.858848 -0.056251 -0.509133
0.821335 -0.104629 -0.560769
0.807883 -0.108252 -0.579316
0.836946 -0.107515 -0.536621
0.852367 -0.125118 -0.507756
0.854931 -0.159881 -0.493489
0.833251 -0.219568 -0.507427
0.873880 -0.262275 -0.409323
0.897020 -0.268814 -0.350847
0.861281 -0.315236 -0.398524
0.895037 -0.284783 -0.343231
0.846796 -0.344582 -0.405215
0.891464 -0.303250 -0.336647
0.804671 -0.378766 -0.457211
0.909755 -0.304601 -0.282072
0.859339 -0.343748 -0.378647
0.919708 -0.303545 -0.248992
0.901575 -0.315440 -0.296074
0.844054 -0.353606 -0.403157
0.936765 -0.284012 -0.204473
0.860253 -0.336636 -0.382938
0.844658 -0.062700 -0.531622
0.834013 -0.074204 -0.546733
0.810064 -0.078552 -0.581056
0.817661 -0.088396 -0.568873
0.821808 -0.094142 -0.561934
0.955402 0.295265 -0.005079
0.941621 0.334242 -0.040390
0.964672 0.263054 -0.014526
0.961202 0.270337 -0.054861
0.968297 0.224693 -0.109152
0.972587 0.126914 -0.194850
0.948576 0.072629 -0.308106
0.951718 0.019921 -0.306325
0.936121 -0.032847 -0.350140
0.880208 -0.058911 -0.470919
0.884993 -0.041657 -0.463736
0.873590 -0.061852 -0.482717
0.847067 -0.089944 -0.523819
0.868071 -0.085454 -0.489030
0.848811 -0.096911 -0.519739
0.882333 -0.090039 -0.461933
0.911757 -0.102489 -0.397738
0.909881 -0.138754 -0.390978
0.900831 -0.185945 -0.392336
0.928494 -0.199640 -0.313119
0.916423 -0.234263 -0.324483
0.936309 -0.208823 -0.282346
0.928626 -0.242361 -0.280917
0.927460 -0.271419 -0.257197
0.932629 -0.278560 -0.229363
0.932307 -0.287131 -0.219907
0.951544 -0.258028 -0.167291
0.775195 -0.082746 -0.626279
0.842405 -0.062982 -0.535152
0.962381 0.271112 0.017927
0.973434 0.228621 0.012586
0.979118 0.202428 -0.018752
0.990434 0.124361 -0.059787
0.997395 0.026092 -0.067245
0.993936 0.012121 -0.109286
0.979164 0.032053 -0.200527
0.975117 -0.015367 -0.221157
0.911203 -0.017525 -0.411584
0.889155 -0.031631 -0.456512
0.920955 -0.017398 -0.389280
0.921786 -0.030445 -0.386501
0.897953 -0.061145 -0.435822
0.924167 -0.038430 -0.380052
0.898773 -0.066973 -0.433269
0.928345 -0.040992 -0.369453
0.897850 -0.072162 -0.434347
0.933654 -0.052120 -0.354365
0.924602 -0.070744 -0.374309
0.941398 -0.054957 -0.332789
0.946561 -0.074596 -0.313779
0.944178 -0.060353 -0.323860
0.957019 -0.093909 -0.274399
0.948566 -0.119238 -0.293265
0.968778 -0.105562 -0.224334
0.943101 -0.154696 -0.294329
0.967825 -0.129305 -0.215857
0.956689 -0.177275 -0.230910
0.960252 -0.199441 -0.195294
0.951306 -0.230181 -0.205019
0.949846 -0.245983 -0.193091
0.951538 -0.251673 -0.176736
0.977210 -0.188596 -0.097423
0.994144 0.021656 0.105875
0.984991 0.101139 0.139871
0.985009 0.095087 0.143931
0.992112 -0.124480 -0.014799
0.995034 -0.099456 0.004055
0.996732 -0.048351 0.064715
0.977867 -0.193223 -0.080257
0.996708 0.028183 0.076015
0.972054 0.167824 0.164153
0.964526 0.198205 0.174367
0.937880 0.290024 0.190438
0.938857 0.301436 0.166384
0.961816 0.222657 0.159168
0.980580 0.135547 0.141740
0.925115 0.348770 0.150073
0.928370 0.327655 0.175417
0.926863 0.345625 0.146522
0.930826 0.355456 0.084941
0.940792 0.312274 0.131890
0.920572 0.374068 0.112343
0.968455 0.243018 0.055111
0.980872 0.188685 0.047835
0.992398 0.119898 0.027754
0.999487 0.032011 0.001070
0.998987 -0.043892 -0.009916
0.996291 -0.080924 -0.029248
0.932823 0.004216 -0.360309
0.937658 0.004649 -0.347528
0.945530 0.015630 -0.325161
0.943203 0.018200 -0.331719
0.940115 -0.001062 -0.340855
0.946854 0.016502 -0.321240
0.939266 -0.010943 -0.343016
0.949650 0.000807 -0.313311
0.951832 -0.016696 -0.306166
0.949776 -0.035264 -0.310937
0.966173 -0.013014 -0.257568
0.952926 -0.053052 -0.298526
0.968735 -0.035946 -0.245478
0.973279 -0.067928 -0.219350
0.979757 -0.085072 -0.181214
0.973769 -0.090557 -0.208744
0.980395 -0.101354 -0.168976
0.976891 -0.134594 -0.166035
0.972626 -0.163200 -0.165420
0.971137 -0.178875 -0.157786
0.972715 -0.180584 -0.145652
0.967604 -0.203727 -0.149121
0.974655 -0.188894 -0.119864
0.987194 -0.143653 -0.069373
0.993546 0.041029 0.105753
0.994755 0.006104 0.102100
0.988488 0.074961 0.131425
0.997377 -0.023580 0.068440
0.979182 0.126305 0.158903
0.956021 0.219651 0.194366
0.944282 0.261203 0.200262
0.936355 0.289005 0.199289
0.932009 0.316614 0.176392
0.939920 0.293108 0.175038
0.952631 0.267033 0.145561
0.848807 -0.055824 -0.525747
0.960813 0.222853 0.164848
0.970519 0.214646 0.109636
0.974991 0.168665 0.144721
0.986777 0.126630 0.101173
0.996706 0.038013 0.071636
0.997824 -0.050413 0.042489
0.994048 -0.107445 0.017998
0.984943 -0.171223 0.023860
0.945300 0.038927 -0.323872
0.941711 0.030457 -0.335042
0.947179 0.038411 -0.318398
0.948189 0.034724 -0.315804
0.956481 0.042503 -0.288683
0.965051 0.017726 -0.261462
0.976980 0.008581 -0.213158
0.978160 -0.012674 -0.207464
0.983070 -0.032890 -0.180257
0.986423 -0.059277 -0.153154
0.983866 -0.080056 -0.159999
0.985745 -0.082325 -0.146729
0.983068 -0.107123 -0.148666
0.980308 -0.125201 -0.152713
0.979736 -0.141072 -0.142185
0.985202 -0.130860 -0.110688
0.989563 -0.119056 -0.081187
0.999835 -0.017944 -0.002727
0.995189 -0.090904 -0.036544
0.998989 0.012913 0.043057
0.996674 0.062304 0.052530
0.988850 0.103087 0.107461
0.996635 0.026151 0.077685
0.997445 -0.071430 0.001142
0.978152 0.140319 0.153390
0.976285 0.140020 0.165110
0.962154 0.196187 0.189129
0.946624 0.247448 0.206571
0.941034 0.267115 0.207618
0.940024 0.270343 0.208015
0.948083 0.248028 0.199050
0.950424 0.246915 0.189017
0.958301 0.213816 0.189585
0.971985 0.161440 0.170828
0.983857 0.100918 0.147785
0.991623 0.045170 0.121006
0.994157 -0.038045 0.101017
0.988639 -0.133440 0.069180
0.974172 -0.217545 0.060526
0.938372 0.057927 -0.340738
0.935213 0.083388 -0.344126
0.939804 0.082903 -0.331504
0.944722 0.090948 -0.315007
0.960993 0.069589 -0.267674
0.975726 0.036729 -0.215892
0.967357 0.065899 -0.244699
0.983391 0.008879 -0.181281
0.982076 0.015461 -0.187852
0.987321 -0.025178 -0.156729
0.977300 -0.013376 -0.211438
0.985015 -0.054883 -0.163505
0.977138 -0.074317 -0.199193
0.980099 -0.092843 -0.175458
0.983307 -0.097715 -0.153490
0.987270 -0.089712 -0.131336
0.993045 -0.078192 -0.088017
0.995331 -0.075443 -0.060208
0.998829 0.047206 0.010626
0.998668 -0.019625 -0.047719
0.996639 -0.054614 -0.061065
0.990516 0.126978 0.052489
0.975882 0.186481 0.113485
0.970612 0.185076 0.153816
0.959617 0.222089 0.172658
0.962148 0.201413 0.183587
0.955283 0.231032 0.184552
0.948861 0.241360 0.203491
0.950005 0.244540 0.194139
0.944630 0.255759 0.205574
0.862020 0.272629 -0.427311
0.863898 0.291516 -0.410728
0.886635 0.243241 -0.393336
0.881055 0.268333 -0.389537
0.898373 0.234123 -0.371636
0.891868 0.223540 -0.393194
0.862615 0.253434 -0.437798
0.875665 0.241399 -0.418256
0.845059 0.248376 -0.473481
0.949578 0.242659 0.198541
0.950292 0.237744 0.201056
0.955330 0.223814 0.193010
0.959161 0.206971 0.192804
0.971072 0.156127 0.180673
0.982479 0.084861 0.165931
0.989820 0.000201 0.142328
0.988526 -0.093882 0.118333
0.979625 -0.174072 0.100168
0.968311 -0.239155 0.071963
0.918321 0.144334 -0.368584
0.920890 0.132757 -0.366521
0.928388 0.130700 -0.347870
0.926697 0.113923 -0.358125
0.962197 0.046651 -0.268330
0.954019 0.019154 -0.299135
0.959236 -0.018655 -0.281989
0.972083 -0.045885 -0.230107
0.958620 -0.036963 -0.282279
0.953965 -0.036037 -0.297744
0.953297 -0.031623 -0.300374
0.966032 -0.033145 -0.256287
0.980330 -0.035825 -0.194089
0.990839 -0.022541 -0.133155
0.993371 0.034238 -0.109738
0.996171 -0.028364 -0.082695
0.995054 0.090872 -0.040130
0.984715 0.174036 0.006949
0.977884 0.197176 0.069747
0.966715 0.231627 0.108675
0.962730 0.226492 0.147824
0.959236 0.246623 0.138001
0.954714 0.251869 0.158379
0.948792 0.261716 0.176915
0.946780 0.252067 0.200176
0.944872 0.256612 0.203389
0.949312 0.264194 0.170316
0.949690 0.250766 0.187628
0.952349 0.257299 0.163796
0.956912 0.235008 0.170562
0.965307 0.191242 0.177789
0.977040 0.129861 0.168905
0.982859 0.076584 0.167700
0.987524 0.002411 0.157452
0.986313 -0.086952 0.140094
0.980256 -0.155732 0.121841
0.973865 -0.221483 0.050330
0.965615 -0.257576 0.035251
0.965344 -0.244614 -0.090966
0.896821 0.171418 -0.407832
0.905601 0.156545 -0.394182
0.873798 0.164513 -0.457616
0.864542 0.177859 -0.470036
0.887425 0.172891 -0.427301
0.859424 0.179789 -0.478609
0.875081 0.139445 -0.463452
0.913344 0.081244 -0.399002
0.925873 0.025243 -0.376991
0.946463 -0.019826 -0.322203
0.928047 0.001128 -0.372462
0.924765 0.007037 -0.380473
0.933200 0.019925 -0.358805
0.949954 0.050740 -0.308241
0.977325 0.053149 -0.204964
0.977748 0.131391 -0.163541
0.983305 0.167243 -0.071706
0.972921 0.226610 -0.045523
0.967434 0.249672 0.041647
0.959978 0.256100 0.113384
0.959464 0.267916 0.087461
0.951354 0.282963 0.121889
0.955371 0.272389 0.114329
0.948944 0.277645 0.149727
0.838832 0.267759 -0.473990
0.850267 0.293950 -0.436622
0.837981 0.302968 -0.453870
0.828264 0.282808 -0.483733
0.827165 0.238847 -0.508675
0.807656 0.215339 -0.548927
0.950998 0.277343 0.136692
0.955860 0.267831 0.120826
0.963063 0.238452 0.125105
0.965768 0.207823 0.155250
0.973691 0.167252 0.154766
0.982640 0.110758 0.148834
0.985252 0.064453 0.158508
0.988700 0.052953 0.140241
0.987347 0.013586 0.157993
0.989517 -0.001777 0.144404
0.986999 -0.067479 0.145874
0.989549 -0.066891 0.127742
0.982502 -0.145239 0.116597
0.976227 -0.205571 0.068719
0.968587 -0.232042 -0.089415
0.948555 -0.227132 -0.220579
0.871764 0.162348 -0.462245
0.890216 0.142595 -0.432646
0.890775 0.156628 -0.426601
0.851252 0.168751 -0.496883
0.872008 0.148927 -0.466286
0.905208 0.113166 -0.409624
0.860732 0.171622 -0.479256
0.828507 0.171769 -0.532983
0.810082 0.180020 -0.557996
0.812240 0.174579 -0.556586
0.795941 0.177289 -0.578832
0.823330 0.178714 -0.538692
0.831303 0.163482 -0.531234
0.839267 0.127053 -0.528666
0.792494 0.158853 -0.588829
0.797573 0.131619 -0.588688
0.876573 0.079866 -0.474596
0.885247 0.055308 -0.461822
0.832010 0.102081 -0.545288
0.845787 0.087923 -0.526226
0.895334 0.059253 -0.441437
0.911176 0.082434 -0.403687
0.863156 0.087328 -0.497328
0.879610 0.104782 -0.464012
0.923629 0.107981 -0.367762
0.941668 0.135157 -0.308212
0.902690 0.134448 -0.408748
0.910516 0.173152 -0.375472
0.943874 0.197778 -0.264547
0.921406 0.193167 -0.337192
0.961238 0.228085 -0.154913
0.943004 0.332540 -0.012663
0.950700 0.301393 0.073017
0.947609 0.319000 0.016587
0.953500 0.296941 0.051619
0.959662 0.269979 0.078486
0.967681 0.245287 0.058554
0.971411 0.202229 0.124355
0.976977 0.196556 0.082959
0.980307 0.153578 0.124149
0.985990 0.153630 0.064975
0.989669 0.092883 0.109218
0.994931 0.003305 0.100507
0.991724 -0.104290 0.074880
0.981901 -0.170660 0.082138
0.974780 -0.216839 0.052769
0.970779 -0.239815 -0.008731
0.955368 -0.254472 -0.150051
0.940829 -0.235044 -0.244122
0.935421 -0.260634 -0.238867
0.843855 0.165821 -0.510306
0.844968 0.158102 -0.510914
0.824496 0.168336 -0.540250
0.820682 0.157841 -0.549152
0.825891 0.148121 -0.544025
0.805825 0.161609 -0.569674
0.774066 0.174437 -0.608599
0.765453 0.169926 -0.620650
0.791143 0.165648 -0.588772
0.769609 0.174017 -0.614346
0.751025 0.167733 -0.638613
0.763821 0.161232 -0.624966
0.749186 0.159784 -0.642798
0.775571 0.142955 -0.614861
0.768747 0.144914 -0.622919
0.795183 0.122598 -0.593847
0.795967 0.129314 -0.591366
0.821782 0.105062 -0.560032
0.821043 0.121617 -0.557762
0.841077 0.100204 -0.531554
0.839200 0.114168 -0.531704
0.875761 0.145334 -0.460348
0.855127 0.125803 -0.502923
0.891488 0.172037 -0.419109
0.897088 0.216184 -0.385354
0.917609 0.222963 -0.329060
0.937862 0.274662 -0.212074
0.926213 0.254113 -0.278488
0.819749 0.254558 -0.513042
0.810150 0.227289 -0.540368
0.804664 0.234481 -0.545467
0.773686 0.190014 -0.604404
0.799373 0.246781 -0.547816
0.788935 0.194733 -0.582804
0.748665 0.146641 -0.646526
0.766048 0.166132 -0.620943
0.732257 0.128197 -0.668854
0.939478 0.338049 -0.055709
0.929876 0.354418 -0.098579
0.947233 0.319994 -0.018828
0.955055 0.296167 -0.012419
0.975631 0.218571 -0.019273
0.960668 0.274629 -0.041181
0.987269 0.159049 0.001997
0.996946 0.077762 0.007177
0.999368 -0.028332 0.021481
0.994836 -0.099958 -0.017595
0.982472 -0.186329 -0.005435
0.969739 -0.243883 -0.011271
0.959969 -0.270591 -0.072394
0.940988 -0.288020 -0.177725
0.937128 -0.291585 -0.191755
0.935262 -0.285789 -0.208830
0.803300 0.141365 -0.578554
0.809073 0.137822 -0.571320
0.801219 0.135354 -0.582862
0.813541 0.140359 -0.564314
0.789141 0.151102 -0.595335
0.792976 0.141919 -0.592493
0.759006 0.165661 -0.629655
0.747157 0.164812 -0.643890
0.740675 0.165290 -0.651214
0.750196 0.161144 -0.641279
0.763362 0.158123 -0.626319
0.773510 0.149557 -0.615886
0.742671 0.166465 -0.648636
0.760414 0.160763 -0.629226
0.743034 0.171911 -0.646797
0.756215 0.174334 -0.630672
0.770446 0.155162 -0.618335
0.813104 0.149606 -0.562566
0.795772 0.164613 -0.582795
0.835745 0.148391 -0.528687
0.863060 0.159684 -0.479196
0.858064 0.191688 -0.476427
0.770686 0.171419 -0.613725
0.874114 0.193463 -0.445530
0.866869 0.223711 -0.445524
0.887578 0.259712 -0.380466
0.876511 0.248059 -0.412547
0.916813 0.299254 -0.264389
0.926643 0.353672 -0.127468
0.918600 0.363853 -0.154224
0.931468 0.337462 -0.135964
0.940835 0.307611 -0.142143
0.949972 0.275959 -0.146285
0.956679 0.233090 -0.174453
0.981167 0.153745 -0.116935
0.989964 0.077786 -0.117987
0.990439 -0.020069 -0.136481
0.981486 -0.140068 -0.130639
0.971714 -0.202814 -0.120991
0.956422 -0.253713 -0.144522
0.936717 -0.297607 -0.184367
0.938716 -0.304328 -0.161855
0.921818 -0.306023 -0.237909
0.933100 -0.299457 -0.199123
0.822111 0.148695 -0.549567
0.837479 0.153264 -0.524537
0.810923 0.152055 -0.565051
0.828877 0.157278 -0.536868
0.874188 0.171694 -0.454220
0.859374 0.171394 -0.481769
0.820995 0.163906 -0.546902
0.797072 0.159718 -0.582380
0.754529 0.167702 -0.634477
0.791130 0.178918 -0.584895
0.817988 0.177730 -0.547090
0.852147 0.187953 -0.488384
0.755781 0.177155 -0.630406
0.790562 0.197911 -0.579519
0.761983 0.188776 -0.619472
0.801253 0.215111 -0.558320
0.806657 0.170047 -0.566028
0.822263 0.179520 -0.540052
0.844011 0.200994 -0.497239
0.779220 0.193689 -0.596071
0.806936 0.223345 -0.546782
0.816181 0.203663 -0.540713
0.808366 0.213211 -0.548712
0.836843 0.219835 -0.501364
0.852332 0.234777 -0.467343
0.866933 0.245838 -0.433579
0.861762 0.239317 -0.447319
0.878302 0.280724 -0.387013
0.871302 0.281984 -0.401644
0.723707 0.139356 -0.675890
0.727566 0.126991 -0.674182
0.766774 0.204843 -0.608356
0.786966 0.230810 -0.572198
0.745577 0.185334 -0.640130
0.707753 0.108932 -0.698011
0.721510 0.117286 -0.682399
0.712888 0.109438 -0.692686
0.705561 0.103297 -0.701080
0.702648 0.100957 -0.704339
0.907600 0.364607 -0.208145
0.911829 0.329996 -0.244277
0.889911 0.353331 -0.288471
0.907311 0.288993 -0.305401
0.933952 0.267526 -0.236988
0.936111 0.238878 -0.258136
0.937869 0.166498 -0.304434
0.959381 0.063350 -0.274911
0.940675 -0.028121 -0.338140
0.949954 -0.101085 -0.295582
0.939085 -0.188636 -0.287289
0.906503 -0.255560 -0.336067
0.920035 -0.285582 -0.268288
0.898292 -0.297780 -0.323108
0.919449 -0.309423 -0.242633
0.841126 0.169019 -0.513750
0.911069 0.185999 -0.367911
0.898662 0.187583 -0.396508
0.909196 0.179786 -0.375553
0.928067 0.190941 -0.319740
0.880729 0.188960 -0.434293
0.910374 0.197453 -0.363637
0.835820 0.193175 -0.513895
0.887166 0.211033 -0.410368
0.896564 0.203173 -0.393564
0.872502 0.210919 -0.440741
0.842438 0.209677 -0.496321
0.827865 0.218848 -0.516475
0.897869 0.225574 -0.378084
0.866937 0.228909 -0.442743
0.830962 0.236265 -0.503668
0.850464 0.234448 -0.470897
0.828963 0.235554 -0.507282
0.844044 0.245579 -0.476739
0.836075 0.237575 -0.494507
0.852686 0.254656 -0.456154
0.863523 0.254003 -0.435673
0.856163 0.251100 -0.451589
0.869796 0.267330 -0.414717
0.871899 0.291757 -0.393281
0.872856 0.282139 -0.398146
0.863195 0.319943 -0.390552
0.872450 0.302166 -0.384093
0.873457 0.320266 -0.366746
0.869183 0.302330 -0.391303
0.861380 0.334253 -0.382490
0.875058 0.346725 -0.337719
0.858983 0.324888 -0.395722
0.872990 0.268578 -0.407129
0.878936 0.329548 -0.344775
0.851193 0.255658 -0.458377
0.842549 0.296664 -0.449558
0.917704 0.232491 -0.322128
0.878120 0.216434 -0.426687
0.900495 0.117608 -0.418661
0.895865 0.159450 -0.414731
0.892837 0.065500 -0.445592
0.898404 0.002470 -0.439163
0.869379 -0.079643 -0.487686
0.911990 -0.132801 -0.388121
0.876278 -0.156217 -0.455778
0.858990 -0.211539 -0.466249
0.837468 -0.253590 -0.484086
0.880005 -0.280275 -0.383455
0.931438 0.184565 -0.313623
0.943820 0.188569 -0.271377
0.955535 0.180527 -0.233158
0.927102 0.199515 -0.317294
0.908709 0.211721 -0.359752
0.935494 0.203096 -0.289143
0.908097 0.217623 -0.357771
0.928978 0.212270 -0.303217
0.934065 0.228538 -0.274397
0.935632 0.216354 -0.278899
0.905651 0.242383 -0.347917
0.870781 0.249118 -0.423888
0.874944 0.263288 -0.406389
0.889387 0.260278 -0.375827
0.900161 0.255550 -0.352709
0.885104 0.268303 -0.380269
0.875922 0.267187 -0.401711
0.887670 0.271276 -0.372092
0.879147 0.284183 -0.382544
0.871196 0.302783 -0.386444
0.885010 0.283785 -0.369084
0.860911 0.318160 -0.396995
0.890734 0.272137 -0.364052
0.891503 0.271725 -0.362473
0.900802 0.267736 -0.341868
0.716317 0.150270 -0.681402
0.703939 0.125975 -0.699000
0.692666 0.098690 -0.714475
0.690145 0.084569 -0.718712
0.669660 0.079721 -0.738376
0.666600 0.059680 -0.743022
0.700894 0.044189 -0.711895
0.660572 0.028143 -0.750235
0.701504 0.096054 -0.706163
0.716437 0.074701 -0.693641
0.790850 0.241649 -0.562282
0.812793 0.191533 -0.550166
0.863097 0.088317 -0.497256
0.838461 0.132327 -0.528651
0.840886 0.041966 -0.539583
0.795213 0.041861 -0.604884
0.834958 -0.000633 -0.550313
0.752007 -0.048075 -0.657400
0.784515 -0.148243 -0.602129
0.783553 -0.214711 -0.583047
0.959396 0.184329 -0.213498
0.967880 0.183634 -0.171716
0.950378 0.200869 -0.237557
0.955965 0.216966 -0.197626
0.960780 0.203624 -0.188254
0.953755 0.233653 -0.189099
0.907789 0.269733 -0.321190
0.927222 0.259014 -0.270503
0.926101 0.269962 -0.263547
0.919889 0.272741 -0.281811
0.928038 0.272623 -0.253813
0.910431 0.270469 -0.312990
0.886880 0.281452 -0.366373
0.884930 0.282176 -0.370507
0.904631 0.270332 -0.329489
0.918065 0.266745 -0.293263
0.924047 0.242154 -0.295802
0.918504 0.259764 -0.298117
0.909308 0.251867 -0.331242
0.902341 0.253745 -0.348418
0.850165 0.299110 -0.433305
0.880835 0.272248 -0.387312
0.852477 0.320250 -0.413185
0.822163 0.336573 -0.459092
0.838497 0.338344 -0.427138
0.824347 0.366977 -0.431023
0.832311 0.311272 -0.458660
0.781090 0.354294 -0.514173
0.802182 0.372054 -0.466991
0.803412 0.379315 -0.458966
0.806958 0.349510 -0.476090
0.808030 0.375236 -0.454186
0.817767 0.295846 -0.493692
0.770418 0.334159 -0.542950
0.788186 0.317704 -0.527093
0.981624 0.171571 -0.083527
0.980095 0.173602 -0.096318
0.979896 0.178982 -0.088147
0.971295 0.189094 -0.144321
0.979339 0.186301 -0.078662
0.974915 0.207814 -0.079717
0.970148 0.228988 -0.079854
0.955370 0.263862 -0.132835
0.943105 0.266916 -0.198266
0.959668 0.260308 -0.106195
0.961730 0.251078 -0.109709
0.948149 0.263081 -0.178329
0.938549 0.264114 -0.222193
0.941889 0.249955 -0.224426
0.937391 0.233532 -0.258382
0.937350 0.245099 -0.247591
0.950838 0.188038 -0.246068
0.924213 0.207960 -0.320286
0.866840 0.254016 -0.429027
0.842827 0.268202 -0.466594
0.811313 0.238529 -0.533736
0.834304 0.232475 -0.499893
0.769427 0.307058 -0.560087
0.783832 0.252275 -0.567419
0.898388 0.211804 -0.384757
0.865582 0.204025 -0.457319
0.980754 0.190705 -0.041867
0.979944 0.172516 -0.099742
0.983035 0.183225 0.008384
0.972793 0.176437 -0.150143
0.985655 0.167852 -0.017629
0.983842 0.178410 0.014987
0.983747 0.177317 -0.028276
0.978794 0.195664 0.060640
0.981451 0.191711 0.000402
0.974428 0.214334 0.067461
0.972720 0.231248 0.018426
0.964982 0.257848 -0.048203
0.970865 0.237904 0.028674
0.968460 0.248856 0.012456
0.972310 0.230606 -0.037863
0.967945 0.227672 -0.106054
0.973664 0.196114 -0.116264
0.956948 0.211958 -0.198305
0.973196 0.182519 -0.139918
0.977417 0.098296 -0.187065
0.976158 0.144721 -0.161776
0.960263 0.116503 -0.253617
0.836097 0.182983 -0.517165
0.808291 0.192607 -0.556388
0.931079 0.161939 -0.326908
0.903901 0.157487 -0.397693
0.859230 0.147729 -0.489796
0.823353 0.156160 -0.545622
0.732893 0.228817 -0.640711
0.757156 0.266422 -0.596435
0.737135 0.254097 -0.626152
0.740519 0.202728 -0.640729
0.780873 0.187410 -0.595915
0.717869 0.196441 -0.667888
0.725036 0.236853 -0.646701
0.717436 0.161872 -0.677556
0.671868 0.096011 -0.734421
0.693835 0.164204 -0.701164
0.682306 0.124900 -0.720318
0.700560 0.164363 -0.694406
0.708039 0.203675 -0.676163
0.693972 0.095034 -0.713702
0.672444 0.079242 -0.735894
0.666243 0.018819 -0.745497
0.663215 0.064922 -0.745607
0.654509 0.042510 -0.754858
0.634242 -0.005093 -0.773118
0.652961 0.028461 -0.756857
0.645257 0.001641 -0.763964
0.650418 -0.038423 -0.758604
0.623062 -0.050556 -0.780537
0.630987 -0.083608 -0.771275
0.626582 -0.032695 -0.778669
0.610757 -0.059041 -0.789614
0.610708 -0.096726 -0.785926
0.604045 -0.095889 -0.791161
0.611895 -0.117061 -0.782228
0.614411 -0.127577 -0.778603
0.599688 -0.131362 -0.789378
0.592715 -0.126777 -0.795372
0.971349 0.232736 0.048125
0.976430 0.209839 0.050527
0.978078 0.201080 0.054130
0.983131 0.179658 0.034301
0.971877 0.220186 0.083506
0.966379 0.224819 0.124771
0.971786 0.210767 0.105877
0.963166 0.225360 0.146713
0.964961 0.228947 0.128195
0.958061 0.231863 0.168399
0.966200 0.237910 0.099279
0.959205 0.227532 0.167795
0.967412 0.247730 0.052383
0.966139 0.224346 0.127453
0.971030 0.210722 0.112680
0.978906 0.180399 0.095914
0.984606 0.171610 0.033197
0.986612 0.162274 -0.016266
0.992380 0.115797 -0.042101
0.984731 0.136521 -0.108014
0.993531 0.080616 -0.079984
0.991594 0.025187 -0.126916
0.981567 0.037650 -0.187375
0.971320 0.012702 -0.237438
0.943194 0.106917 -0.314570
0.946618 0.036542 -0.320280
0.918298 0.109221 -0.380525
0.920158 0.053529 -0.387870
0.888749 0.129389 -0.439755
0.896106 0.094419 -0.433681
0.819851 0.129607 -0.557716
0.863082 0.101645 -0.494730
0.745850 0.160328 -0.646531
0.723641 0.131839 -0.677467
0.705154 0.067607 -0.705823
0.682524 -0.008112 -0.730819
0.770322 0.115622 -0.627085
0.733073 0.098425 -0.672991
0.713582 0.046637 -0.699018
0.700328 -0.006695 -0.713790
0.665475 -0.074004 -0.742743
0.646030 -0.110355 -0.755293
0.625753 -0.131779 -0.768809
0.602077 -0.138406 -0.786350
0.951791 0.290507 0.098487
0.964709 0.249796 0.083297
0.949083 0.295735 0.108547
0.958420 0.274253 0.078851
0.953098 0.281520 0.111130
0.956750 0.247836 0.152337
0.960464 0.230859 0.155602
0.954095 0.252583 0.160948
0.955443 0.265540 0.128909
0.955215 0.240918 0.171820
0.956928 0.218556 0.191107
0.961586 0.202409 0.185424
0.970566 0.175308 0.165130
0.979901 0.117865 0.160940
0.986374 0.112379 0.120157
0.986662 0.071522 0.146230
0.991806 0.110280 0.064486
0.991615 0.067702 0.110076
0.993159 0.115350 0.018169
0.997625 0.056404 0.039525
0.998624 -0.013826 -0.050590
0.990422 -0.093598 -0.101503
0.983834 -0.106842 -0.143722
0.984652 -0.034059 -0.171171
0.976918 -0.089656 -0.193888
0.961701 -0.081397 -0.261737
0.932895 -0.055971 -0.355773
0.886796 0.016150 -0.461879
0.820272 0.064982 -0.568270
0.841821 -0.002201 -0.539753
0.767793 0.058980 -0.637977
0.788260 0.010501 -0.615253
0.741628 0.067459 -0.667411
0.741271 0.022960 -0.670813
0.721840 0.030702 -0.691379
0.718695 -0.010584 -0.695245
0.705424 -0.030236 -0.708140
0.710368 -0.035191 -0.702950
0.689845 -0.060888 -0.721392
0.695163 -0.081088 -0.714264
0.709961 -0.062449 -0.701467
0.677870 -0.100644 -0.728260
0.697779 -0.099475 -0.709373
0.723112 -0.075787 -0.686560
0.946288 0.304575 0.108505
0.946782 0.303447 0.107345
0.948590 0.299583 0.102115
0.946709 0.301417 0.113537
0.950969 0.275869 0.139839
0.950628 0.276908 0.140103
0.947744 0.293675 0.124647
0.953565 0.261266 0.149849
0.955171 0.231626 0.184385
0.963003 0.205140 0.174765
0.966212 0.169790 0.193920
0.970358 0.165593 0.176024
0.974837 0.127040 0.183176
0.980471 0.124384 0.152331
0.985113 0.080157 0.152079
0.995040 0.032280 0.094093
0.999204 -0.036465 0.016165
0.990700 -0.128402 -0.045026
0.984670 -0.151151 -0.087056
0.978033 -0.167601 -0.123940
0.968743 -0.213633 -0.126083
0.964056 -0.189424 -0.186316
0.932417 -0.203192 -0.298851
0.921570 -0.145546 -0.359896
0.901635 -0.102493 -0.420177
0.869103 -0.058874 -0.491114
0.828736 -0.047268 -0.557640
0.856962 -0.157170 -0.490830
0.809257 -0.074669 -0.582689
0.785783 -0.027232 -0.617903
0.745544 -0.012603 -0.666338
0.768129 -0.053456 -0.638060
0.738545 -0.036949 -0.673191
0.725289 -0.021155 -0.688119
0.722977 -0.032849 -0.690091
0.738936 -0.020340 -0.673469
0.752936 -0.001111 -0.658092
0.744386 -0.031300 -0.667016
0.755802 -0.047219 -0.653095
0.986671 -0.160362 0.027646
0.986372 -0.164514 -0.002140
0.983669 -0.179978 -0.001782
0.981501 -0.186623 -0.042756
0.980699 -0.183623 -0.067173
0.983651 -0.176857 -0.033953
0.979632 -0.192880 -0.055850
0.990053 -0.140129 0.012599
0.985747 -0.126658 0.110731
0.992089 -0.097156 -0.079505
0.991738 -0.092395 -0.088989
0.990182 -0.125424 0.061715
0.975231 -0.145850 0.166291
0.991138 -0.107538 -0.077976
0.991017 -0.129963 0.031528
0.951264 0.291489 0.100650
0.948881 0.299685 0.099069
0.946984 0.309870 0.084858
0.944309 0.323135 0.062156
0.946489 0.307046 0.099404
0.943833 0.326249 0.052358
0.948223 0.304131 0.091528
0.952271 0.294768 0.079318
0.957021 0.267160 0.112852
0.957277 0.242082 0.158168
0.964751 0.239022 0.110106
0.976628 0.182376 0.113739
0.989181 0.123831 0.078657
0.995145 0.054565 0.081911
0.998970 -0.032177 0.031981
0.991599 -0.127223 -0.023360
0.981250 -0.184801 -0.054750
0.970510 -0.221004 -0.096270
0.953368 -0.259536 -0.154048
0.928670 -0.295353 -0.224362
0.911738 -0.294486 -0.286376
0.891370 -0.308277 -0.332304
0.900272 -0.202870 -0.385169
0.872367 -0.261617 -0.412955
0.851981 -0.264773 -0.451690
0.834321 -0.238441 -0.497046
0.802259 -0.136525 -0.581156
0.819947 -0.234871 -0.522036
0.758949 -0.081812 -0.645990
0.784739 -0.153095 -0.600622
0.755475 -0.058324 -0.652577
0.777040 -0.124213 -0.617073
0.770475 0.006868 -0.637433
0.795208 -0.070463 -0.602228
0.782906 -0.009085 -0.622074
0.808179 0.056453 -0.586225
0.818121 0.051190 -0.572763
0.832482 0.014854 -0.553854
0.867231 0.083566 -0.490843
0.953375 0.289024 0.086841
0.957792 0.272767 0.090736
0.950806 0.301982 0.069107
0.946162 0.320276 0.046917
0.942845 0.331797 0.030879
0.946676 0.320448 0.033442
0.951431 0.305985 0.033938
0.958829 0.282214 0.031650
0.971608 0.235065 0.026891
0.985415 0.169641 0.013403
0.996329 0.085545 0.003122
0.999920 -0.009731 -0.008044
0.995683 -0.089966 -0.022855
0.983103 -0.171484 -0.064042
0.971465 -0.224157 -0.077523
0.972194 -0.221568 -0.075808
0.960504 -0.258797 -0.102258
0.939196 -0.308150 -0.151509
0.917056 -0.342468 -0.204263
0.904703 -0.353593 -0.237665
0.901513 -0.334204 -0.274923
0.888280 -0.371142 -0.270580
0.872599 -0.377257 -0.310240
0.861411 -0.325417 -0.389967
0.859695 -0.364142 -0.358226
0.845004 -0.309120 -0.436362
0.843069 -0.308107 -0.440799
0.855595 -0.300691 -0.421357
0.826990 -0.237520 -0.509580
0.818088 -0.195678 -0.540779
0.818098 -0.150884 -0.554932
0.876432 -0.264861 -0.402140
0.861555 -0.209345 -0.462490
0.879249 -0.167307 -0.446016
0.838555 -0.112716 -0.533030
0.898941 -0.093518 -0.427971
0.855898 -0.044568 -0.515220
0.906693 -0.027712 -0.420880
0.913622 0.138571 -0.382221
0.914499 0.060839 -0.399989
0.987384 -0.152016 0.044321
0.989945 -0.141412 0.003259
0.990077 -0.139240 0.018964
0.989599 -0.143568 0.009046
0.989831 -0.126923 0.064234
0.982296 -0.164319 0.089966
0.982326 -0.176055 0.063561
0.976207 -0.200950 0.081475
0.951572 -0.128665 0.279206
0.959642 -0.148996 0.238510
0.938123 -0.142482 0.315634
0.930963 -0.119393 0.345041
0.960342 0.268527 0.075070
0.966730 0.247177 0.065846
0.955261 0.291377 0.050749
0.944884 0.326671 0.021922
0.947899 0.316857 0.033018
0.948138 0.317734 -0.008879
0.951379 0.307351 -0.020354
0.963040 0.266013 -0.042328
0.955384 0.287501 -0.067707
0.974454 0.215659 -0.062691
0.988151 0.133792 -0.075208
0.996219 0.030272 -0.081438
0.991281 -0.098045 -0.088027
0.977412 -0.186440 -0.099526
0.968330 -0.230059 -0.097001
0.948844 -0.287097 -0.131419
0.924239 -0.347312 -0.158611
0.909166 -0.377486 -0.175843
0.901841 -0.377859 -0.209535
0.891096 -0.413262 -0.187514
0.880129 -0.430752 -0.199565
0.880539 -0.412057 -0.234221
0.878985 -0.430811 -0.204418
0.877614 -0.411959 -0.245118
0.876008 -0.390917 -0.282476
0.868799 -0.355560 -0.344624
0.894580 -0.379663 -0.235761
0.902009 -0.329492 -0.278955
0.925940 -0.276769 -0.256972
0.914543 -0.224146 -0.336704
0.957535 -0.218851 -0.187698
0.944050 -0.145573 -0.295937
0.966458 -0.009047 -0.256663
0.943638 0.143316 -0.298341
0.971684 0.136629 -0.192779
0.969636 0.242197 0.033853
0.977107 0.211078 0.026609
0.962777 0.270053 0.011501
0.951807 0.306538 0.009910
0.953036 0.293806 -0.073483
0.952876 0.301296 -0.035322
0.960967 0.274845 -0.031667
0.952910 0.284284 -0.105573
0.961690 0.244877 -0.123242
0.953879 0.268239 -0.134771
0.973858 0.175533 -0.144182
0.984330 0.085804 -0.154052
0.986606 -0.023640 -0.161398
0.978081 -0.136317 -0.157402
0.974891 -0.182136 -0.128120
0.961699 -0.241697 -0.129299
0.937408 -0.313301 -0.152012
0.917908 -0.363370 -0.159399
0.906002 -0.389534 -0.165601
0.899050 -0.411259 -0.150247
0.886892 -0.429627 -0.169833
0.890109 -0.427356 -0.158342
0.889632 -0.421459 -0.175861
0.897485 -0.407340 -0.169099
0.913789 -0.385285 -0.128627
0.920934 -0.357922 -0.154185
0.946327 -0.298611 -0.123678
0.975776 -0.215838 -0.035717
0.989274 -0.100623 -0.105884
0.995779 0.006494 -0.091549
0.993574 0.093184 -0.064241
0.980997 0.193906 -0.006749
0.985666 0.168082 -0.014527
0.974913 0.220023 -0.033690
0.959420 0.268877 -0.084959
0.955598 0.272470 -0.112218
0.966363 0.249094 -0.063989
0.955526 0.254561 -0.148892
0.956349 0.233680 -0.175471
0.955628 0.233375 -0.179753
0.962545 0.199434 -0.183669
0.959186 0.191410 -0.208146
0.977017 0.041049 -0.209170
0.968987 0.133442 -0.207985
0.978063 -0.019578 -0.207388
0.976432 -0.083318 -0.199093
0.966346 -0.172524 -0.190817
0.959059 -0.233954 -0.159595
0.953059 -0.243174 -0.180402
0.937771 -0.309130 -0.158189
0.924930 -0.352873 -0.141370
0.916946 -0.370850 -0.147240
0.921000 -0.369502 -0.123396
0.909336 -0.397773 -0.122004
0.902535 -0.415503 -0.113079
0.905517 -0.415396 -0.086519
0.905326 -0.412960 -0.099238
0.910050 -0.406139 -0.082822
0.916539 -0.393276 -0.072733
0.940748 -0.339088 0.003584
0.955692 -0.283366 0.079722
0.958814 -0.283756 0.012553
0.971598 -0.220938 0.084757
0.992107 -0.111834 0.056724
0.999784 0.012677 0.016471
0.989481 0.124759 0.073229
0.947235 0.319962 0.019256
0.942196 0.335061 0.001131
0.942797 0.333110 0.013073
0.986611 0.156654 -0.045378
0.990521 0.129093 -0.046932
0.984709 0.159399 -0.070284
0.957873 0.254997 -0.132117
0.973048 0.212186 -0.090298
0.963619 0.235620 -0.126179
0.957430 0.213414 -0.194377
0.961563 0.221437 -0.162364
0.956716 0.208135 -0.203405
0.961556 0.145477 -0.232908
0.968033 0.068067 -0.241410
0.964069 0.078359 -0.253834
0.972728 -0.024653 -0.230637
0.968057 0.007612 -0.250614
0.969234 -0.115647 -0.217282
0.968851 -0.089572 -0.230878
0.961705 -0.185929 -0.201381
0.948008 -0.268681 -0.170563
0.934400 -0.327016 -0.141267
0.935170 -0.336527 -0.110488
0.920230 -0.381122 -0.089007
0.913935 -0.399518 -0.071478
0.913236 -0.403015 -0.059818
0.926609 -0.376025 0.000038
0.929982 -0.363407 0.055392
0.922499 -0.385920 -0.007811
0.936338 -0.340367 0.086149
0.943856 -0.309057 0.116699
0.960444 -0.231726 0.154434
0.971273 -0.124370 0.202883
0.980168 -0.121211 0.156778
0.991095 0.012798 0.132542
0.977988 -0.004911 0.208602
0.979341 0.123212 0.160345
0.974178 0.106469 0.199104
0.969138 0.232797 0.081096
0.957719 0.282063 0.056689
0.968599 0.245401 0.039926
0.957017 0.289909 0.008484
0.991310 0.116922 -0.060285
0.994505 0.094903 -0.044186
0.989206 0.127026 -0.073047
0.985716 0.144598 -0.086339
0.973355 0.190497 -0.127633
0.961493 0.192008 -0.196634
0.971029 0.173947 -0.163847
0.960957 0.165970 -0.221394
0.962883 0.120857 -0.241351
0.966219 0.067183 -0.248812
0.968949 -0.004091 -0.247228
0.969215 -0.058682 -0.239120
0.969754 -0.135966 -0.202709
0.958205 -0.222626 -0.179669
0.950649 -0.275938 -0.141859
0.950790 -0.293623 -0.098917
0.941468 -0.331545 -0.060962
0.941173 -0.337223 -0.021756
0.927632 -0.371392 -0.039586
0.942820 -0.332824 0.017840
0.944453 -0.320632 0.072141
0.944295 -0.305956 0.121237
0.949206 -0.250797 0.190025
0.947686 -0.270645 0.169240
0.952207 -0.216671 0.215305
0.956017 -0.199399 0.215110
0.967221 -0.109452 0.229138
0.970350 -0.018359 0.241008
0.973217 0.041783 0.226058
0.976157 0.106721 0.189021
0.975065 0.152246 0.161462
0.980353 0.123179 0.154062
0.976233 0.178590 0.122782
0.987701 0.113056 0.108006
0.983753 0.171154 0.054180
0.978003 0.208196 -0.012839
0.947253 0.320303 -0.010877
0.961690 0.265178 -0.069524
0.949100 0.299806 -0.096567
0.948382 0.313793 -0.045888
0.942243 0.327726 -0.069092
0.951962 0.277032 -0.130471
0.927293 0.336618 -0.163756
0.934433 0.341328 -0.101636
0.942306 0.328565 -0.064065
0.918689 0.328076 -0.219946
0.939534 0.304979 -0.155765
0.934622 0.339271 -0.106661
0.906240 0.333784 -0.259457
0.971450 0.181147 0.153198
0.964738 0.240878 0.106103
0.996353 0.074772 -0.041116
0.997955 0.057772 -0.027340
0.993102 0.100590 -0.060254
0.993521 0.094937 -0.062480
0.987542 0.120907 -0.100709
0.966767 0.162625 -0.197268
0.969027 0.136192 -0.206006
0.979252 0.129189 -0.156126
0.977650 0.111943 -0.177957
0.965308 0.125057 -0.229220
0.969308 0.060367 -0.238322
0.970926 0.087044 -0.222992
0.971792 0.110604 -0.208296
0.973039 0.019136 -0.229847
0.973444 -0.053624 -0.222555
0.978102 -0.088921 -0.188175
0.979950 -0.128674 -0.152124
0.966632 -0.202789 -0.156520
0.977230 -0.173564 -0.122055
0.968052 -0.229397 -0.101256
0.961996 -0.268560 -0.049383
0.953092 -0.302554 -0.008740
0.956594 -0.288559 0.040766
0.952448 -0.295737 0.073366
0.956826 -0.256432 0.136847
0.957612 -0.206799 0.200533
0.963203 -0.137295 0.231064
0.959199 -0.160448 0.232796
0.965029 -0.102706 0.241186
0.969084 -0.086731 0.230985
0.970583 -0.035071 0.238199
0.976462 -0.035548 0.212740
0.976979 0.029953 0.211222
0.983197 0.004978 0.182481
0.985588 0.060738 0.157884
0.994879 0.046572 0.089700
0.994548 0.090748 0.051381
0.994680 0.102487 -0.010383
0.985275 0.149870 -0.082287
0.956416 0.236332 -0.171509
0.924556 0.297099 -0.238598
0.927720 0.268807 -0.258994
0.894236 0.330115 -0.302267
0.903010 0.316332 -0.290702
0.949827 0.229550 0.212451
0.949149 0.213103 0.231740
0.950038 0.197258 0.241904
0.948027 0.172539 0.267350
0.949453 0.229202 0.214491
0.949639 0.230238 0.212547
0.999525 0.029416 -0.009210
0.999542 0.029392 -0.007254
0.997760 0.058360 -0.032691
0.997427 0.058816 -0.040980
0.994789 0.077841 -0.065853
0.991744 0.088685 -0.092618
0.988681 0.086874 -0.122319
0.974410 0.052043 -0.218671
0.981280 0.086471 -0.172083
0.983348 0.054932 -0.173232
0.980186 0.025396 -0.196445
0.982093 -0.025676 -0.186641
0.988593 0.018976 -0.149410
0.990771 -0.023291 -0.133528
0.985075 -0.069745 -0.157363
0.991161 -0.067892 -0.113977
0.988703 -0.115775 -0.095193
0.985004 -0.158764 -0.067542
0.979452 -0.200314 -0.023421
0.969310 -0.244177 0.028549
0.971737 -0.217520 0.091712
0.962728 -0.255795 0.087888
0.964998 -0.224641 0.135333
0.961148 -0.220576 0.165952
0.963415 -0.192181 0.186810
0.966064 -0.141657 0.215993
0.973097 -0.092924 0.210824
0.978842 -0.064277 0.194258
0.984068 -0.035862 0.174140
0.992277 -0.008969 0.123715
0.997423 0.003225 0.071668
0.999432 0.020347 0.026860
0.999415 0.026937 -0.021061
0.996621 0.063919 -0.051585
0.994131 0.068066 -0.084081
0.983567 0.121716 -0.133343
0.935325 0.249277 -0.251054
0.962788 0.185214 -0.196812
0.890619 0.320556 -0.322553
0.909027 0.300264 -0.288984
0.998914 0.010119 -0.045485
0.994899 0.044077 -0.090737
0.989003 0.083034 -0.122387
0.999896 -0.000898 0.014376
0.999921 0.000147 0.012538
0.999925 0.012089 0.001820
0.999738 0.021202 -0.008661
0.998026 0.048125 -0.040347
0.995573 0.062760 -0.069969
0.995864 0.056035 -0.071523
0.993138 0.057302 -0.101948
0.991413 0.042718 -0.123595
0.994169 0.032255 -0.102896
0.995159 0.012872 -0.097434
0.996643 -0.016922 -0.080098
0.997497 -0.051671 -0.048271
0.994257 -0.099444 -0.039543
0.992096 -0.124809 0.012962
0.981970 -0.177836 0.064103
0.972842 -0.193789 0.126591
0.971251 -0.182803 0.152496
0.965751 -0.201241 0.163792
0.967864 -0.183070 0.172408
0.967504 -0.171616 0.185701
0.969583 -0.142869 0.198741
0.976415 -0.107334 0.187330
0.982437 -0.070775 0.172651
0.987617 -0.060422 0.144780
0.992078 -0.059110 0.110851
0.996957 -0.044812 0.063783
0.999392 -0.029272 0.018924
0.999802 -0.019406 -0.004412
0.956957 0.212294 -0.197902
0.939738 0.264361 -0.216808
0.999423 -0.033805 0.003444
0.999174 0.010865 -0.039154
0.995838 0.066961 -0.061830
0.981287 0.143266 -0.128649
0.969732 0.217876 -0.110228
0.951360 0.243547 0.188675
0.950032 0.233483 0.207183
0.950756 0.237495 0.199148
0.999691 -0.009695 0.022908
0.999913 0.011461 0.006496
0.999581 -0.013624 0.025532
0.999824 0.018692 0.001856
0.999406 -0.018410 0.029149
0.999593 -0.013729 0.024996
0.999662 -0.011608 0.023247
0.999836 -0.003962 0.017675
0.999931 0.011521 0.002456
0.999187 0.031929 -0.024605
0.998634 0.037853 -0.036016
0.998565 0.040586 -0.034946
0.996451 0.042912 -0.072413
0.998255 0.033817 -0.048408
0.999040 0.015336 -0.041035
0.999598 -0.006760 -0.027551
0.999777 -0.015949 0.013816
0.998123 -0.058376 0.018527
0.994641 -0.081174 0.064029
0.988404 -0.122654 0.089522
0.978954 -0.161485 0.124787
0.973310 -0.165048 0.159459
0.970287 -0.173571 0.168573
0.969247 -0.173564 0.174459
0.970374 -0.153495 0.186582
0.973470 -0.132498 0.186549
0.980750 -0.098389 0.168671
0.984184 -0.093417 0.150513
0.989340 -0.086060 0.117474
0.993111 -0.082131 0.083575
0.992902 -0.082953 0.085225
0.997894 -0.054902 0.034543
0.992912 -0.074994 0.092202
0.995521 -0.050910 0.079665
0.998953 -0.026011 0.037627
0.998748 -0.028820 0.040883
0.998922 -0.026695 0.037980
0.999010 -0.025060 0.036765
0.999008 -0.023211 0.038004
0.999413 -0.012207 0.032012
0.999799 0.002056 0.019931
0.999832 0.017053 0.006673
0.999596 0.028285 -0.002927
0.999453 0.032915 0.003349
0.999106 0.040747 -0.011309
0.998982 0.044035 0.009748
0.999432 0.033560 -0.003008
0.999453 0.018444 0.027443
0.998340 -0.000464 0.057591
0.998254 -0.021808 0.054897
0.995568 -0.045172 0.082488
0.988922 -0.079954 0.125065
0.979912 -0.128897 0.152180
0.973417 -0.148885 0.174046
0.969660 -0.160407 0.184467
0.969866 -0.167787 0.176659
0.965786 -0.160260 0.203895
0.966756 -0.151377 0.206079
0.968635 -0.141749 0.204089
0.971242 -0.122188 0.204351
0.975447 -0.110461 0.190531
0.977018 -0.102306 0.187000
0.978765 -0.100470 0.178676
0.987608 -0.097630 0.122881
0.980041 -0.086793 0.178846
0.981750 -0.094101 0.165266
0.988001 -0.090248 0.125338
0.982061 -0.073325 0.173722
0.979980 -0.103239 0.170238
0.986860 -0.055835 0.151623
0.998211 -0.035771 0.047914
0.997868 -0.039337 0.052072
0.998188 -0.036111 0.048126
0.998205 -0.035211 0.048436
0.997906 -0.036726 0.053235
0.998375 -0.028919 0.049096
0.999060 -0.015045 0.040654
0.999437 -0.002297 0.033474
0.999506 0.019071 0.024988
0.999159 0.035324 0.020830
0.998275 0.048705 0.032786
0.997823 0.052727 0.039621
0.997801 0.048157 0.045545
0.995117 0.043617 0.088539
0.995825 0.015815 0.089897
0.994688 -0.011889 0.102245
0.989748 -0.041636 0.136620
0.982785 -0.063427 0.173526
0.977465 -0.094426 0.188801
0.967574 -0.131552 0.215628
0.960522 -0.152762 0.232511
0.957714 -0.156641 0.241344
0.958863 -0.153853 0.238559
0.959257 -0.140173 0.245309
0.954427 -0.122105 0.272323
0.960891 -0.108063 0.254971
0.959260 -0.091720 0.267222
0.948822 -0.072158 0.307457
0.968792 -0.091773 0.230260
0.960006 -0.062663 0.272875
0.938901 -0.016860 0.343773
0.966845 -0.038482 0.252448
0.944865 0.000657 0.327461
0.938443 0.047302 0.342180
0.948068 0.084958 0.306512
0.908924 0.107126 0.402966
0.997604 -0.042103 0.054888
0.997485 -0.042804 0.056502
0.997448 -0.044407 0.055901
0.997282 -0.045886 0.057638
0.997470 -0.042753 0.056797
0.997968 -0.038957 0.050428
0.998825 -0.020889 0.043719
0.999312 0.001450 0.037066
0.999222 0.017080 0.035552
0.998634 0.035800 0.038062
0.996333 0.064287 0.056457
0.995360 0.070361 0.065640
0.992842 0.075371 0.092654
0.990213 0.053804 0.128775
0.992049 0.032900 0.121474
0.986257 0.049362 0.157670
0.990287 0.071238 0.119399
0.989314 0.014624 0.145063
0.981029 0.039736 0.189747
0.987844 -0.015732 0.154647
0.978713 0.004271 0.205189
0.981108 -0.036879 0.189914
0.970107 -0.027382 0.241128
0.970374 -0.064705 0.232781
0.965203 -0.098061 0.242421
0.951381 -0.116123 0.285289
0.947742 -0.140206 0.286578
0.947439 -0.147720 0.283791
0.953027 -0.152775 0.261535
0.948152 -0.143226 0.283715
