0.885961 -0.179080 -0.427789
0.912051 -0.109082 -0.395302
0.886580 -0.178973 -0.426550
0.862585 -0.071799 -0.500792
0.877702 -0.200255 -0.435358
0.866575 -0.207733 -0.453756
0.866567 -0.207744 -0.453767
0.847449 -0.209399 -0.487834
0.831169 -0.133922 -0.539651
0.846960 -0.206589 -0.489877
0.846948 -0.206572 -0.489905
0.831157 -0.133897 -0.539676
0.846959 -0.206583 -0.489882
0.738339 -0.093346 -0.667939
0.840368 -0.148105 -0.521389
0.807861 -0.139991 -0.572506
0.742207 -0.094897 -0.663417
0.840361 -0.148090 -0.521404
0.840356 -0.148081 -0.521415
0.792393 -0.015625 -0.609811
0.716049 -0.057898 -0.695645
0.796520 -0.060849 -0.601542
0.792388 -0.015632 -0.609817
0.786727 0.026795 -0.616720
0.801850 0.100243 -0.589056
0.801865 0.100272 -0.589031
0.801856 0.100253 -0.589047
0.802432 0.104590 -0.587506
0.861880 0.138732 -0.487767
0.861906 0.138719 -0.487725
0.861878 0.138738 -0.487769
0.826724 0.150266 -0.542169
0.833839 0.123986 -0.537904
0.877778 0.136514 -0.459205
0.843609 0.187977 -0.502979
0.843637 0.188017 -0.502918
0.843661 0.185097 -0.503960
0.843664 0.187927 -0.502906
0.843585 0.185191 -0.504052
0.843651 0.187981 -0.502908
0.843656 0.187981 -0.502900
0.911144 -0.123390 -0.393180
0.911141 -0.123380 -0.393191
0.911150 -0.123383 -0.393171
0.911155 -0.123415 -0.393148
0.910918 -0.122837 -0.393877
0.911141 -0.123399 -0.393186
0.918891 -0.148875 -0.365344
0.942252 -0.121868 -0.311944
0.930844 -0.136278 -0.339053
0.930844 -0.136276 -0.339055
0.930840 -0.136282 -0.339065
0.957600 -0.106707 -0.267611
0.938924 -0.145842 -0.311690
0.944739 -0.149618 -0.291689
0.951255 -0.152526 -0.268047
0.923944 -0.162210 -0.346433
0.923963 -0.162202 -0.346385
0.923943 -0.162245 -0.346419
0.993209 0.028151 -0.112887
0.993210 0.028165 -0.112877
0.993207 0.028174 -0.112901
0.993922 0.026809 -0.106772
0.993208 0.028144 -0.112897
0.973400 0.051930 -0.223148
0.973412 0.051984 -0.223085
0.973416 0.052026 -0.223059
0.973396 0.051890 -0.223175
0.983771 0.002037 -0.179419
0.983770 0.002023 -0.179422
0.984212 -0.000742 -0.176990
0.973394 0.051845 -0.223196
0.973390 0.051843 -0.223212
0.973386 0.051916 -0.223212
0.970986 -0.022886 -0.238039
0.970640 -0.020983 -0.239621
0.970630 -0.020928 -0.239663
0.970638 -0.020962 -0.239632
0.951145 0.058736 -0.303105
0.934792 0.107796 -0.338445
0.951133 0.058735 -0.303143
0.951154 0.058736 -0.303077
0.951148 0.058672 -0.303109
0.958325 -0.136855 -0.250767
0.958325 -0.136845 -0.250771
0.958317 -0.136875 -0.250785
0.958326 -0.136843 -0.250769
0.958323 -0.136829 -0.250787
0.958200 -0.135223 -0.252127
0.968816 -0.064139 -0.239337
0.968812 -0.064116 -0.239360
0.968825 -0.064099 -0.239310
0.968674 -0.065581 -0.239521
0.951873 -0.180898 -0.247413
0.951886 -0.180859 -0.247391
0.951943 -0.180738 -0.247261
0.937722 -0.203980 -0.281193
0.937726 -0.203982 -0.281179
0.925523 -0.236629 -0.295658
0.925503 -0.236731 -0.295638
0.925503 -0.236743 -0.295630
0.943358 -0.200773 -0.264134
0.944627 -0.108919 -0.309542
0.954779 -0.132839 -0.265989
0.899787 -0.124287 -0.418253
0.899784 -0.124225 -0.418278
0.959362 -0.170428 -0.224898
0.899777 -0.124311 -0.418268
0.883080 -0.116220 -0.454603
0.957069 -0.191058 -0.217983
0.883083 -0.116226 -0.454595
0.951342 -0.192126 -0.240906
0.883088 -0.116220 -0.454586
0.896107 -0.167530 -0.411005
0.896111 -0.167560 -0.410985
0.949695 -0.224331 -0.218531
0.907886 -0.203398 -0.366569
0.938443 -0.215806 -0.269725
0.945343 -0.146857 -0.291134
0.907890 -0.203387 -0.366565
0.933319 -0.150462 -0.326001
0.933328 -0.150468 -0.325973
0.945347 -0.146855 -0.291124
0.930984 -0.126637 -0.342392
0.944192 -0.145927 -0.295307
0.930990 -0.126628 -0.342378
0.945348 -0.146821 -0.291138
0.947593 0.052424 -0.315151
0.947580 0.052468 -0.315182
0.947589 0.052482 -0.315153
0.947582 0.052502 -0.315168
0.949568 0.146113 -0.277438
0.949570 0.146105 -0.277434
0.949582 0.146093 -0.277402
0.949563 0.146122 -0.277450
0.949569 0.146115 -0.277434
0.949577 0.146117 -0.277404
0.949567 0.146125 -0.277436
0.959757 0.146833 -0.239388
0.959756 0.146811 -0.239406
0.959774 0.146783 -0.239350
0.959777 0.146799 -0.239330
0.959761 0.146807 -0.239388
0.974913 0.064724 -0.212967
0.974899 0.064698 -0.213042
0.974909 0.064692 -0.212998
0.974897 0.064654 -0.213063
0.915180 -0.228711 -0.331868
0.951859 -0.180904 -0.247464
0.915177 -0.228717 -0.331873
0.951867 -0.180876 -0.247454
0.915199 -0.228686 -0.331833
0.915178 -0.228716 -0.331871
0.951010 -0.182981 -0.249194
0.915176 -0.228730 -0.331867
0.915163 -0.228760 -0.331881
0.937710 -0.204009 -0.281211
0.914625 -0.237100 -0.327483
0.936020 -0.207155 -0.284524
0.937711 -0.203977 -0.281232
0.915866 -0.242497 -0.319975
0.932881 -0.185711 -0.308618
0.932883 -0.185708 -0.308612
0.925183 -0.237321 -0.296167
0.925490 -0.236762 -0.295654
0.932884 -0.185703 -0.308614
0.910285 -0.252616 -0.327974
0.910309 -0.252506 -0.327990
0.877927 -0.102743 -0.467642
0.878024 -0.102540 -0.467504
0.965521 -0.070363 -0.250638
0.930344 0.048438 -0.363475
0.930347 0.048460 -0.363464
0.976543 0.028285 -0.213456
0.926199 -0.004250 -0.377010
0.887131 -0.084480 -0.453721
0.914529 -0.234925 -0.329313
0.914537 -0.234938 -0.329281
0.887138 -0.084514 -0.453699
0.915174 -0.228714 -0.331882
0.900848 -0.233214 -0.366176
0.885451 0.050728 -0.461957
0.872226 0.038468 -0.487588
0.885418 0.050775 -0.462013
0.872177 0.038505 -0.487673
0.872260 0.038433 -0.487531
0.874758 0.100234 -0.474079
0.941119 -0.141970 -0.306822
0.941140 -0.142006 -0.306740
0.874868 0.100098 -0.473905
0.989806 -0.106573 -0.094477
0.874896 0.100076 -0.473857
0.979086 -0.107523 -0.172710
0.989814 -0.106525 -0.094447
0.979530 -0.112578 -0.166872
0.941145 -0.141984 -0.306735
0.941132 -0.141977 -0.306778
0.904306 -0.031508 -0.425720
0.908712 -0.029997 -0.416345
0.904311 -0.031480 -0.425712
0.908720 -0.029997 -0.416327
0.908714 -0.029967 -0.416343
0.902549 -0.032057 -0.429391
0.908712 -0.029931 -0.416349
0.900781 0.031861 -0.433103
0.908722 -0.029948 -0.416325
0.898847 0.033290 -0.436997
0.892204 0.068930 -0.446342
0.914348 0.066462 -0.399437
0.914360 0.066411 -0.399418
0.896603 0.069151 -0.437404
0.914362 0.066399 -0.399416
0.914935 0.085283 -0.394487
0.914941 0.085247 -0.394481
0.894992 0.051672 -0.443079
0.907739 0.074072 -0.412943
0.907730 0.074049 -0.412969
0.899182 0.053017 -0.434351
0.938201 0.038382 -0.343955
0.938194 0.038321 -0.343981
0.879988 0.020369 -0.474559
0.894557 0.008178 -0.446879
0.879884 0.007664 -0.475127
0.981658 0.047708 -0.184583
0.981652 0.047734 -0.184611
0.880941 0.020098 -0.472800
0.880939 0.020081 -0.472803
0.919837 0.005126 -0.392266
0.880944 0.020098 -0.472793
0.955058 0.016856 -0.295940
0.905008 -0.061575 -0.420914
0.925787 0.014050 -0.377784
0.905014 -0.061562 -0.420904
0.932399 0.035896 -0.359644
0.987820 0.090780 -0.126373
0.931330 -0.051858 -0.360465
0.931330 -0.051876 -0.360463
0.987818 0.090797 -0.126381
0.931338 -0.051872 -0.360441
0.981001 0.078208 -0.177538
0.967249 0.047661 -0.249313
0.989811 -0.106531 -0.094476
0.989815 -0.106505 -0.094460
0.989815 -0.106485 -0.094482
0.989812 -0.106511 -0.094485
0.980728 -0.160585 -0.111288
0.995593 -0.052809 -0.077500
0.994386 -0.082715 -0.065996
0.996806 -0.047037 -0.064538
0.995796 -0.064410 -0.065128
0.995793 -0.064416 -0.065172
0.998380 -0.048533 -0.029699
0.998276 -0.038564 -0.044248
0.998345 -0.043580 -0.037511
0.998345 -0.043585 -0.037526
0.995622 -0.067174 -0.064989
0.995624 -0.067151 -0.064993
0.998883 -0.005755 -0.046904
0.995589 -0.041218 -0.084278
0.992255 -0.016907 -0.123065
0.995589 -0.041219 -0.084278
0.995590 -0.041228 -0.084262
0.980577 -0.085061 -0.176732
0.985350 -0.071553 -0.154807
0.974148 -0.080890 -0.210932
0.979979 -0.102113 -0.170920
0.947346 -0.109558 -0.300887
0.947339 -0.109597 -0.300893
0.946944 -0.107917 -0.302738
0.947335 -0.109567 -0.300917
0.924954 -0.111337 -0.363408
0.924959 -0.111350 -0.363391
0.924952 -0.111364 -0.363402
0.923254 -0.109769 -0.368175
0.924953 -0.111348 -0.363406
0.954196 -0.143233 -0.262669
0.907356 -0.100643 -0.408138
0.911349 -0.101046 -0.399039
0.911347 -0.101053 -0.399043
0.911357 -0.101039 -0.399022
0.925071 -0.136289 -0.354500
0.927533 -0.134264 -0.348792
0.889623 -0.111315 -0.442921
0.929562 -0.104387 -0.353577
0.931693 -0.104488 -0.347895
0.931688 -0.104484 -0.347909
0.931685 -0.104486 -0.347915
0.948187 -0.091644 -0.304208
0.943156 -0.067299 -0.325465
0.950472 -0.116276 -0.288240
0.948186 -0.091646 -0.304212
0.950467 -0.116273 -0.288260
0.948213 -0.091630 -0.304130
0.895343 -0.077469 -0.438587
0.895355 -0.077456 -0.438566
0.895392 -0.077458 -0.438490
0.904319 -0.031483 -0.425694
0.904335 -0.031480 -0.425660
0.995416 -0.017123 0.094096
0.996472 -0.024987 0.080122
0.995416 -0.017193 0.094083
0.996482 -0.024963 0.080006
0.998114 -0.027425 -0.054923
0.958058 -0.265895 -0.106887
0.962943 -0.241130 -0.120822
0.955524 -0.272052 -0.113850
0.936547 -0.011692 0.350346
0.936549 -0.011698 0.350341
0.936529 -0.011686 0.350395
0.936537 -0.011693 0.350375
0.936513 -0.011611 0.350440
0.936500 -0.011599 0.350477
0.928582 -0.001890 0.371122
0.928572 -0.001884 0.371146
0.928673 -0.001965 0.370895
0.928669 -0.001957 0.370905
0.941725 -0.026034 0.335374
0.941729 -0.026056 0.335362
0.942506 -0.025882 0.333186
0.932422 -0.015740 0.361029
0.933619 -0.015954 0.357913
0.902685 0.006947 0.430247
0.902684 0.006943 0.430249
0.902684 0.006956 0.430247
0.902685 0.006954 0.430246
0.889668 0.010398 0.456490
0.889672 0.010404 0.456482
0.889672 0.010398 0.456481
0.889532 0.010432 0.456754
0.889540 0.010419 0.456739
0.921743 -0.024546 0.387024
0.905122 -0.006968 0.425094
0.941847 -0.047183 0.332712
0.947667 -0.007126 0.319180
0.947677 -0.007154 0.319150
0.947674 -0.007171 0.319159
0.947671 -0.007147 0.319168
0.947665 -0.007135 0.319186
0.947673 -0.007149 0.319162
0.947669 -0.007141 0.319176
0.947666 -0.007138 0.319182
0.947670 -0.007133 0.319172
0.947682 -0.007148 0.319136
0.880871 0.030311 0.472386
0.879829 0.031315 0.474257
0.881047 0.027457 0.472231
0.913757 -0.089349 0.396313
0.913757 -0.089341 0.396315
0.913758 -0.089364 0.396309
0.913763 -0.089390 0.396291
0.902556 -0.073368 0.424275
0.902672 -0.073532 0.424000
0.902674 -0.073539 0.423996
0.902669 -0.073521 0.424008
0.902668 -0.073524 0.424011
0.899909 -0.008745 0.435990
0.945958 -0.147831 0.288635
0.945964 -0.147839 0.288611
0.945964 -0.147841 0.288609
0.903786 -0.152112 0.400041
0.904743 -0.153324 0.397406
0.904743 -0.153334 0.397402
0.912962 -0.211077 0.349209
0.918347 -0.217446 0.330690
0.918349 -0.217426 0.330698
0.922947 -0.222964 0.313775
0.940185 -0.179180 0.289736
0.940186 -0.179176 0.289735
0.940183 -0.179178 0.289744
0.940181 -0.179182 0.289748
0.940186 -0.179172 0.289738
0.949583 -0.178077 0.258033
0.930649 -0.178512 0.319414
0.949766 -0.101840 0.295928
0.949778 -0.101855 0.295884
0.950145 -0.099902 0.295371
0.949781 -0.101836 0.295880
0.966036 -0.039259 0.255408
0.966034 -0.039273 0.255413
0.965978 -0.040754 0.255391
0.966040 -0.039288 0.255388
0.996473 -0.024771 0.080179
0.963432 0.000103 0.267953
0.963440 0.000164 0.267923
0.996469 -0.024739 0.080239
0.996465 -0.024899 0.080239
0.984294 -0.044349 0.170877
0.984293 -0.044258 0.170906
0.984304 -0.044254 0.170842
0.976227 -0.212388 -0.043276
0.972806 -0.220918 -0.069600
0.972809 -0.220907 -0.069595
0.988637 -0.111593 -0.100719
0.987947 -0.070815 -0.137646
0.988639 -0.111568 -0.100729
0.987946 -0.070833 -0.137642
0.987946 -0.070813 -0.137653
0.988128 -0.082426 -0.129650
0.984319 -0.091977 -0.150520
0.993240 -0.078909 -0.085134
0.984321 -0.091970 -0.150512
0.988240 -0.073018 -0.134348
0.983659 -0.127128 -0.127487
0.993003 -0.078133 -0.088544
0.983663 -0.127108 -0.127481
0.989325 -0.086802 -0.117056
0.976179 -0.199120 -0.086177
0.989502 -0.132079 -0.058656
0.985385 -0.168296 -0.026325
0.976173 -0.199152 -0.086173
0.985380 -0.168326 -0.026311
0.990149 -0.131244 -0.048777
0.972794 -0.220966 -0.069613
0.983635 -0.177115 -0.033047
0.972800 -0.220942 -0.069602
0.984230 -0.174748 -0.027456
0.928619 -0.030963 0.369740
0.913003 0.033336 0.406589
0.925460 -0.027884 0.377819
0.912905 0.033341 0.406807
0.925444 -0.027882 0.377858
0.912902 0.033341 0.406815
0.971802 -0.127018 0.198665
0.934488 -0.120743 0.334893
0.971785 -0.127086 0.198703
0.928578 -0.031002 0.369840
0.934472 -0.120743 0.334936
0.986254 -0.114884 0.118764
0.927726 -0.202532 0.313537
0.954635 -0.211770 0.209347
0.927722 -0.202566 0.313526
0.963496 -0.215167 0.159308
0.927720 -0.202550 0.313543
0.952114 -0.238599 0.191180
0.954167 -0.229499 0.192083
0.943495 -0.265375 0.198477
0.954874 -0.257961 0.147212
0.954871 -0.257961 0.147236
0.954162 -0.229520 0.192083
0.930271 -0.245276 0.272827
0.970963 -0.135293 0.197300
0.957144 -0.230498 0.175347
0.950236 -0.195746 0.242354
0.950240 -0.195746 0.242338
0.954664 -0.219404 0.201190
0.965330 -0.146258 0.216211
0.968960 -0.200228 0.144998
0.970348 -0.180812 0.160413
0.970349 -0.180799 0.160421
0.965331 -0.146252 0.216211
0.965338 -0.146232 0.216193
0.978059 -0.181426 0.102396
0.978062 -0.181414 0.102394
0.983421 -0.126070 0.130344
0.985274 -0.134974 0.104962
0.981271 -0.161397 0.105160
0.987387 -0.135543 0.081819
0.983906 -0.166271 0.065436
0.987387 -0.135551 0.081811
0.981097 -0.177986 0.075958
0.991099 -0.132189 -0.015778
0.989087 -0.096382 -0.111431
0.991101 -0.132168 -0.015804
0.989085 -0.096391 -0.111442
0.989085 -0.096382 -0.111456
0.995940 -0.089989 0.002336
0.994387 -0.096921 -0.042431
0.993587 -0.035847 0.107238
0.993586 -0.035831 0.107248
0.993588 -0.035828 0.107239
0.994263 -0.066570 -0.083727
0.993243 -0.078915 -0.085094
0.995359 -0.026511 0.092504
0.995360 -0.026499 0.092498
0.993006 -0.078143 -0.088503
0.997446 -0.059813 -0.039025
0.997446 -0.059827 -0.039018
0.995359 -0.026505 0.092512
0.995359 -0.026493 0.092513
0.993866 -0.095682 -0.055447
0.990621 -0.080127 0.110680
0.990153 -0.131218 -0.048770
0.990622 -0.080116 0.110674
0.990152 -0.131233 -0.048762
0.995568 -0.081609 0.046747
0.984230 -0.174740 -0.027506
0.992036 -0.106639 0.067033
0.984233 -0.174733 -0.027472
0.983313 -0.113598 0.142098
0.994123 -0.103355 0.032203
0.994129 -0.103305 0.032179
0.986257 -0.114875 0.118746
0.978439 -0.192788 0.074096
0.978436 -0.192800 0.074105
0.963498 -0.215169 0.159294
0.963499 -0.215170 0.159286
0.965060 -0.239839 0.105533
0.954217 -0.264049 0.140527
0.970968 -0.135267 0.197294
0.957145 -0.230496 0.175341
0.958347 -0.243775 0.148810
0.968961 -0.200229 0.144990
0.965476 -0.232641 0.117191
0.978058 -0.181434 0.102396
0.978062 -0.181412 0.102396
0.974169 -0.202687 0.099563
0.977943 -0.190792 0.085006
0.981097 -0.177981 0.075967
0.994568 -0.096970 0.037822
0.994568 -0.096983 0.037793
0.989013 -0.069331 0.130560
0.993581 -0.035821 0.107299
0.993578 -0.035828 0.107328
0.995351 -0.026490 0.092599
0.995358 -0.026496 0.092521
0.995350 -0.026493 0.092608
0.990613 -0.080116 0.110759
0.990617 -0.080115 0.110719
0.990619 -0.080122 0.110704
0.990612 -0.080122 0.110761
0.983305 -0.113634 0.142122
0.968425 -0.119378 0.218866
0.983312 -0.113604 0.142094
0.979542 -0.163188 0.117762
0.979543 -0.163188 0.117750
0.991739 -0.122874 0.036816
0.988771 -0.147909 0.021336
0.983426 -0.118774 0.136989
0.996484 -0.024659 0.080077
0.963550 0.000289 0.267530
0.996865 -0.011493 -0.078282
0.999744 -0.019530 -0.011415
0.963541 0.000345 0.267559
0.996848 -0.011423 -0.078507
0.982852 0.070128 -0.170539
0.996028 0.088523 -0.009595
0.996030 0.088527 -0.009327
0.940928 -0.124062 0.315060
0.956044 -0.203473 0.211135
0.940145 -0.121506 0.318376
0.955022 -0.186850 0.230262
0.956031 -0.203488 0.211182
0.956040 -0.203515 0.211112
0.947946 -0.242987 0.205806
0.956044 -0.203474 0.211136
0.955038 -0.186905 0.230148
0.954197 -0.173740 0.243561
0.991805 -0.123297 -0.033482
0.991807 -0.123281 -0.033470
0.984379 -0.032930 -0.172956
0.984372 -0.032959 -0.172991
0.991613 -0.124837 -0.033462
0.983465 -0.030844 -0.178450
0.995459 -0.092858 0.020953
0.998740 -0.032606 -0.038156
0.996506 -0.062507 0.055395
0.998680 -0.034621 -0.037942
0.998587 -0.052120 -0.010397
0.998587 -0.052127 -0.010378
0.996505 -0.062513 0.055409
0.993058 -0.082543 0.083801
0.998620 -0.051903 -0.008025
0.998621 -0.051890 -0.008015
0.995074 -0.071787 0.068377
0.994457 -0.044872 0.095085
0.998686 -0.050637 -0.007862
0.997157 -0.009133 0.074801
0.997385 -0.039194 -0.060726
0.991972 -0.015363 -0.125519
0.997534 0.041357 0.056712
0.997534 0.041358 0.056711
0.997261 -0.038500 -0.063159
0.998061 0.060159 0.015995
0.992323 0.004245 -0.123602
0.991963 -0.015400 -0.125587
0.996790 0.078844 -0.013907
0.975656 0.040082 -0.215615
0.975649 0.040080 -0.215647
0.979305 0.053277 -0.195250
0.996530 0.082628 -0.009983
0.975653 0.040104 -0.215622
0.944931 0.014330 -0.326957
0.944922 0.014335 -0.326982
0.996631 0.035819 0.073787
0.995239 0.039118 0.089274
0.977675 0.029366 -0.208059
0.995180 -0.096580 0.016982
0.945150 -0.074658 -0.317990
0.995174 -0.096643 0.016971
0.966330 -0.072615 -0.246846
0.938218 -0.197337 -0.284263
0.938230 -0.197325 -0.284231
0.974661 -0.222980 -0.017749
0.931547 -0.182710 -0.314384
0.974450 -0.223126 -0.025729
0.931558 -0.182709 -0.314353
0.974431 -0.223200 -0.025816
0.918451 -0.182279 -0.351030
0.884069 -0.160794 -0.438825
0.955509 -0.222579 -0.193550
0.955512 -0.222638 -0.193467
0.884074 -0.160791 -0.438817
0.884828 -0.176391 -0.431237
0.999744 -0.019579 -0.011370
0.989589 -0.013790 0.143257
0.989590 -0.013699 0.143260
0.991708 -0.013793 0.127767
0.989589 -0.013638 0.143277
0.988844 -0.013419 0.148347
0.991706 -0.013763 0.127792
0.991707 -0.013780 0.127778
0.981074 -0.040106 0.189433
0.972979 -0.016333 0.230315
0.991399 -0.014116 0.130113
0.991403 -0.014128 0.130083
0.991403 -0.014143 0.130078
0.997283 -0.062011 -0.039756
0.992333 -0.012579 0.122955
0.999794 -0.019384 0.006020
0.997284 -0.061999 -0.039755
0.999793 -0.019416 0.006004
0.997283 -0.062026 -0.039749
0.999793 -0.019437 0.006012
0.997325 -0.061902 -0.038877
0.997763 -0.036655 -0.055913
0.988296 -0.080689 -0.129459
0.998435 -0.020111 -0.052184
0.988293 -0.080700 -0.129477
0.946754 -0.211110 -0.243083
0.946757 -0.211118 -0.243066
0.977392 -0.088390 -0.192072
0.946757 -0.211098 -0.243083
0.984422 -0.073407 -0.159764
0.946756 -0.211092 -0.243090
0.984422 -0.073430 -0.159756
0.928704 -0.187530 -0.319908
0.965912 -0.122580 -0.228011
0.892939 -0.210343 -0.398016
0.918595 -0.051590 -0.391817
0.944608 -0.021094 -0.327521
0.944618 -0.021182 -0.327487
0.918975 -0.052607 -0.390791
0.944617 -0.021046 -0.327498
0.923465 0.089695 -0.373051
0.944610 -0.020998 -0.327521
0.933834 0.130229 -0.333159
0.944597 -0.020934 -0.327565
0.944583 -0.021005 -0.327600
0.949141 0.162943 -0.269410
0.949135 0.162957 -0.269420
0.944577 -0.021026 -0.327616
0.984109 0.039649 -0.173083
0.944580 -0.021027 -0.327608
0.944583 -0.021046 -0.327597
0.984113 0.039575 -0.173078
0.981258 -0.051872 -0.185587
0.984116 0.039555 -0.173062
0.981262 -0.051914 -0.185551
0.992336 -0.012615 0.122920
0.962668 -0.147001 -0.227290
0.925036 -0.183449 -0.332648
0.858229 -0.317412 -0.403352
0.880841 -0.301868 -0.364683
0.944603 -0.021206 -0.327531
0.952309 -0.089445 -0.291730
0.952302 -0.089441 -0.291755
0.952304 -0.089459 -0.291742
0.952315 -0.089468 -0.291704
0.904427 -0.344922 -0.251080
0.904416 -0.344912 -0.251133
0.904429 -0.344930 -0.251061
0.904405 -0.344972 -0.251091
0.904411 -0.344930 -0.251125
0.912687 -0.345227 -0.218680
0.902387 -0.347688 -0.254580
0.902405 -0.347682 -0.254524
0.902394 -0.347724 -0.254504
0.922518 -0.361555 -0.135046
0.929781 -0.344559 -0.129562
0.929768 -0.344586 -0.129586
0.941117 -0.315168 -0.122341
0.985529 -0.167113 -0.028381
0.985528 -0.167117 -0.028391
0.977951 -0.208824 -0.002148
0.991795 -0.117054 -0.051397
0.985543 -0.167043 -0.028320
0.985533 -0.167090 -0.028402
0.994460 -0.105116 -0.000386
0.994456 -0.105150 -0.000370
0.994455 -0.105166 -0.000405
0.992436 -0.113929 0.045721
0.994453 -0.105179 -0.000407
0.994453 -0.105177 -0.000409
0.994456 -0.105157 -0.000350
0.995049 -0.085712 -0.050316
0.986263 -0.120032 -0.113481
0.995626 -0.045201 -0.081762
0.989807 -0.056621 -0.130674
0.994778 -0.041358 -0.093305
0.994776 -0.041351 -0.093333
0.997458 -0.033740 -0.062759
0.990859 -0.050134 -0.125240
0.968606 -0.211836 -0.130107
0.962063 -0.251499 -0.105754
0.968603 -0.211834 -0.130130
0.962076 -0.251457 -0.105735
0.972470 -0.174331 -0.154629
0.968604 -0.211836 -0.130122
0.950574 -0.292248 -0.104884
0.949967 -0.294914 -0.102900
0.947668 -0.243059 -0.206995
0.947669 -0.243039 -0.207015
0.952188 -0.180864 -0.246223
0.947673 -0.243019 -0.207020
0.947676 -0.242995 -0.207035
0.935948 -0.316126 -0.155132
0.928813 -0.074640 -0.362953
0.928808 -0.074691 -0.362955
0.905143 -0.002456 -0.425101
0.943308 -0.147475 -0.297356
0.868121 0.112652 -0.483399
0.868101 0.112695 -0.483425
0.868107 0.112695 -0.483415
0.904484 0.047683 -0.423834
0.826109 0.174562 -0.535792
0.904507 0.047644 -0.423789
0.813357 0.168242 -0.556907
0.805579 0.188647 -0.561653
0.765435 0.211140 -0.607888
0.765424 0.211148 -0.607900
0.842011 0.166206 -0.513219
0.987508 -0.106805 -0.115847
0.993750 -0.055612 -0.096792
0.993747 -0.055666 -0.096785
0.988848 0.024470 -0.146907
0.911565 -0.080127 -0.403272
0.911553 -0.080116 -0.403303
0.911564 -0.080090 -0.403282
0.911545 -0.080110 -0.403322
0.911563 -0.080112 -0.403280
0.902592 -0.064066 -0.425703
0.900727 -0.063009 -0.429791
0.902586 -0.064059 -0.425717
0.902611 -0.064070 -0.425662
0.917647 -0.082238 -0.388793
0.916527 -0.081927 -0.391492
0.917647 -0.082235 -0.388796
0.917652 -0.082241 -0.388781
0.919841 -0.066315 -0.386646
0.919837 -0.066313 -0.386656
0.919845 -0.066308 -0.386638
0.934038 0.069512 -0.350343
0.934039 0.069522 -0.350340
0.928743 0.157975 -0.335381
0.928739 0.158008 -0.335378
0.928740 0.158012 -0.335373
0.913601 0.157080 -0.375046
0.913601 0.157105 -0.375035
0.916498 0.161175 -0.366133
0.941302 -0.129306 -0.311817
0.941303 -0.129294 -0.311821
0.941301 -0.129310 -0.311819
0.927427 0.110264 -0.357381
0.930315 0.099360 -0.353045
0.934121 0.005371 -0.356915
0.926238 0.005358 -0.376902
0.935676 -0.102449 -0.337660
0.930771 -0.295983 -0.214615
0.930772 -0.295986 -0.214607
0.928010 -0.191768 -0.319410
0.939574 -0.241478 -0.242672
0.895006 -0.264342 -0.359288
0.895006 -0.264344 -0.359287
0.888699 -0.337352 -0.310495
0.920970 -0.317722 -0.225536
0.888697 -0.337338 -0.310516
0.888694 -0.337380 -0.310481
0.888940 -0.340831 -0.305972
0.879349 -0.273010 -0.390142
0.898919 -0.304327 -0.315165
0.898929 -0.304320 -0.315146
0.913441 -0.283265 -0.292208
0.924049 -0.195390 -0.328567
0.924590 -0.196041 -0.326652
0.924037 -0.195403 -0.328593
0.924034 -0.195381 -0.328613
0.912061 -0.109071 -0.395283
0.912043 -0.109070 -0.395324
0.860889 -0.069253 -0.504058
0.862575 -0.071789 -0.500809
0.860867 -0.069244 -0.504097
0.860859 -0.069275 -0.504106
0.771153 0.032681 -0.635811
0.796847 -0.027067 -0.603574
0.728932 0.028239 -0.684003
0.771151 0.032698 -0.635812
0.735720 0.054860 -0.675060
0.735734 0.054861 -0.675045
0.735732 0.054873 -0.675046
0.731285 0.035850 -0.681130
0.731304 0.035854 -0.681109
0.765664 0.016339 -0.643033
0.765670 0.016345 -0.643026
0.781619 -0.008043 -0.623705
0.781618 -0.008058 -0.623706
0.861953 -0.048307 -0.504682
0.861970 -0.048296 -0.504654
0.911567 -0.080085 -0.403277
0.937508 -0.050885 -0.344224
0.911106 -0.080501 -0.404234
0.937487 -0.050919 -0.344275
0.843640 0.187999 -0.502920
0.843635 0.188003 -0.502926
0.843627 0.187969 -0.502952
0.843656 0.187993 -0.502894
0.843685 0.187955 -0.502860
0.842350 -0.147220 -0.518433
0.842355 -0.147223 -0.518424
0.842361 -0.147207 -0.518420
0.838326 -0.147725 -0.524773
0.838331 -0.147715 -0.524767
0.869406 -0.160657 -0.467251
0.869399 -0.160643 -0.467267
0.866968 -0.161834 -0.471357
0.870727 -0.195441 -0.451262
0.870319 -0.206434 -0.447134
0.877790 -0.200185 -0.435214
0.880971 -0.180098 -0.437556
0.883797 -0.179091 -0.432237
0.877699 -0.200253 -0.435366
0.883789 -0.179103 -0.432248
0.883795 -0.179103 -0.432236
0.866493 -0.207790 -0.453886
0.886125 -0.222592 -0.406491
0.887703 -0.222267 -0.403213
0.866579 -0.207747 -0.453742
0.881884 -0.226724 -0.413373
0.866575 -0.207751 -0.453748
0.897500 -0.220264 -0.382070
0.846957 -0.206630 -0.489865
0.897504 -0.220246 -0.382072
0.846978 -0.206582 -0.489849
0.947112 -0.134302 -0.291446
0.947120 -0.134299 -0.291425
0.831203 -0.133882 -0.539608
0.870707 -0.079216 -0.485380
0.910112 -0.173430 -0.376321
0.872121 -0.077018 -0.483191
0.925927 -0.061379 -0.372683
0.893845 0.032268 -0.447213
0.961417 0.035161 -0.272837
0.899136 0.032368 -0.436470
0.960029 0.034715 -0.277740
0.879772 0.102554 -0.464202
0.975437 0.094949 -0.198764
0.884252 0.106901 -0.454610
0.974835 0.096870 -0.200780
0.987991 0.060369 -0.142230
0.861926 0.138732 -0.487685
0.861920 0.138727 -0.487698
0.987996 0.060363 -0.142201
0.894244 0.127183 -0.429130
0.987996 0.060359 -0.142198
0.956694 0.114889 -0.267465
0.915746 0.148322 -0.373375
0.952451 0.070854 -0.296339
0.923387 0.067078 -0.377963
0.934573 0.108413 -0.338850
0.934784 0.107792 -0.338468
0.939896 0.095259 -0.327904
0.939898 0.095277 -0.327893
0.939896 0.095272 -0.327901
0.939904 0.095267 -0.327880
0.939894 0.095284 -0.327903
0.939632 0.096919 -0.328173
0.956740 0.036138 -0.288692
0.956742 0.036142 -0.288684
0.956749 0.036124 -0.288663
0.950906 0.033017 -0.307713
0.947449 0.043981 -0.316868
0.954445 0.020299 -0.297696
0.973103 -0.036389 -0.227477
0.973485 -0.036632 -0.225799
0.973489 -0.036668 -0.225776
0.967532 -0.008700 -0.252599
0.968385 -0.010808 -0.249225
0.968387 -0.010810 -0.249218
0.979326 -0.072326 -0.188916
0.983494 -0.045547 -0.175114
0.980946 -0.090261 -0.172039
0.986585 -0.075471 -0.144755
0.986597 -0.070979 -0.146932
0.989245 -0.046797 -0.138583
0.991318 -0.023306 -0.129407
0.989244 -0.046769 -0.138599
0.989001 0.017587 -0.146861
0.989001 0.017547 -0.146861
0.989007 0.019896 -0.146526
0.988996 0.017567 -0.146894
0.985974 0.019648 -0.165736
0.975639 0.052445 -0.213019
0.969582 0.070966 -0.234255
0.975635 0.052438 -0.213041
0.928791 -0.006251 -0.370551
0.928793 -0.006275 -0.370547
0.928786 -0.006268 -0.370562
0.926741 -0.006050 -0.375652
0.894499 -0.041970 -0.445096
0.895726 -0.034252 -0.443285
0.894474 -0.042014 -0.445142
0.894492 -0.041989 -0.445108
0.822677 -0.172202 -0.541802
0.822658 -0.172217 -0.541826
0.821024 -0.208948 -0.531282
0.821020 -0.208996 -0.531269
0.821025 -0.208966 -0.531273
0.821039 -0.208965 -0.531253
0.814347 -0.249304 -0.524106
0.774023 -0.212540 -0.596418
0.774046 -0.212546 -0.596387
0.773702 -0.213130 -0.596625
0.774033 -0.212542 -0.596405
0.774010 -0.212542 -0.596435
0.774024 -0.212543 -0.596417
0.762951 -0.209909 -0.611427
0.773050 -0.210110 -0.598538
0.782555 -0.210746 -0.585827
0.842365 -0.147197 -0.518416
0.870834 -0.181114 -0.456996
0.870834 -0.181108 -0.456999
0.814128 -0.184082 -0.550735
0.842358 -0.147197 -0.518427
0.958331 -0.136833 -0.250755
0.958328 -0.136829 -0.250771
0.971797 -0.025666 -0.234418
0.815323 0.245579 -0.524346
0.815317 0.245595 -0.524348
0.830926 0.144043 -0.537414
0.830906 0.144036 -0.537446
0.814519 0.244102 -0.526282
0.830894 0.144106 -0.537446
0.814510 0.244069 -0.526312
0.806086 0.249937 -0.536430
0.806062 0.249961 -0.536454
0.816318 0.237899 -0.526335
0.804805 0.248642 -0.538949
0.794502 0.168961 -0.583282
0.794485 0.168975 -0.583302
0.776649 0.183530 -0.602605
0.797439 0.235566 -0.555518
0.797441 0.235555 -0.555519
0.776167 0.187107 -0.602126
0.776182 0.187104 -0.602107
0.776645 0.183525 -0.602612
0.797487 0.234889 -0.555736
0.776628 0.183519 -0.602635
0.740932 0.169613 -0.649808
0.798238 0.149303 -0.583544
0.740930 0.169617 -0.649810
0.740955 0.169601 -0.649786
0.740931 0.169611 -0.649810
0.798296 0.149986 -0.583290
0.850563 0.042264 -0.524172
0.780624 0.085058 -0.619186
0.874804 -0.034149 -0.483272
0.780629 0.085060 -0.619179
0.896570 -0.072529 -0.436923
0.832135 0.003306 -0.554563
0.896995 -0.073704 -0.435852
0.832146 0.003302 -0.554547
0.922854 -0.127457 -0.363448
0.865223 -0.054282 -0.498440
0.912066 -0.119135 -0.392356
0.865207 -0.054277 -0.498468
0.872180 -0.079842 -0.482625
0.872192 -0.079840 -0.482605
0.916866 -0.133453 -0.376227
0.872186 -0.079833 -0.482615
0.916652 -0.132946 -0.376927
0.872193 -0.079824 -0.482606
0.872175 -0.079842 -0.482635
0.931968 -0.128041 -0.339176
0.875602 -0.075547 -0.477089
0.875580 -0.075540 -0.477131
0.931967 -0.129948 -0.338455
0.875591 -0.075544 -0.477109
0.931961 -0.129946 -0.338472
0.944621 -0.108909 -0.309564
0.882161 -0.089040 -0.462454
0.872184 0.038538 -0.487658
0.830892 0.144062 -0.537461
0.830889 0.144081 -0.537461
0.872185 0.038550 -0.487655
0.872216 0.038494 -0.487603
0.872201 0.038542 -0.487626
0.872190 0.038556 -0.487646
0.830092 0.145905 -0.538200
0.873252 0.035336 -0.485986
0.869441 0.023248 -0.493490
0.794519 0.168941 -0.583265
0.839582 0.080437 -0.537245
0.791794 0.171904 -0.586099
0.869419 0.023241 -0.493528
0.869409 0.023202 -0.493548
0.823855 0.075353 -0.561770
0.769138 0.133812 -0.624917
0.837445 0.055095 -0.543737
0.837434 0.055143 -0.543750
0.769879 0.133028 -0.624172
0.837416 0.055141 -0.543778
0.755732 0.104265 -0.646528
0.729589 0.135080 -0.670413
0.754163 0.103484 -0.648482
0.755739 0.104275 -0.646518
0.732550 0.134229 -0.667348
0.755755 0.104271 -0.646500
0.768084 0.089190 -0.634107
0.742497 0.135849 -0.655929
0.742507 0.135831 -0.655922
0.766891 0.089853 -0.635456
0.780586 0.085074 -0.619231
0.731860 0.136033 -0.667739
0.731863 0.136041 -0.667734
0.769679 0.118863 -0.627268
0.801539 0.034558 -0.596942
0.832106 0.003323 -0.554607
0.802792 0.029883 -0.595510
0.832112 0.003311 -0.554598
0.807330 0.050089 -0.587970
0.807334 0.050092 -0.587965
0.865179 -0.054265 -0.498518
0.823324 -0.038252 -0.566281
0.865190 -0.054282 -0.498498
0.822284 -0.037759 -0.567823
0.826821 -0.022591 -0.562012
0.826823 -0.022612 -0.562007
0.872169 -0.079840 -0.482646
0.837405 -0.068526 -0.542271
0.873760 -0.081689 -0.479448
0.837184 -0.069732 -0.542458
0.826519 -0.059940 -0.559709
0.826523 -0.059966 -0.559699
0.876293 -0.075422 -0.475839
0.833534 -0.070351 -0.547971
0.861531 -0.076903 -0.501847
0.861555 -0.076963 -0.501797
0.843697 -0.079655 -0.530876
0.869435 0.023220 -0.493501
0.894614 -0.038101 -0.445212
0.894608 -0.038084 -0.445226
0.885387 0.050825 -0.462067
0.852823 0.031304 -0.521262
0.837458 0.055126 -0.543714
0.755764 0.104269 -0.646489
0.755755 0.104274 -0.646499
0.821707 0.086665 -0.563282
0.821663 0.086783 -0.563328
0.809041 0.093084 -0.580334
0.809153 0.092995 -0.580192
0.769685 0.118871 -0.627260
0.786349 0.130653 -0.603808
0.786351 0.130665 -0.603804
0.770900 0.104380 -0.628345
0.785423 0.108628 -0.609353
0.807335 0.050093 -0.587963
0.807365 0.050089 -0.587922
0.784235 0.036396 -0.619396
0.819470 0.055510 -0.570428
0.826811 -0.022572 -0.562027
0.826839 -0.022564 -0.561987
0.808607 -0.030998 -0.587531
0.843364 -0.012800 -0.537191
0.826533 -0.059934 -0.559688
0.826529 -0.059932 -0.559695
0.825678 -0.060670 -0.560870
0.826537 -0.059933 -0.559683
0.835147 -0.070763 -0.545457
0.835142 -0.070772 -0.545463
0.852443 -0.076835 -0.517144
0.860399 -0.073934 -0.504230
0.926624 -0.026612 -0.375046
0.931228 -0.060978 -0.359300
0.926623 -0.026551 -0.375053
0.931358 -0.049167 -0.360769
0.931232 -0.061035 -0.359279
0.927403 -0.043479 -0.371528
0.929890 0.012839 -0.367614
0.939833 0.171331 -0.295568
0.939825 0.171356 -0.295578
0.940944 0.062898 -0.332667
0.937995 0.082819 -0.336611
0.940953 0.063017 -0.332620
0.938811 0.082919 -0.334301
0.939407 0.054914 -0.338376
0.927748 0.134010 -0.348316
0.927449 0.131581 -0.350036
0.918306 0.112994 -0.379403
0.928203 0.174896 -0.328406
0.918523 0.113824 -0.378629
0.918517 0.113856 -0.378633
0.933249 0.160225 -0.321519
0.930335 0.048439 -0.363497
0.885320 0.055587 -0.461647
0.871329 -0.033492 -0.489555
0.911612 0.113227 -0.395150
0.878001 -0.102546 -0.467544
0.877909 -0.102707 -0.467683
0.877916 -0.102738 -0.467662
0.887129 -0.084474 -0.453724
0.904997 -0.061612 -0.420934
0.905883 -0.112274 -0.408375
0.905250 -0.139765 -0.401234
0.900854 -0.233202 -0.366168
0.921954 -0.178319 -0.343807
0.900720 -0.233328 -0.366417
0.920826 -0.180030 -0.345931
0.924703 -0.175174 -0.337991
0.924700 -0.175157 -0.338009
0.913337 -0.226362 -0.338490
0.936456 -0.167433 -0.308246
0.913276 -0.226350 -0.338664
0.946754 -0.160808 -0.278923
0.913281 -0.226353 -0.338648
0.890494 -0.045209 -0.452743
0.882933 -0.072082 -0.463932
0.905880 -0.085004 -0.414916
0.890478 -0.045226 -0.452773
0.890474 -0.045233 -0.452781
0.890476 -0.045232 -0.452777
0.926622 -0.026545 -0.375057
0.887255 -0.054929 -0.457997
0.890472 -0.045201 -0.452787
0.926616 -0.026547 -0.375072
0.905203 0.006188 -0.424934
0.926625 -0.026536 -0.375049
0.926504 -0.009331 -0.376168
0.902886 0.012731 -0.429691
0.914364 0.066407 -0.399411
0.937987 0.082821 -0.336631
0.937986 0.082813 -0.336636
0.914360 0.066414 -0.399419
0.937988 0.082796 -0.336637
0.908337 0.069858 -0.412363
0.937983 0.082813 -0.336644
0.907734 0.074093 -0.412952
0.927460 0.131548 -0.350019
0.927457 0.131564 -0.350021
0.907444 0.073916 -0.413621
0.907729 0.074090 -0.412963
0.927450 0.131565 -0.350038
0.907727 0.074083 -0.412969
0.879893 0.033095 -0.474018
0.910502 0.108966 -0.398889
0.879976 0.020371 -0.474581
0.910501 0.108938 -0.398899
0.879983 0.020381 -0.474568
0.879973 0.020375 -0.474587
0.880916 0.020088 -0.472846
0.861421 0.005411 -0.507863
0.865068 -0.008854 -0.501577
0.880924 0.020092 -0.472832
0.858125 -0.027077 -0.512727
0.865062 -0.008856 -0.501587
0.904983 -0.061583 -0.420967
0.891660 -0.035033 -0.451349
0.891657 -0.035038 -0.451354
0.904985 -0.061593 -0.420962
0.881261 -0.061360 -0.468629
0.896767 -0.024178 -0.441842
0.905880 -0.112250 -0.408389
0.931318 -0.051912 -0.360487
0.931305 -0.051883 -0.360526
0.905836 -0.087063 -0.414585
0.932488 -0.051411 -0.357523
0.905896 -0.112228 -0.408358
0.921971 -0.178295 -0.343775
0.956956 -0.099309 -0.272715
0.921968 -0.178314 -0.343771
0.957297 -0.097913 -0.272021
0.996492 -0.024887 0.079901
0.986422 0.019057 -0.163122
0.986422 0.019165 -0.163110
0.957016 -0.099257 -0.272523
0.956981 -0.099259 -0.272645
0.988252 0.107164 -0.108967
0.977352 -0.053945 -0.204631
0.991483 -0.001836 -0.130226
0.970675 -0.093503 -0.221466
0.986731 -0.114399 -0.115216
0.959464 -0.117924 -0.255976
0.987649 -0.076667 -0.136642
0.959458 -0.117899 -0.256006
0.986721 -0.114364 -0.115333
0.996297 -0.021846 -0.083159
0.996298 -0.021778 -0.083161
0.996299 -0.021775 -0.083153
0.996630 -0.025653 -0.077913
0.996630 -0.025663 -0.077907
0.996227 -0.027257 -0.082395
0.996227 -0.027260 -0.082398
0.991785 -0.089007 -0.091870
0.994797 -0.071792 -0.072287
0.991783 -0.089012 -0.091886
0.985030 -0.116128 -0.127395
0.972165 -0.130830 -0.194366
0.950836 -0.135467 -0.278496
0.950664 -0.135101 -0.279258
0.950663 -0.135087 -0.279270
0.968525 -0.202869 -0.144233
0.927877 -0.139836 -0.345673
0.968925 -0.164705 -0.184546
0.968915 -0.164744 -0.184563
0.947806 -0.104941 -0.301084
0.975396 -0.113890 -0.188765
0.961249 -0.091689 -0.259986
0.961235 -0.091697 -0.260036
0.982835 -0.077478 -0.167431
0.982828 -0.077477 -0.167469
0.982843 -0.077448 -0.167399
0.986062 -0.038259 -0.161921
0.968766 -0.046565 -0.243566
0.986070 -0.038263 -0.161868
0.975316 -0.089457 -0.201882
0.965124 -0.111923 -0.236661
0.904344 -0.031484 -0.425641
0.985123 -0.069295 -0.157260
0.904337 -0.031474 -0.425658
0.975721 0.017356 -0.218327
0.985755 -0.144580 -0.085925
0.987834 0.090789 -0.126260
0.987829 0.090767 -0.126312
0.993437 0.111203 0.026772
0.985725 -0.144729 -0.086021
0.985733 -0.144693 -0.085989
0.994918 -0.054032 -0.084963
0.987993 -0.130263 -0.083078
0.973026 -0.200520 -0.114068
0.973029 -0.200507 -0.114070
0.961650 -0.249884 -0.113084
0.961647 -0.249892 -0.113087
0.985651 -0.145179 -0.086114
0.988885 -0.121339 -0.085928
0.985737 -0.144667 -0.085991
0.995492 0.069989 0.064014
0.995387 0.070993 0.064528
0.998116 -0.027363 -0.054924
0.995417 -0.017106 0.094084
0.998692 -0.024556 -0.044856
0.995417 -0.017062 0.094099
0.999218 -0.013180 -0.037291
0.997102 -0.019766 0.073460
0.998038 -0.018709 -0.059757
0.997104 -0.019778 0.073432
0.999039 -0.022189 -0.037790
0.998538 -0.028328 0.046046
0.998286 -0.025062 -0.052891
0.998537 -0.028345 0.046057
0.996862 -0.060205 -0.051390
0.998233 -0.053039 0.026773
0.988405 -0.143182 -0.050539
0.996502 -0.068382 0.048047
0.982231 -0.186415 0.021699
0.973429 -0.132988 0.186414
0.981377 -0.190936 0.021051
0.973425 -0.132996 0.186427
0.980940 -0.124368 0.149298
0.980937 -0.124347 0.149330
0.978700 -0.194277 0.066360
0.959586 -0.096784 0.264249
0.978371 -0.197024 0.063030
0.959584 -0.096769 0.264260
0.986895 -0.151409 0.055794
0.937321 -0.026004 0.347494
0.986922 -0.151932 0.053865
0.937314 -0.025992 0.347516
0.984527 -0.045967 0.169094
0.926655 0.005555 0.375872
0.984272 -0.045381 0.170729
0.926648 0.005559 0.375888
0.978622 -0.013979 0.205191
0.930401 0.004807 0.366512
0.978461 -0.014147 0.205944
0.932656 0.003613 0.360750
0.963511 -0.024037 0.266588
0.929447 -0.038730 0.366917
0.989146 -0.041349 0.140996
0.929452 -0.038749 0.366904
0.968077 -0.112392 0.224041
0.933620 -0.163214 0.318929
0.970854 -0.116883 0.209237
0.944651 -0.166049 0.282951
0.973379 -0.133216 0.186515
0.944335 -0.145175 0.295221
0.962610 -0.154030 0.222839
0.945892 -0.159954 0.282316
0.993428 -0.025472 0.111591
0.950292 -0.130243 0.282811
0.993425 -0.025460 0.111615
0.947781 -0.043994 0.315872
0.994439 -0.020741 0.103252
0.949480 0.062806 0.307477
0.941085 -0.141975 0.306924
0.941088 -0.141971 0.306918
0.941092 -0.141958 0.306910
0.941083 -0.141981 0.306926
0.941085 -0.141984 0.306920
0.941088 -0.141958 0.306923
0.941091 -0.141958 0.306914
0.925602 -0.156272 0.344731
0.924816 -0.156941 0.346534
0.941090 -0.141947 0.306922
0.941093 -0.141945 0.306912
0.941093 -0.141915 0.306926
0.941098 -0.141920 0.306908
0.935629 -0.059460 0.347940
0.935170 -0.055467 0.349830
0.966851 0.006331 0.255261
0.966854 0.006328 0.255251
0.966854 0.006337 0.255251
0.966856 0.006323 0.255245
0.947399 0.020362 0.319407
0.947401 0.020365 0.319400
0.966858 0.006340 0.255235
0.966872 0.006312 0.255183
0.966858 0.006331 0.255234
0.966874 0.006332 0.255177
0.961882 0.082890 0.260601
0.962128 0.080487 0.260444
0.987704 0.050387 0.147990
0.986770 0.053235 0.153139
0.986774 0.053219 0.153118
0.987697 0.050430 0.148026
0.987703 0.050409 0.147994
0.981435 -0.157134 -0.109977
0.981434 -0.157147 -0.109967
0.981435 -0.157135 -0.109973
0.981434 -0.157136 -0.109976
0.981626 -0.155589 -0.110462
0.981433 -0.157160 -0.109955
0.968243 -0.228991 -0.100344
0.966950 -0.233988 -0.101281
0.965088 -0.241116 -0.102316
0.966946 -0.234008 -0.101267
0.955775 -0.272981 -0.109429
0.958045 -0.265949 -0.106871
0.959770 -0.260145 -0.105674
0.958054 -0.265917 -0.106865
0.958058 -0.265901 -0.106872
0.990594 -0.070242 -0.117428
0.990604 -0.070194 -0.117371
0.990596 -0.070220 -0.117428
0.987948 -0.070805 -0.137646
0.987950 -0.070805 -0.137631
0.987947 -0.070822 -0.137641
0.987856 -0.070827 -0.138293
0.987852 -0.070836 -0.138318
0.984317 -0.091988 -0.150529
0.984318 -0.091986 -0.150523
0.984088 -0.092683 -0.151593
0.983658 -0.127118 -0.127507
0.983873 -0.124087 -0.128823
0.976688 -0.194923 -0.089920
0.976167 -0.199172 -0.086189
0.976165 -0.199180 -0.086190
0.975580 -0.203835 -0.081821
0.972741 -0.219937 -0.073501
0.963485 0.000258 0.267763
0.996475 -0.024708 0.080169
0.940443 0.022340 0.339218
0.940426 0.022341 0.339263
0.940407 0.022291 0.339321
0.999545 0.029701 0.005328
0.950371 0.007021 0.311041
0.999546 0.029663 0.005339
0.996028 0.088542 -0.009392
0.937030 0.010190 0.349100
0.937015 0.010138 0.349142
0.997063 -0.024234 0.072644
0.997067 -0.024243 0.072587
0.997063 -0.024238 0.072654
0.997069 -0.024249 0.072556
0.997061 -0.024184 0.072700
0.997062 -0.024214 0.072673
0.997063 -0.024207 0.072654
0.997066 -0.024199 0.072624
0.998401 -0.048971 -0.028230
0.993563 -0.071917 -0.087529
0.993668 -0.071561 -0.086614
0.993670 -0.071521 -0.086633
0.993676 -0.071529 -0.086552
0.993400 0.082532 0.079658
0.993399 0.082546 0.079658
0.993399 0.082539 0.079657
0.993545 0.083878 -0.076376
0.993540 0.083884 -0.076434
0.993540 0.083867 -0.076451
0.993541 0.083873 -0.076432
0.993043 0.083885 -0.082634
0.997242 0.037097 -0.064285
0.996082 -0.015093 -0.087142
0.997242 0.037088 -0.064288
0.993738 0.110834 -0.014147
0.993739 0.110828 -0.014120
0.993030 0.117287 -0.011646
0.994263 0.105178 -0.019440
0.996357 0.085275 -0.000270
0.995655 0.093000 0.004603
0.996357 0.085283 -0.000269
0.997024 0.076766 -0.007074
0.999463 0.030033 -0.013125
0.999381 0.032397 -0.013740
0.999464 0.029998 -0.013134
0.999465 0.029980 -0.013104
0.999245 -0.024944 -0.029793
0.998460 -0.049781 -0.024477
0.998460 -0.049746 -0.024541
0.996946 -0.075402 -0.020305
0.992099 -0.109584 -0.061079
0.991692 -0.120899 -0.043944
0.987016 -0.149114 -0.059698
0.990314 -0.127492 -0.054982
0.980155 -0.183610 -0.074718
0.983567 -0.166532 -0.069742
0.980158 -0.183597 -0.074718
0.976084 -0.201833 -0.080766
0.985706 -0.168346 0.006555
0.985706 -0.168345 0.006553
0.985707 -0.168344 0.006564
0.985702 -0.168373 0.006564
0.967486 -0.212929 -0.136502
0.967376 -0.214037 -0.135546
0.967486 -0.212947 -0.136472
0.991804 -0.123309 -0.033466
0.991805 -0.123303 -0.033446
0.991805 -0.123307 -0.033430
0.995457 -0.092874 0.020955
0.993485 -0.107650 0.037392
0.993487 -0.107632 0.037392
0.996505 -0.062516 0.055408
0.995073 -0.071818 0.068345
0.991708 -0.013839 0.127768
0.991706 -0.013797 0.127786
0.991792 -0.013770 0.127116
0.991436 -0.014142 0.129823
0.991399 -0.014143 0.130108
0.991394 -0.014158 0.130145
0.976326 0.021793 0.215203
0.976325 0.021814 0.215204
0.978068 0.020420 0.207284
0.973730 0.024551 0.226379
0.976326 0.021813 0.215203
0.975439 0.044809 0.215663
0.985096 0.049864 0.164620
0.988915 0.054188 0.138241
0.985097 0.049879 0.164608
0.997284 0.061258 0.040880
0.997284 0.061264 0.040881
0.997284 0.061259 0.040880
0.997283 0.061272 0.040892
0.997285 0.061275 0.040852
0.996993 0.063997 0.043701
0.996992 0.063997 0.043719
0.998932 0.043304 -0.016128
0.998932 0.043274 -0.016185
0.998851 0.045156 -0.016040
0.998931 0.043283 -0.016208
0.997654 -0.032033 -0.060504
0.997255 -0.035176 -0.065148
0.997257 -0.035207 -0.065100
0.997254 -0.035205 -0.065155
0.987545 -0.109432 -0.113044
0.987331 -0.109036 -0.115275
0.987321 -0.109075 -0.115322
0.987328 -0.109055 -0.115282
0.987333 -0.109040 -0.115257
0.987310 -0.109078 -0.115413
0.970534 -0.205585 -0.125694
0.951121 -0.251966 -0.178555
0.951146 -0.251949 -0.178444
0.947720 -0.271846 -0.167113
0.930439 -0.277028 -0.239872
0.929196 -0.297355 -0.219487
0.929817 -0.295464 -0.219413
0.913907 -0.299061 -0.274474
0.913883 -0.299083 -0.274532
0.914937 -0.299210 -0.270857
0.913901 -0.299065 -0.274492
0.900215 -0.262444 -0.347470
0.900227 -0.262428 -0.347452
0.900233 -0.262418 -0.347443
0.892155 -0.300670 -0.337130
0.900848 -0.269198 -0.340595
0.928448 -0.089073 -0.360626
0.928432 -0.089110 -0.360657
0.646491 0.282777 -0.708581
0.645164 0.285376 -0.708748
0.645143 0.285404 -0.708756
0.646479 0.282777 -0.708591
0.646475 0.282789 -0.708591
0.646451 0.282807 -0.708605
0.646481 0.282785 -0.708586
0.681482 0.182607 -0.708687
0.681863 0.180485 -0.708864
0.681895 0.180424 -0.708848
0.681490 0.182575 -0.708687
0.681515 0.182597 -0.708658
0.678649 0.218699 -0.701146
0.672582 0.234132 -0.702009
0.672584 0.234142 -0.702003
0.690444 0.187496 -0.698665
0.678701 0.218659 -0.701108
0.694771 0.245622 -0.675990
0.694814 0.245596 -0.675955
0.694779 0.245636 -0.675977
0.689523 0.248558 -0.680277
0.782530 -0.001067 -0.622612
0.776487 -0.010400 -0.630047
0.782569 -0.001108 -0.622563
0.761826 0.084318 -0.642271
0.761802 0.084341 -0.642296
0.766267 0.075620 -0.638057
0.766277 0.075631 -0.638043
0.766286 0.075631 -0.638033
0.766294 0.075660 -0.638019
0.844939 -0.159495 -0.510529
0.833686 -0.120020 -0.539039
0.844954 -0.159426 -0.510525
0.854953 -0.206178 -0.475969
0.844951 -0.159446 -0.510525
0.844970 -0.159443 -0.510493
0.865568 -0.200629 -0.458846
0.898846 -0.172187 -0.403023
0.898839 -0.172180 -0.403042
0.927039 -0.143726 -0.346327
0.898838 -0.172190 -0.403039
0.943036 -0.129192 -0.306582
0.943011 -0.129200 -0.306654
0.943030 -0.129178 -0.306608
0.943787 -0.128584 -0.304519
0.943031 -0.129160 -0.306610
0.950265 -0.102412 -0.294122
0.950346 -0.103319 -0.293545
0.952295 -0.089434 -0.291781
0.952299 -0.089428 -0.291768
0.952301 -0.089430 -0.291763
0.952305 -0.089420 -0.291753
0.952311 -0.089422 -0.291732
0.952307 -0.089436 -0.291740
0.952308 -0.089439 -0.291735
0.953272 -0.090014 -0.288392
0.953265 -0.089999 -0.288419
0.953258 -0.090026 -0.288434
0.907102 -0.369900 -0.200848
0.932597 -0.187967 -0.308110
0.907166 -0.369835 -0.200679
0.932680 -0.187945 -0.307870
0.940337 -0.305179 -0.150438
0.756564 0.118519 -0.643090
0.751015 0.130158 -0.647330
0.928266 -0.125672 -0.350040
0.859512 -0.219723 -0.461478
0.859516 -0.219734 -0.461465
0.859504 -0.219741 -0.461483
0.859520 -0.219700 -0.461472
0.858578 -0.220514 -0.462836
0.859521 -0.219772 -0.461436
0.859528 -0.219745 -0.461437
0.878295 -0.268309 -0.395737
0.878284 -0.268298 -0.395770
0.881968 -0.312152 -0.353120
0.871708 -0.227280 -0.434129
0.942848 -0.257784 -0.211154
0.927619 -0.110745 -0.356732
0.937317 -0.160262 -0.309439
0.937358 -0.160268 -0.309311
0.937333 -0.160268 -0.309387
0.937320 -0.160274 -0.309423
0.984191 -0.127560 -0.122868
0.961049 -0.071900 -0.266862
0.926986 -0.084335 -0.365492
0.962422 -0.095556 -0.254192
0.962392 -0.095579 -0.254296
0.962369 -0.095593 -0.254376
0.976627 -0.103047 -0.188628
0.961048 -0.118062 -0.249898
0.976591 -0.103068 -0.188804
0.989777 -0.108684 -0.092351
0.972468 -0.082400 -0.217983
0.976581 -0.103112 -0.188831
0.936172 -0.071817 -0.344129
0.935591 -0.093682 -0.340430
0.936151 -0.071843 -0.344180
0.936174 -0.071784 -0.344129
0.935189 -0.049067 -0.350732
0.958937 0.005422 -0.283569
0.958931 0.005448 -0.283589
0.958954 0.005434 -0.283511
0.958876 0.004140 -0.283795
0.981056 0.057443 -0.185010
0.981040 0.057464 -0.185090
0.987497 -0.106831 -0.115917
0.989666 -0.097376 -0.105261
0.988417 -0.103136 -0.111332
0.988422 -0.103098 -0.111320
0.969047 -0.229879 -0.090020
0.958908 -0.242537 -0.147213
0.925907 -0.342099 -0.160204
0.925905 -0.342096 -0.160218
0.925894 -0.342130 -0.160212
0.925600 -0.343959 -0.157975
0.922738 -0.354876 -0.150391
0.922738 -0.354872 -0.150402
0.929953 -0.343825 -0.130275
0.924478 -0.349925 -0.151306
0.924478 -0.349919 -0.151316
0.919485 -0.353942 -0.171093
0.924476 -0.349921 -0.151326
0.945940 -0.248843 -0.208026
0.945937 -0.248849 -0.208032
0.945935 -0.248857 -0.208032
0.945940 -0.248844 -0.208025
0.935597 -0.301044 -0.184474
0.964702 -0.107955 -0.240201
0.952140 -0.112942 -0.284031
0.857845 -0.154074 -0.490269
0.857833 -0.154080 -0.490287
0.848859 -0.167389 -0.501417
0.873430 -0.148137 -0.463870
0.873438 -0.148135 -0.463856
0.870409 -0.071284 -0.487142
0.941211 -0.120244 -0.315696
0.903743 -0.100435 -0.416126
0.906518 -0.099939 -0.410168
0.955227 -0.088237 -0.282410
0.955223 -0.088206 -0.282432
0.959954 0.057798 -0.274132
0.959960 0.057806 -0.274107
0.930771 -0.296006 -0.214584
0.917133 -0.350521 -0.189743
0.917127 -0.350535 -0.189745
0.888947 -0.340825 -0.305960
0.915877 -0.353620 -0.190058
0.935594 -0.301051 -0.184477
0.935200 -0.300150 -0.187913
0.949512 -0.239634 -0.202489
0.968266 -0.112219 -0.223312
0.924047 -0.195370 -0.328585
0.968832 -0.119355 -0.217067
0.959124 0.020920 -0.282213
0.912071 -0.109060 -0.395262
0.958619 0.018886 -0.284066
0.912065 -0.109059 -0.395277
0.860904 -0.069232 -0.504036
0.901638 0.085675 -0.423920
0.860894 -0.069232 -0.504052
0.846658 0.080402 -0.526028
0.771181 0.032705 -0.635775
0.869001 0.129717 -0.477505
0.781296 0.097369 -0.616519
0.869013 0.129690 -0.477490
0.915946 0.006228 -0.401254
0.735762 0.054868 -0.675014
0.776658 0.056595 -0.627375
0.915965 0.006256 -0.401209
0.740505 0.046014 -0.670473
0.859189 -0.005339 -0.511630
0.859215 -0.005389 -0.511586
0.855172 -0.006128 -0.518308
0.740504 0.045999 -0.670475
0.731312 0.035851 -0.681100
0.770147 0.036120 -0.636843
0.854837 -0.053752 -0.516104
0.775813 0.003062 -0.630955
0.852047 -0.052478 -0.520828
0.795922 -0.007998 -0.605347
0.809620 -0.062679 -0.583598
0.765697 0.016337 -0.642994
0.803644 -0.062629 -0.591806
0.900949 -0.077255 -0.426992
0.900948 -0.077289 -0.426988
0.781637 -0.008066 -0.623681
0.861971 -0.048353 -0.504646
0.861967 -0.048319 -0.504656
0.861980 -0.048333 -0.504633
