0.996117 -0.070828 -0.052292
0.996890 -0.063483 -0.046694
0.998168 -0.049271 -0.035128
0.997282 -0.058759 -0.044444
0.997787 -0.052333 -0.041016
0.998516 -0.043984 -0.032117
0.998420 -0.045441 -0.033046
0.998314 -0.046524 -0.034714
0.998434 -0.045183 -0.032976
0.998507 -0.044409 -0.031797
0.998431 -0.046237 -0.031576
0.998474 -0.045710 -0.030987
0.998540 -0.046476 -0.027513
0.998359 -0.048350 -0.030690
0.998327 -0.049316 -0.030177
0.998586 -0.045081 -0.028177
0.998370 -0.047711 -0.031324
0.998989 -0.039791 -0.020900
0.999059 -0.036136 -0.023980
0.998642 -0.042073 -0.030728
0.999265 -0.034136 -0.017470
0.999022 -0.033581 -0.028760
0.999438 -0.025556 -0.021673
0.999415 -0.029623 -0.017106
0.999518 -0.025755 -0.017349
0.999353 -0.025007 -0.025838
0.999585 -0.022532 -0.017943
0.999653 -0.017165 -0.019996
0.999700 -0.016693 -0.017920
0.999860 -0.009194 -0.014010
0.999905 -0.006803 -0.011990
0.999927 -0.005729 -0.010632
0.999889 -0.007055 -0.013147
0.999834 -0.008543 -0.016069
0.999792 -0.009601 -0.017966
0.990164 -0.129485 -0.053006
0.989329 -0.133635 -0.058045
0.988674 -0.139795 -0.054593
0.986496 -0.149564 -0.066759
0.985254 -0.156621 -0.068886
0.990265 -0.131589 -0.045384
0.986812 -0.150189 -0.060381
0.989810 -0.135090 -0.045010
0.988674 -0.138105 -0.058736
0.991540 -0.112575 -0.064620
0.992171 -0.117923 -0.041115
0.995523 -0.076490 -0.055522
0.995425 -0.087050 -0.039379
0.997497 -0.052875 -0.046938
0.997881 -0.054445 -0.035634
0.998349 -0.041188 -0.040033
0.998573 -0.040005 -0.035386
0.998620 -0.037252 -0.037025
0.999106 -0.030359 -0.029422
0.999238 -0.027050 -0.028142
0.999414 -0.023834 -0.024552
0.999470 -0.021024 -0.024845
0.999555 -0.020159 -0.022004
0.999644 -0.014111 -0.022649
0.999679 -0.016043 -0.019605
0.999730 -0.010433 -0.020784
0.999763 -0.012769 -0.017624
0.999752 -0.009574 -0.020118
0.999795 -0.010195 -0.017491
0.999768 -0.009541 -0.019303
0.999810 -0.009205 -0.017169
0.999819 -0.009796 -0.016329
0.999863 -0.008727 -0.014040
0.999876 -0.009185 -0.012786
0.999893 -0.008411 -0.011964
0.999899 -0.008453 -0.011444
0.999896 -0.008429 -0.011682
0.999884 -0.007007 -0.013533
0.999835 -0.009000 -0.015770
0.999803 -0.006005 -0.018910
0.999770 -0.007825 -0.019966
0.999725 -0.006699 -0.022454
0.999664 -0.008032 -0.024629
0.999745 -0.008016 -0.021123
0.999616 -0.008799 -0.026292
0.999780 -0.009756 -0.018570
0.999670 -0.011368 -0.023018
0.999715 -0.014099 -0.019263
0.999449 -0.019282 -0.027021
0.999537 -0.020546 -0.022450
0.999066 -0.028157 -0.032790
0.999170 -0.027590 -0.029982
0.998871 -0.032100 -0.035028
0.998935 -0.030805 -0.034347
0.998844 -0.032545 -0.035387
0.998854 -0.031351 -0.036159
0.998695 -0.034099 -0.038012
0.998584 -0.034885 -0.040161
0.998415 -0.037646 -0.041848
0.998278 -0.039491 -0.043385
0.998108 -0.042152 -0.044764
0.997697 -0.048118 -0.047813
0.999821 -0.009197 -0.016541
0.999837 -0.008584 -0.015881
0.999863 -0.008564 -0.014199
0.999785 -0.010017 -0.018183
0.999802 -0.010113 -0.017134
0.999809 -0.012982 -0.014609
0.999742 -0.013953 -0.017928
0.999659 -0.019998 -0.016762
0.999575 -0.019475 -0.021703
0.999519 -0.024382 -0.019189
0.999330 -0.022806 -0.028636
0.999286 -0.028623 -0.024679
0.999031 -0.026918 -0.034807
0.998936 -0.035273 -0.029726
0.998885 -0.027790 -0.038163
0.998859 -0.032738 -0.034783
0.997463 -0.068935 -0.017775
0.996766 -0.078338 -0.017883
0.997434 -0.070048 -0.014763
0.996113 -0.084737 -0.024058
0.997050 -0.074649 -0.017880
0.997374 -0.071558 -0.011183
0.997626 -0.065601 -0.020963
0.997955 -0.063003 -0.010774
0.998333 -0.054468 -0.019076
0.998778 -0.048586 -0.009079
0.999138 -0.037934 -0.016855
0.999283 -0.036461 -0.010204
0.999578 -0.024291 -0.015942
0.999600 -0.025721 -0.011759
0.999801 -0.015760 -0.012191
0.999796 -0.017400 -0.010208
0.999845 -0.014003 -0.010715
0.999801 -0.017317 -0.009916
0.999832 -0.015031 -0.010515
0.999789 -0.018132 -0.009702
0.999850 -0.013681 -0.010651
0.999826 -0.016469 -0.008709
0.999831 -0.012284 -0.013661
0.999865 -0.013513 -0.009393
0.999797 -0.012068 -0.016148
0.999850 -0.012129 -0.012338
0.999753 -0.013767 -0.017458
0.999820 -0.013211 -0.013646
0.999631 -0.019549 -0.018864
0.999676 -0.020647 -0.014870
0.999452 -0.025681 -0.020873
0.999361 -0.029513 -0.020167
0.999166 -0.032438 -0.024818
0.998922 -0.039162 -0.024936
0.998913 -0.036394 -0.029141
0.998792 -0.038710 -0.030263
0.999055 -0.031039 -0.030412
0.999005 -0.034148 -0.028686
0.999264 -0.023769 -0.030120
0.999300 -0.026068 -0.026828
0.999290 -0.021217 -0.031139
0.999439 -0.021128 -0.026005
0.999277 -0.023329 -0.030008
0.999392 -0.022198 -0.026885
0.999244 -0.026358 -0.028572
0.999150 -0.027833 -0.030416
0.999136 -0.030174 -0.028573
0.998608 -0.036069 -0.038491
0.998807 -0.035069 -0.033994
0.998301 -0.039020 -0.043280
0.998879 -0.030908 -0.035849
0.998288 -0.036853 -0.045421
0.999025 -0.025053 -0.036341
0.998682 -0.030030 -0.041615
0.998963 -0.025550 -0.037678
0.998719 -0.030684 -0.040244
0.998548 -0.035499 -0.040513
0.998410 -0.037930 -0.041702
0.996070 -0.073579 -0.049311
0.997126 -0.060406 -0.045731
0.996000 -0.074723 -0.048998
0.998026 -0.046063 -0.042689
0.997545 -0.054749 -0.043665
0.995126 -0.086904 -0.046606
0.998319 -0.055770 -0.015755
0.997778 -0.064790 -0.015540
0.998170 -0.058727 -0.014417
0.998585 -0.050662 -0.016194
0.997839 -0.064555 -0.012266
0.998147 -0.060226 -0.008694
0.998441 -0.055148 -0.008653
0.998727 -0.049951 -0.006962
0.999243 -0.037664 -0.009758
0.999694 -0.022278 -0.010780
0.999815 -0.016949 -0.009115
0.999824 -0.016940 -0.008078
0.999805 -0.018160 -0.007774
0.999855 -0.016259 -0.004983
0.999882 -0.014719 -0.004284
0.999872 -0.014636 -0.006406
0.999820 -0.016276 -0.009704
0.999622 -0.025738 -0.009700
0.999241 -0.036219 -0.014355
0.998920 -0.042646 -0.018459
0.998903 -0.039982 -0.024371
0.999403 -0.030286 -0.016622
0.999592 -0.022102 -0.018066
0.999690 -0.019757 -0.015124
0.999431 -0.023883 -0.023829
0.999005 -0.031293 -0.031769
0.998317 -0.039218 -0.042716
0.998075 -0.041359 -0.046220
0.998054 -0.042443 -0.045692
0.998264 -0.037255 -0.045622
0.998568 -0.032203 -0.042713
0.998178 -0.042213 -0.043114
0.998524 -0.038670 -0.038132
0.996948 -0.069080 -0.036355
0.995234 -0.091911 -0.032584
0.998650 -0.047681 -0.020614
0.998910 -0.040531 -0.023164
0.998582 -0.047840 -0.023373
0.998394 -0.050016 -0.026602
0.998258 -0.052509 -0.026885
0.998215 -0.052167 -0.029079
0.998439 -0.049063 -0.026682
0.998414 -0.048642 -0.028354
0.998602 -0.044153 -0.029052
0.998612 -0.045810 -0.026001
0.998443 -0.049031 -0.026586
0.998102 -0.055825 -0.026001
0.998213 -0.053965 -0.025660
0.997235 -0.072650 -0.015639
0.997848 -0.062818 -0.018789
0.998108 -0.050169 -0.035551
0.997746 -0.062318 -0.024886
0.997297 -0.068941 -0.025399
0.996686 -0.080780 -0.009573
0.994298 -0.106411 0.006873
0.996171 -0.087394 -0.002286
0.993284 -0.113508 0.022425
0.995214 -0.097379 0.008180
0.993453 -0.108112 0.036920
0.994884 -0.095686 0.032399
0.994044 -0.094396 0.054467
0.995271 -0.085710 0.045711
0.994979 -0.082973 0.055957
0.996488 -0.073378 0.040341
0.996193 -0.067974 0.054583
0.997200 -0.059652 0.045104
0.997110 -0.052527 0.054881
0.998125 -0.045407 0.041056
0.998815 -0.032966 0.035794
0.997540 -0.035435 0.060487
0.997637 -0.027394 0.063015
0.996711 -0.027361 0.076280
0.999212 -0.025103 0.030753
0.997550 -0.021956 0.066429
0.998332 -0.019669 0.054282
0.998732 -0.025465 0.043436
0.999467 -0.027130 0.018130
0.999354 -0.034791 0.008958
0.998893 -0.033274 0.033261
0.998409 -0.026746 0.049639
0.999187 -0.039506 0.007988
0.999271 -0.032306 0.020362
0.999272 -0.036531 0.010967
0.998703 -0.031287 0.040160
0.998434 -0.026620 0.049195
0.998245 -0.027538 0.052436
0.998939 -0.025388 0.038410
0.998294 -0.025077 0.052722
0.997921 -0.023931 0.059837
0.999215 -0.035620 -0.017345
0.998904 -0.040312 -0.023785
0.998690 -0.043601 -0.026788
0.998800 -0.043772 -0.021977
0.998632 -0.042701 -0.030186
0.998282 -0.045151 -0.037351
0.998080 -0.046479 -0.040942
0.997772 -0.046062 -0.048271
0.998007 -0.046572 -0.042581
0.997945 -0.043445 -0.047106
0.998632 -0.037573 -0.036356
0.998793 -0.032748 -0.036600
0.999426 -0.022915 -0.024954
0.999432 -0.021702 -0.025791
0.999758 -0.013238 -0.017572
0.999676 -0.015014 -0.020574
0.999821 -0.010600 -0.015667
0.999786 -0.009965 -0.018146
0.999833 -0.011672 -0.014097
0.999790 -0.009920 -0.017940
0.999825 -0.013564 -0.012869
0.999789 -0.011688 -0.016880
0.999850 -0.014449 -0.009574
0.999815 -0.013152 -0.014019
0.999853 -0.014811 -0.008678
0.999847 -0.011281 -0.013357
0.999829 -0.016862 -0.007652
0.999870 -0.010520 -0.012252
0.999670 -0.025389 -0.003796
0.999846 -0.014103 -0.010406
0.999567 -0.029330 0.002158
0.999793 -0.019926 -0.004149
0.999472 -0.031980 0.005728
0.999672 -0.025029 0.005337
0.999631 -0.025783 0.008502
0.999737 -0.021704 0.007464
0.999735 -0.020438 0.010562
0.999815 -0.017712 0.007492
0.999819 -0.015390 0.011217
0.999860 -0.015989 0.004940
0.999840 -0.015027 0.009685
0.999798 -0.020017 0.002065
0.999751 -0.022288 0.000992
0.999433 -0.032157 -0.010006
0.999143 -0.038618 -0.014925
0.998454 -0.047618 -0.028659
0.998433 -0.050027 -0.025059
0.997826 -0.053540 -0.038422
0.997978 -0.053511 -0.034294
0.997528 -0.053039 -0.046104
0.997821 -0.053227 -0.038978
0.997394 -0.050586 -0.051442
0.997998 -0.051551 -0.036630
0.997618 -0.048953 -0.048608
0.998172 -0.048272 -0.036358
0.997746 -0.043873 -0.050765
0.998041 -0.043960 -0.044509
0.998263 -0.047716 -0.034558
0.998471 -0.046508 -0.029877
0.998552 -0.045992 -0.027914
0.998324 -0.046159 -0.034916
0.998642 -0.046168 -0.024129
0.998244 -0.045524 -0.037906
0.998141 -0.045026 -0.041083
0.997882 -0.045457 -0.046542
0.998040 -0.042794 -0.045665
0.997774 -0.043743 -0.050342
0.998163 -0.039040 -0.046331
0.998309 -0.037528 -0.044401
0.998723 -0.032092 -0.039027
0.999129 -0.026645 -0.032123
0.999297 -0.022995 -0.029610
0.999654 -0.014482 -0.021939
0.999608 -0.015654 -0.023197
0.999793 -0.008737 -0.018374
0.999709 -0.012425 -0.020691
0.999785 -0.009608 -0.018375
0.999776 -0.009908 -0.018719
0.999769 -0.012251 -0.017662
0.999739 -0.012310 -0.019245
0.999790 -0.011861 -0.016682
0.999739 -0.013123 -0.018710
0.999829 -0.009509 -0.015870
0.999779 -0.011504 -0.017605
0.999847 -0.008902 -0.015073
0.999813 -0.010374 -0.016296
0.999852 -0.012050 -0.012291
0.999847 -0.011451 -0.013249
0.999844 -0.015867 -0.007795
0.999851 -0.015667 -0.007180
0.999793 -0.020305 0.001066
0.999768 -0.021486 0.001241
0.999727 -0.022507 0.006270
0.999725 -0.023198 0.003357
0.999777 -0.020372 0.005645
0.999765 -0.021606 -0.001480
0.999828 -0.018551 -0.000133
0.999661 -0.023826 -0.010514
0.999539 -0.027611 -0.012590
0.999450 -0.027964 -0.017843
0.998701 -0.038956 -0.032848
0.998274 -0.045550 -0.037064
0.998768 -0.042248 -0.026024
0.996300 -0.059503 -0.062009
0.996666 -0.055986 -0.059347
0.997326 -0.054588 -0.048592
0.995886 -0.058739 -0.069003
0.996566 -0.056055 -0.060939
0.997430 -0.055083 -0.045821
0.997174 -0.053711 -0.052532
0.996644 -0.051197 -0.063868
0.997594 -0.049787 -0.048236
0.995837 -0.031933 -0.085379
0.994812 -0.034897 -0.095559
0.995674 -0.026705 -0.088990
0.997084 -0.022506 -0.072913
0.996906 -0.033120 -0.071284
0.998299 -0.025005 -0.052662
0.996050 -0.012671 -0.087889
0.997857 -0.012266 -0.064271
0.995791 -0.003339 -0.091591
0.995922 0.001724 -0.090202
0.998268 -0.004794 -0.058643
0.995785 0.005364 -0.091566
0.997909 -0.001778 -0.064605
0.996276 0.000274 -0.086222
0.997770 -0.004434 -0.066601
0.996587 -0.005601 -0.082363
0.997695 -0.006737 -0.067528
0.995805 -0.010915 -0.090849
0.997358 -0.009738 -0.071991
0.997081 -0.014607 -0.074938
0.996855 -0.017342 -0.077330
0.997437 -0.016688 -0.069574
0.996016 -0.017188 -0.087498
0.997096 -0.018518 -0.073871
0.997673 -0.018473 -0.065630
0.996608 -0.019371 -0.079978
0.996561 -0.018147 -0.080847
0.997634 -0.017416 -0.066502
0.996588 -0.018595 -0.080416
0.997205 -0.017579 -0.072621
0.996450 -0.021632 -0.081359
0.997416 -0.019365 -0.069176
0.996082 -0.024754 -0.084896
0.997486 -0.024893 -0.066348
0.994860 -0.031419 -0.096262
0.996497 -0.030303 -0.077950
0.993493 -0.047842 -0.103359
0.995340 -0.049779 -0.082582
0.989630 -0.101218 -0.101914
0.992892 -0.090562 -0.077223
0.975635 -0.189265 -0.110975
0.982972 -0.164751 -0.081386
0.966397 -0.238468 -0.095965
0.970213 -0.232580 -0.067768
0.954974 -0.287687 -0.072537
0.966003 -0.253055 -0.052925
0.949725 -0.307012 -0.061364
0.964345 -0.260816 -0.044882
0.999591 -0.018656 -0.021657
0.999704 -0.014518 -0.019532
0.999620 -0.016710 -0.021905
0.999335 -0.023875 -0.027556
0.999768 -0.013797 -0.016521
0.999657 -0.018394 -0.018652
0.999799 -0.014447 -0.013880
0.999584 -0.022408 -0.018183
0.999800 -0.018233 -0.008204
0.999612 -0.024526 -0.013240
0.999729 -0.022948 -0.003859
0.999521 -0.027690 -0.013856
0.999695 -0.024606 -0.002009
0.999534 -0.027941 -0.012256
0.999581 -0.027353 -0.009497
0.999352 -0.030810 -0.018616
0.998793 -0.037849 -0.031316
0.998842 -0.037114 -0.030601
0.999598 -0.025893 -0.011589
0.999281 -0.030685 -0.022280
0.997937 -0.045539 -0.045248
0.997037 -0.050610 -0.057927
0.998333 -0.041292 -0.040321
0.996980 -0.050480 -0.059010
0.995572 -0.056524 -0.075106
0.995393 -0.057109 -0.077017
0.994997 -0.055803 -0.082866
0.995126 -0.054902 -0.081909
0.994592 -0.053465 -0.089046
0.988869 -0.043503 -0.142289
0.987670 -0.051365 -0.147885
0.985380 -0.048204 -0.163409
0.986951 -0.044459 -0.154761
0.988389 -0.066888 -0.136431
0.985404 -0.056709 -0.160507
0.988384 -0.079330 -0.129627
0.986605 -0.068037 -0.148264
0.988927 -0.080445 -0.124704
0.987463 -0.075092 -0.138842
0.987790 -0.072293 -0.137999
0.988532 -0.075154 -0.130983
0.989624 -0.078814 -0.120138
0.988165 -0.071057 -0.135947
0.990242 -0.074197 -0.117966
0.989456 -0.070494 -0.126522
0.989652 -0.068421 -0.126125
0.992850 -0.062659 -0.101599
0.992042 -0.066017 -0.107215
0.991372 -0.065898 -0.113309
0.995184 -0.055143 -0.081045
0.992680 -0.058217 -0.105813
0.991824 -0.059172 -0.113064
0.992169 -0.055713 -0.111790
0.995548 -0.048798 -0.080637
0.997655 -0.044376 -0.052114
0.994596 -0.046412 -0.092866
0.997921 -0.035717 -0.053639
0.998733 -0.035761 -0.035411
0.999407 -0.022683 -0.025890
0.999402 -0.023827 -0.025046
0.999266 -0.026177 -0.027960
0.999383 -0.024850 -0.024826
0.999311 -0.024992 -0.027434
0.999294 -0.027427 -0.025674
0.999527 -0.026991 -0.014723
0.999446 -0.026325 -0.020362
0.999354 -0.029948 -0.019867
0.999448 -0.029912 -0.014488
0.997275 -0.060346 -0.042447
0.996746 -0.065060 -0.047593
0.997060 -0.062711 -0.044030
0.997000 -0.062742 -0.045317
0.996908 -0.066667 -0.041602
0.996954 -0.064745 -0.043478
0.996980 -0.065297 -0.042044
0.998542 -0.012328 -0.052551
0.998730 -0.011289 -0.049102
0.998696 -0.016468 -0.048321
0.999085 -0.003567 -0.042609
0.999048 -0.003931 -0.043436
0.999060 -0.006255 -0.042891
0.999249 0.000505 -0.038753
0.999241 0.000810 -0.038955
0.999220 -0.001179 -0.039460
0.999386 0.007801 -0.034172
0.999311 0.005198 -0.036739
0.999335 0.003925 -0.036255
0.999398 0.005436 -0.034251
0.999419 0.009374 -0.032755
0.998828 -0.022217 -0.043004
0.998473 -0.029381 -0.046781
0.999233 -0.011117 -0.037561
0.999328 0.002112 -0.036594
0.999389 0.011935 -0.032853
0.999341 0.007982 -0.035397
0.999405 0.014739 -0.031192
0.999469 -0.024053 -0.021964
0.999479 -0.023640 -0.021975
0.999174 -0.029423 -0.028035
0.999335 -0.026534 -0.025005
0.999401 -0.023261 -0.025616
0.999036 -0.029639 -0.032382
0.999325 -0.021094 -0.030075
0.999093 -0.026130 -0.033622
0.999385 -0.017857 -0.030191
0.998775 -0.027671 -0.041012
0.999013 -0.023300 -0.037807
0.998347 -0.031268 -0.048232
0.998729 -0.031230 -0.039557
0.997661 -0.040537 -0.055048
0.997628 -0.046835 -0.050451
0.996511 -0.054378 -0.063319
0.997089 -0.058134 -0.049326
0.996065 -0.062727 -0.062614
0.995989 -0.070673 -0.054872
0.995271 -0.072671 -0.064450
0.994086 -0.081584 -0.071669
0.992494 -0.085821 -0.087121
0.991326 -0.092743 -0.093116
0.992827 -0.087747 -0.081205
0.990641 -0.088677 -0.103766
0.990339 -0.092276 -0.103509
0.989553 -0.092253 -0.110789
0.989567 -0.095301 -0.108054
0.988530 -0.093908 -0.118282
0.988796 -0.096664 -0.113744
0.987635 -0.092252 -0.126757
0.989971 -0.091021 -0.108045
0.988905 -0.079329 -0.125593
0.992083 -0.079282 -0.097391
0.990151 -0.058775 -0.127067
0.992980 -0.064241 -0.099315
0.994535 -0.045569 -0.093939
0.992180 -0.043537 -0.116972
0.988670 -0.053142 -0.140383
0.994442 -0.036977 -0.098579
0.994943 -0.037177 -0.093306
0.994582 -0.036009 -0.097523
0.992528 -0.043457 -0.114017
0.993368 -0.048335 -0.104328
0.995826 -0.041294 -0.081390
0.996515 -0.042819 -0.071590
0.995819 -0.044203 -0.079942
0.994329 -0.047742 -0.095029
0.997357 -0.038804 -0.061427
0.996221 -0.041411 -0.076346
0.997472 -0.036752 -0.060822
0.998229 -0.032925 -0.049551
0.998106 -0.033353 -0.051700
0.998835 -0.030138 -0.037679
0.998507 -0.030929 -0.045024
0.998749 -0.035595 -0.035132
0.998571 -0.039495 -0.035988
0.998200 -0.044670 -0.040012
0.998481 -0.039711 -0.038194
0.998201 -0.043009 -0.041761
0.997525 -0.051331 -0.048044
0.997634 -0.046635 -0.050507
0.996997 -0.053075 -0.056392
0.997158 -0.047662 -0.058349
0.996519 -0.056732 -0.061092
0.996492 -0.051583 -0.065902
0.996387 -0.054491 -0.065150
0.996092 -0.056308 -0.068047
0.996232 -0.056374 -0.065900
0.996103 -0.059501 -0.065103
0.995732 -0.062948 -0.067500
0.995816 -0.059568 -0.069292
0.995292 -0.066002 -0.070981
0.995793 -0.065317 -0.064265
0.992130 -0.087184 -0.089869
0.992816 -0.086134 -0.083053
0.991963 -0.086746 -0.092113
0.992955 -0.084105 -0.083472
0.992013 -0.085035 -0.093162
0.993665 -0.079113 -0.079824
0.992649 -0.082170 -0.088865
0.994737 -0.071920 -0.072974
0.993294 -0.080533 -0.082953
0.994653 -0.072270 -0.073771
0.994891 -0.073975 -0.068704
0.996332 -0.063391 -0.057474
0.996210 -0.064719 -0.058105
0.997399 -0.055855 -0.045563
0.997820 -0.047619 -0.045692
0.998739 -0.041994 -0.027524
0.999099 -0.036764 -0.021182
0.998926 -0.037117 -0.027723
0.998558 -0.036235 -0.039618
0.999207 -0.034850 -0.019278
0.998796 -0.034309 -0.035060
0.999157 -0.034357 -0.022492
0.975484 -0.196124 -0.099829
0.975940 -0.192399 -0.102588
0.977678 -0.184571 -0.100394
0.976487 -0.191484 -0.099026
0.980203 -0.167068 -0.106252
0.976556 -0.185562 -0.109111
0.976968 -0.180810 -0.113320
0.976324 -0.184291 -0.113265
0.984316 -0.142734 -0.103680
0.979264 -0.171460 -0.107908
0.984253 -0.145696 -0.100095
0.988801 -0.114887 -0.095259
0.989228 -0.114417 -0.091310
0.987685 -0.128038 -0.089920
0.991379 -0.097995 -0.086975
0.992046 -0.098774 -0.078033
0.993611 -0.083989 -0.075384
0.995029 -0.075446 -0.064998
0.996455 -0.065489 -0.052799
0.996318 -0.063222 -0.057908
0.997449 -0.052917 -0.047917
0.997873 -0.047846 -0.044267
0.998326 -0.039289 -0.042447
0.998605 -0.037303 -0.037374
0.998967 -0.026976 -0.036577
0.999028 -0.028665 -0.033491
0.999164 -0.020888 -0.035130
0.999358 -0.019483 -0.030067
0.999267 -0.017930 -0.033831
0.999504 -0.014285 -0.028082
0.999245 -0.018262 -0.034293
0.999548 -0.013441 -0.026893
0.999394 -0.017868 -0.029858
0.999573 -0.014450 -0.025379
0.999394 -0.017856 -0.029886
0.999655 -0.014338 -0.022009
0.999652 -0.013830 -0.022472
0.999816 -0.011104 -0.015641
0.999849 -0.008071 -0.015416
0.999888 -0.007283 -0.013038
0.999903 -0.004584 -0.013159
0.999923 -0.003548 -0.011879
0.999901 -0.001837 -0.013978
0.999867 -0.002363 -0.016135
0.999856 -0.002823 -0.016748
0.999798 -0.004910 -0.019512
0.999807 -0.008270 -0.017833
0.999766 -0.008077 -0.020078
0.999751 -0.014762 -0.016707
0.999758 -0.012469 -0.018134
0.999708 -0.017765 -0.016390
0.999742 -0.015534 -0.016583
0.999670 -0.019001 -0.017267
0.999681 -0.018036 -0.017677
0.999623 -0.018874 -0.019918
0.999612 -0.018854 -0.020516
0.999554 -0.020047 -0.022131
0.999471 -0.021574 -0.024322
0.999417 -0.022482 -0.025680
0.999120 -0.027560 -0.031617
0.999149 -0.027155 -0.031044
0.998860 -0.031765 -0.035633
0.998895 -0.031902 -0.034515
0.998523 -0.037706 -0.039123
0.998157 -0.044534 -0.041214
0.996292 -0.058986 -0.062634
0.997484 -0.050606 -0.049652
0.997205 -0.052310 -0.053339
0.996783 -0.054795 -0.058489
0.996070 -0.060669 -0.064531
0.995193 -0.068385 -0.070100
0.993883 -0.079158 -0.077006
0.994961 -0.082943 -0.056328
0.994151 -0.085469 -0.066015
0.996213 -0.072082 -0.048613
0.997517 -0.057647 -0.040446
0.998275 -0.046923 -0.035276
0.998543 -0.043425 -0.032024
0.998436 -0.047082 -0.030157
0.998407 -0.046779 -0.031552
0.998302 -0.049684 -0.030400
0.998459 -0.048127 -0.027619
0.998406 -0.048469 -0.028912
0.998462 -0.045897 -0.031111
0.998808 -0.040081 -0.027851
0.998893 -0.035927 -0.030370
0.999036 -0.033046 -0.028884
0.999324 -0.025415 -0.026564
0.999689 -0.014540 -0.020239
0.999919 -0.005998 -0.011199
0.999860 -0.008017 -0.014672
0.999836 -0.008348 -0.016082
0.999794 -0.009582 -0.017916
0.994615 -0.089560 -0.052147
0.996319 -0.070554 -0.048691
0.995377 -0.078981 -0.054658
0.996791 -0.061624 -0.051089
0.996254 -0.067081 -0.054564
0.995734 -0.071458 -0.058370
0.994142 -0.092491 -0.055916
0.993539 -0.093279 -0.064639
0.990842 -0.103127 -0.087158
0.991119 -0.095142 -0.092904
0.988948 -0.107628 -0.101971
0.990807 -0.094066 -0.097224
0.989415 -0.097577 -0.107410
0.989528 -0.086923 -0.115231
0.990464 -0.090074 -0.104251
0.989876 -0.083541 -0.114746
0.989448 -0.082406 -0.119170
0.991402 -0.082826 -0.101304
0.991139 -0.088632 -0.098936
0.989818 -0.081856 -0.116443
0.992529 -0.084927 -0.087595
0.993482 -0.079286 -0.081901
0.994000 -0.079312 -0.075319
0.994710 -0.076111 -0.068988
0.995628 -0.070687 -0.061054
0.996236 -0.069166 -0.052253
0.996698 -0.063945 -0.050042
0.997174 -0.055567 -0.050563
0.996703 -0.061351 -0.053105
0.997480 -0.055366 -0.044363
0.997418 -0.052379 -0.049129
0.998292 -0.039846 -0.042735
0.997826 -0.045651 -0.047524
0.998594 -0.030433 -0.043395
0.998313 -0.037796 -0.044070
0.998671 -0.030744 -0.041361
0.998752 -0.027253 -0.041850
0.999056 -0.020563 -0.038255
0.998912 -0.023661 -0.040195
0.998932 -0.027946 -0.036794
0.999057 -0.030575 -0.030819
0.999186 -0.022607 -0.033397
0.999189 -0.030390 -0.026412
0.999335 -0.023538 -0.027834
0.999284 -0.031565 -0.020846
0.999359 -0.027415 -0.023032
0.999430 -0.027201 -0.020006
0.999420 -0.027730 -0.019756
0.999468 -0.026271 -0.019327
0.999186 -0.034534 -0.020861
0.999468 -0.025893 -0.019844
0.999492 -0.024794 -0.020024
0.999446 -0.025381 -0.021548
0.999593 -0.018097 -0.022053
0.999660 -0.018645 -0.018232
0.999709 -0.013349 -0.020100
0.999827 -0.011227 -0.014807
0.999898 -0.007891 -0.011865
0.999888 -0.010539 -0.010652
0.995506 -0.089534 -0.030854
0.994238 -0.099821 -0.039059
0.996478 -0.078206 -0.030269
0.997477 -0.064396 -0.029894
0.998370 -0.050069 -0.027399
0.999184 -0.033702 -0.022258
0.999680 -0.019270 -0.016417
0.999839 -0.012657 -0.012730
0.999862 -0.011682 -0.011803
0.999870 -0.011728 -0.011101
0.999858 -0.011922 -0.011946
0.999797 -0.012080 -0.016138
0.999732 -0.012941 -0.019221
0.999718 -0.014781 -0.018577
0.999691 -0.016729 -0.018396
0.999587 -0.020658 -0.019958
0.999388 -0.026222 -0.023149
0.999196 -0.028372 -0.028330
0.999177 -0.025574 -0.031494
0.999212 -0.022100 -0.032975
0.999210 -0.020728 -0.033922
0.999257 -0.021160 -0.032218
0.999324 -0.024302 -0.027578
0.999361 -0.026490 -0.023988
0.999227 -0.029040 -0.026497
0.999254 -0.025904 -0.028626
0.999154 -0.024632 -0.032924
0.998860 -0.030653 -0.036585
0.998074 -0.046259 -0.041333
0.997843 -0.050975 -0.041372
0.999801 -0.018887 -0.006366
0.999505 -0.030757 -0.006569
0.998536 -0.053175 -0.009958
0.997169 -0.073992 -0.013380
0.996052 -0.085935 -0.022238
0.993873 -0.108635 -0.020391
0.992085 -0.124365 -0.017329
0.994593 -0.089838 -0.052092
0.999759 -0.019471 -0.010185
0.999375 -0.033045 -0.012531
0.999724 -0.020869 -0.010777
0.999558 -0.027417 -0.011465
0.998856 -0.046281 -0.012050
0.999376 -0.033142 -0.012212
0.998820 -0.046068 -0.015367
0.998472 -0.052587 -0.016986
0.998700 -0.048234 -0.016474
0.999264 -0.033529 -0.018648
0.999680 -0.020852 -0.014307
0.999821 -0.016098 -0.009908
0.999855 -0.015405 -0.007319
0.999851 -0.016034 -0.006327
0.999861 -0.016247 -0.003774
0.999873 -0.015543 -0.003613
0.999860 -0.016244 -0.003890
0.999731 -0.022546 -0.005482
0.999397 -0.034228 -0.005914
0.999173 -0.040297 -0.005376
0.999073 -0.041984 -0.009532
0.999230 -0.038117 -0.009284
0.999587 -0.028741 -0.000503
0.999788 -0.020523 -0.001509
0.999844 -0.017460 -0.002545
0.999686 -0.021832 -0.012313
0.999184 -0.031677 -0.025068
0.998547 -0.040310 -0.035764
0.998309 -0.046923 -0.034326
0.998162 -0.044346 -0.041303
0.998275 -0.048193 -0.033527
0.998329 -0.045892 -0.035121
0.994764 -0.101046 -0.015282
0.996536 -0.079775 -0.023514
0.992968 -0.118314 -0.003954
0.992405 -0.122982 0.002648
0.993093 -0.114578 0.025256
0.993822 -0.098647 0.050857
0.993474 -0.105926 0.042297
0.993704 -0.101650 0.047106
0.995916 -0.083508 0.034304
0.994233 -0.097087 0.045546
0.997207 -0.061141 0.042902
0.998525 -0.045744 0.029261
0.998511 -0.026973 0.047424
0.996967 -0.026698 0.073102
0.998010 -0.016895 0.060754
0.998311 -0.017498 0.055402
0.998790 -0.021231 0.044367
0.998905 -0.019171 0.042679
0.998391 -0.023512 0.051601
0.998291 -0.019950 0.054929
0.998808 -0.018888 0.045017
0.999231 -0.014473 0.036438
0.997954 -0.018493 0.061197
0.997627 -0.021656 0.065349
0.999190 -0.014416 0.037575
0.997191 -0.019551 0.072300
0.997832 -0.018396 0.063187
0.999363 -0.014034 0.032822
0.999626 -0.013160 0.023975
0.998681 -0.017602 0.048241
0.999696 -0.011882 0.021623
0.999111 -0.013666 0.039876
0.999654 -0.009477 0.024551
0.998636 -0.011542 0.050916
0.999597 -0.007674 0.027346
0.998609 -0.009878 0.051785
0.999675 -0.009507 0.023657
0.998695 -0.011866 0.049679
0.999778 -0.014603 0.015184
0.998939 -0.019333 0.041792
0.999703 -0.022752 0.008775
0.998993 -0.032141 0.031311
0.999266 -0.036834 0.010552
0.998475 -0.049119 0.025215
0.996781 -0.078100 -0.018118
0.999641 -0.026200 -0.005669
0.999238 -0.036777 -0.013055
0.998981 -0.034275 -0.029358
0.995830 -0.059715 -0.068973
0.995740 -0.057102 -0.072400
0.992671 -0.045169 -0.112092
0.991544 -0.057438 -0.116364
0.991855 -0.070517 -0.106074
0.991323 -0.081247 -0.103337
0.990869 -0.085890 -0.103931
0.992400 -0.080974 -0.092653
0.992812 -0.070566 -0.096671
0.994418 -0.057786 -0.088280
0.993206 -0.049868 -0.105139
0.994472 -0.046243 -0.094275
0.994525 -0.042544 -0.095444
0.994121 -0.042886 -0.099423
0.995239 -0.038095 -0.089713
0.994675 -0.047233 -0.091598
0.995840 -0.052257 -0.074651
0.996280 -0.045450 -0.073213
0.991773 -0.041912 -0.120951
0.995643 -0.039894 -0.084281
0.994649 -0.037674 -0.096202
0.993553 -0.039087 -0.106419
0.987614 -0.046478 -0.149860
0.986217 -0.050623 -0.157522
0.986587 -0.054004 -0.154044
0.986564 -0.059516 -0.152150
0.988493 -0.064240 -0.136950
0.988916 -0.066195 -0.132903
0.988289 -0.068899 -0.136151
0.990482 -0.065465 -0.121079
0.991962 -0.065809 -0.108073
0.995466 -0.058249 -0.075190
0.994195 -0.062379 -0.087665
0.997463 -0.049820 -0.050848
0.998313 -0.044529 -0.037261
0.998838 -0.038762 -0.028638
0.999146 -0.032562 -0.025445
0.999181 -0.034727 -0.020770
0.998965 -0.031600 -0.032715
0.999304 -0.029496 -0.022828
0.999031 -0.025814 -0.035648
0.999252 -0.017944 -0.034250
0.999420 -0.024009 -0.024152
0.999309 -0.011732 -0.035255
0.999449 -0.017081 -0.028465
0.999148 -0.009425 -0.040171
0.999352 -0.014391 -0.032998
0.998791 -0.007473 -0.048583
0.999177 -0.011620 -0.038854
0.998376 -0.008573 -0.056322
0.998915 -0.012358 -0.044907
0.998362 -0.012827 -0.055765
0.998934 -0.014275 -0.043888
0.998700 -0.014730 -0.048797
0.998987 -0.013914 -0.042806
0.998412 -0.015557 -0.054150
0.998854 -0.013078 -0.046043
0.998376 -0.014633 -0.055062
0.998670 -0.011783 -0.050185
0.998660 -0.010491 -0.050674
0.998697 -0.013425 -0.049228
0.998768 -0.019634 -0.045568
0.998553 -0.030987 -0.043942
0.997465 -0.057514 -0.041909
0.995591 -0.087049 -0.034957
0.992565 -0.117988 -0.029877
0.985223 -0.169008 -0.027789
0.985545 -0.169247 -0.007556
0.983420 -0.180859 -0.013230
0.980128 -0.197983 -0.012337
0.991742 -0.049291 -0.118397
0.991341 -0.047590 -0.122382
0.989179 -0.050367 -0.137801
0.988636 -0.049434 -0.141971
0.988860 -0.048234 -0.140815
0.993052 -0.051961 -0.105587
0.989757 -0.054109 -0.132114
0.991163 -0.056284 -0.120119
0.996462 -0.049068 -0.068232
0.992390 -0.058531 -0.108332
0.995060 -0.055997 -0.081978
0.996398 -0.054115 -0.065292
0.997487 -0.060361 -0.037095
0.997305 -0.059986 -0.042252
0.997018 -0.062324 -0.045515
0.998129 -0.053274 -0.029992
0.994478 -0.070286 -0.077929
0.990013 -0.075691 -0.118930
0.984343 -0.069626 -0.161929
0.983952 -0.066874 -0.165427
0.999006 -0.032370 -0.030640
0.998822 -0.035937 -0.032609
0.998728 -0.036209 -0.035095
0.998406 -0.036332 -0.043180
0.997995 -0.037707 -0.050830
0.997564 -0.040563 -0.056743
0.996644 -0.049271 -0.065369
0.996147 -0.055646 -0.067788
0.995456 -0.064601 -0.069950
0.994740 -0.073168 -0.071683
0.994008 -0.079949 -0.074543
0.991128 -0.090522 -0.097317
0.991412 -0.090308 -0.094589
0.990910 -0.090565 -0.099472
0.991273 -0.090414 -0.095930
0.993457 -0.080183 -0.081325
0.995269 -0.065352 -0.071893
0.996116 -0.051461 -0.071447
0.997453 -0.039212 -0.059581
0.996577 -0.034752 -0.075016
0.996551 -0.035615 -0.074949
0.998242 -0.035286 -0.047614
0.998892 -0.029217 -0.036898
0.992087 -0.088525 -0.089036
0.997698 -0.051138 -0.044543
0.997301 -0.055265 -0.048329
0.996796 -0.058229 -0.054840
0.996395 -0.060650 -0.059325
0.996441 -0.058674 -0.060517
0.996502 -0.058336 -0.059840
0.996205 -0.061954 -0.061135
0.993660 -0.086271 -0.072093
0.993978 -0.083514 -0.070948
0.994419 -0.080157 -0.068598
0.996121 -0.068472 -0.055263
0.995133 -0.073409 -0.065739
0.996105 -0.065797 -0.058692
0.998106 -0.048775 -0.037495
0.996642 -0.060609 -0.055057
0.997710 -0.052484 -0.042657
0.998364 -0.046762 -0.032901
0.998243 -0.048259 -0.034368
0.998744 -0.043443 -0.024983
0.999015 -0.039398 -0.020400
0.999150 -0.037617 -0.016832
0.999346 -0.033278 -0.014120
0.999353 -0.032901 -0.014545
0.999533 -0.026779 -0.014688
0.999682 -0.019157 -0.016392
0.999585 -0.024873 -0.014549
0.999730 -0.016874 -0.015981
0.994517 -0.078520 -0.069074
0.992643 -0.088434 -0.082701
0.993071 -0.085032 -0.081119
0.993283 -0.087860 -0.075292
0.999725 -0.012363 -0.019914
0.999533 -0.016377 -0.025781
0.999217 -0.020736 -0.033684
0.999011 -0.022318 -0.038450
0.998939 -0.023020 -0.039881
0.996924 -0.054022 -0.056787
0.993666 -0.097629 -0.055642
0.989966 -0.085650 -0.112390
0.994935 -0.074832 -0.067109
0.999184 -0.017856 -0.036218
0.999470 -0.025921 -0.019676
0.999878 -0.012358 -0.009545
0.999943 -0.007610 -0.007423
0.999951 -0.007431 -0.006467
0.993129 -0.109984 -0.039986
0.993954 -0.108258 0.018339
0.997900 -0.062950 0.015294
0.999088 -0.018840 0.038311
0.999016 -0.019427 0.039874
0.998630 -0.051797 0.007445
0.996747 -0.077402 0.022439
0.997075 -0.076239 0.005397
0.993182 -0.114925 0.019543
0.994370 -0.105961 -0.001146
0.986893 -0.160724 0.014512
0.989012 -0.147802 0.003064
0.977439 -0.211004 0.009506
0.969791 -0.243775 0.008953
0.979412 -0.201479 0.012620
0.988323 -0.152351 0.002586
0.963207 -0.268758 0.000669
0.995570 -0.039063 -0.085530
0.995416 -0.034649 -0.089143
0.995320 -0.003272 -0.096576
0.994610 0.007374 -0.103422
0.995076 0.007195 -0.098852
0.995858 0.003012 -0.090876
0.996199 -0.005290 -0.086944
0.999007 -0.032790 -0.030154
0.998054 -0.041544 -0.046507
0.998896 -0.035944 -0.030253
0.997724 -0.045532 -0.049745
0.997358 -0.048816 -0.053800
0.995735 -0.054866 -0.074178
0.995076 -0.051408 -0.084743
0.994742 -0.046772 -0.091106
0.992218 -0.045798 -0.115785
0.997032 -0.065729 -0.040085
0.996969 -0.067286 -0.039045
0.997025 -0.066998 -0.038120
0.997068 -0.065143 -0.040152
0.997022 -0.063976 -0.043071
0.997140 -0.064271 -0.039767
0.997104 -0.061557 -0.044659
0.997312 -0.059486 -0.042790
0.997362 -0.055409 -0.046893
0.997790 -0.045670 -0.048266
0.997784 -0.051001 -0.042730
0.998350 -0.035404 -0.045202
0.998535 -0.036695 -0.039774
0.998686 -0.030532 -0.041156
0.999019 -0.027157 -0.034966
0.999027 -0.026666 -0.035136
0.999236 -0.024390 -0.030533
0.999264 -0.024368 -0.029626
0.999332 -0.023350 -0.028113
0.999349 -0.022860 -0.027910
0.999331 -0.022786 -0.028599
0.999309 -0.021840 -0.030064
0.999315 -0.022081 -0.029685
0.999265 -0.022007 -0.031397
0.999367 -0.019921 -0.029471
0.999334 -0.022511 -0.028710
0.999524 -0.017425 -0.025447
0.999427 -0.022462 -0.025320
0.999626 -0.017171 -0.021298
0.999480 -0.021196 -0.024290
0.999664 -0.017128 -0.019457
0.999491 -0.019876 -0.024955
0.999723 -0.014658 -0.018388
0.999482 -0.020220 -0.025020
0.999657 -0.016052 -0.020687
0.999560 -0.019713 -0.022154
0.999680 -0.017163 -0.018581
0.999581 -0.020352 -0.020601
0.999658 -0.019107 -0.017863
0.999534 -0.020582 -0.022533
0.999620 -0.019707 -0.019283
0.999505 -0.020320 -0.024018
0.999544 -0.020174 -0.022470
0.999465 -0.021620 -0.024540
0.999496 -0.020222 -0.024474
0.999520 -0.022930 -0.020821
0.999590 -0.020598 -0.019875
0.999614 -0.023396 -0.014988
0.999701 -0.021152 -0.012289
0.999636 -0.025283 -0.009464
0.999716 -0.022181 -0.008666
0.999515 -0.029566 -0.009820
0.999553 -0.029111 -0.006780
0.999284 -0.035491 -0.013117
0.999331 -0.035532 -0.008650
0.998884 -0.042218 -0.021195
0.998999 -0.041830 -0.015872
0.998557 -0.046678 -0.026538
0.995646 -0.040229 -0.084087
0.997008 -0.040103 -0.066081
0.997363 -0.027167 -0.067301
0.997978 -0.023967 -0.058873
0.997384 -0.038380 -0.061248
0.996815 -0.065115 -0.046031
0.996803 -0.063014 -0.049113
0.996826 -0.067198 -0.042685
0.996894 -0.067695 -0.040254
0.996949 -0.068201 -0.037956
0.997013 -0.067076 -0.038282
0.997115 -0.065982 -0.037518
0.997640 -0.057696 -0.037224
0.998272 -0.046173 -0.036349
0.998814 -0.036561 -0.032161
0.999117 -0.027976 -0.031350
0.999296 -0.023215 -0.029476
0.999323 -0.023682 -0.028150
0.999329 -0.023843 -0.027802
0.999412 -0.021455 -0.026743
0.999566 -0.017282 -0.023853
0.999712 -0.013982 -0.019499
0.999760 -0.013389 -0.017332
0.999791 -0.013124 -0.015651
0.999841 -0.011148 -0.013928
0.999778 -0.013231 -0.016374
0.999717 -0.016166 -0.017456
0.999683 -0.018290 -0.017289
0.999637 -0.019996 -0.018049
0.999562 -0.020599 -0.021261
0.999501 -0.020029 -0.024433
0.999540 -0.019281 -0.023431
0.999687 -0.019014 -0.016247
0.999698 -0.022572 -0.009693
0.999479 -0.031252 -0.008092
0.999239 -0.037780 -0.009750
0.998717 -0.046648 -0.019728
0.984376 -0.164802 -0.062002
0.988661 -0.142734 -0.046660
0.985650 -0.156699 -0.062760
0.989656 -0.137206 -0.041904
0.990062 -0.132278 -0.047754
0.987423 -0.146355 -0.059796
0.991225 -0.120511 -0.054307
0.989084 -0.133703 -0.061936
0.991274 -0.113003 -0.067865
0.992946 -0.103102 -0.058550
0.992390 -0.100737 -0.070814
0.991538 -0.106008 -0.074938
0.993749 -0.084204 -0.073297
0.993825 -0.088928 -0.066358
0.992070 -0.099807 -0.076387
0.995153 -0.070032 -0.069035
0.994758 -0.069220 -0.075263
0.995449 -0.059062 -0.074793
0.995910 -0.055033 -0.071663
0.995981 -0.060307 -0.066225
0.996181 -0.047497 -0.073256
0.996356 -0.054722 -0.065419
0.996375 -0.046823 -0.071026
0.996849 -0.039662 -0.068688
0.996807 -0.045564 -0.065568
0.996593 -0.055410 -0.061099
0.997243 -0.036622 -0.064543
0.996920 -0.050697 -0.059843
0.997622 -0.038317 -0.057292
0.997165 -0.050355 -0.055912
0.998173 -0.036743 -0.047968
0.997538 -0.048983 -0.050195
0.998082 -0.044447 -0.043098
0.998304 -0.027524 -0.051307
0.998364 -0.039381 -0.041455
0.998518 -0.032313 -0.043789
0.998421 -0.042214 -0.037056
0.998656 -0.039787 -0.033203
0.998623 -0.036035 -0.038128
0.999082 -0.033680 -0.026462
0.998942 -0.032244 -0.032788
0.999440 -0.025108 -0.022111
0.999441 -0.022231 -0.024954
0.999613 -0.018160 -0.021081
0.999669 -0.014621 -0.021190
0.999702 -0.013373 -0.020441
0.999755 -0.010455 -0.019521
0.999719 -0.014399 -0.018836
0.999800 -0.009162 -0.017761
0.999736 -0.016396 -0.016073
0.999805 -0.012174 -0.015576
0.999753 -0.017153 -0.014098
0.999785 -0.015472 -0.013817
0.999854 -0.013525 -0.010399
0.999790 -0.015963 -0.012858
0.999904 -0.011076 -0.008307
0.999849 -0.013022 -0.011490
0.999901 -0.010673 -0.009220
0.999842 -0.011965 -0.013123
0.999882 -0.010366 -0.011314
0.999824 -0.011542 -0.014785
0.999851 -0.010816 -0.013426
0.999719 -0.013964 -0.019169
0.999750 -0.013920 -0.017491
0.999559 -0.018802 -0.022980
0.999608 -0.019535 -0.020061
0.999352 -0.024960 -0.025952
0.980374 -0.179918 -0.080600
0.980133 -0.182979 -0.076542
0.981240 -0.179573 -0.070158
0.977267 -0.192105 -0.089689
0.976720 -0.192152 -0.095371
0.982337 -0.169605 -0.079041
0.979055 -0.179255 -0.096536
0.985589 -0.151137 -0.075977
0.983641 -0.153884 -0.093645
0.989994 -0.121682 -0.071457
0.989517 -0.120968 -0.078884
0.992906 -0.097583 -0.067942
0.992491 -0.100963 -0.069058
0.995025 -0.080762 -0.058336
0.995253 -0.077197 -0.059261
0.993795 -0.086535 -0.069886
0.996298 -0.069357 -0.050797
0.995164 -0.072473 -0.066301
0.996520 -0.063091 -0.054482
0.996032 -0.060507 -0.065263
0.996080 -0.053111 -0.070738
0.997215 -0.048720 -0.056465
0.997060 -0.041001 -0.064734
0.998332 -0.032178 -0.047932
0.997890 -0.031153 -0.056971
0.998798 -0.023758 -0.042866
0.998292 -0.025695 -0.052460
0.998760 -0.022409 -0.044458
0.998560 -0.022215 -0.048839
0.998750 -0.021575 -0.045091
0.998711 -0.023903 -0.044783
0.999022 -0.020192 -0.039332
0.998883 -0.027456 -0.038468
0.999156 -0.020551 -0.035552
0.999282 -0.023053 -0.030056
0.999332 -0.019971 -0.030613
0.999539 -0.017552 -0.024760
0.999697 -0.012291 -0.021334
0.999747 -0.010434 -0.019946
0.999865 -0.004746 -0.015728
0.999834 -0.005768 -0.017271
0.999867 -0.003422 -0.015948
0.999845 -0.008008 -0.015660
0.999865 -0.004469 -0.015803
0.999816 -0.012678 -0.014379
0.999809 -0.011883 -0.015545
0.999773 -0.015995 -0.014107
0.999723 -0.017782 -0.015417
0.999723 -0.018227 -0.014919
0.999688 -0.019386 -0.015772
0.999751 -0.016424 -0.015118
0.999690 -0.018767 -0.016347
0.999771 -0.014650 -0.015588
0.999668 -0.017859 -0.018554
0.999710 -0.015251 -0.018644
0.999582 -0.019212 -0.021592
0.999590 -0.017380 -0.022750
0.999549 -0.019292 -0.023023
0.999453 -0.020219 -0.026164
0.999338 -0.023203 -0.028028
0.999202 -0.026627 -0.029757
0.999118 -0.027454 -0.031775
0.976719 -0.184503 -0.109442
0.994008 -0.087287 -0.065803
0.981207 -0.173124 -0.085211
0.982531 -0.167495 -0.081103
0.981423 -0.167702 -0.093197
0.985718 -0.144646 -0.086241
0.986257 -0.132591 -0.098576
0.988579 -0.122719 -0.087474
0.991811 -0.098879 -0.080833
0.995706 -0.068355 -0.062428
0.997592 -0.050012 -0.048048
0.998236 -0.042684 -0.041268
0.998891 -0.032812 -0.033756
0.999398 -0.020753 -0.027785
0.999559 -0.014277 -0.026046
0.999649 -0.011272 -0.023983
0.999686 -0.010700 -0.022646
0.999717 -0.011576 -0.020801
0.999749 -0.012323 -0.018731
0.999830 -0.010889 -0.014866
0.999906 -0.007555 -0.011478
0.999922 -0.005159 -0.011347
0.999878 -0.004323 -0.015032
0.999790 -0.004703 -0.019963
0.999761 -0.007489 -0.020556
0.999776 -0.011380 -0.017838
0.999725 -0.016127 -0.017024
0.999666 -0.018402 -0.018118
0.999530 -0.020996 -0.022347
0.999178 -0.026815 -0.030397
0.998870 -0.030941 -0.036088
0.998630 -0.034776 -0.039093
0.998201 -0.042016 -0.042778
0.990240 -0.127461 -0.056375
0.990492 -0.126795 -0.053373
0.990625 -0.127892 -0.048018
0.991525 -0.123960 -0.038896
0.994634 -0.099172 -0.029476
0.997486 -0.065704 -0.026541
0.998628 -0.045509 -0.025896
0.999103 -0.033410 -0.026017
0.999391 -0.025562 -0.023767
0.999534 -0.021466 -0.021708
0.999698 -0.016806 -0.017944
0.999772 -0.014840 -0.015362
0.999805 -0.013819 -0.014111
0.999817 -0.012119 -0.014831
0.999848 -0.010506 -0.013918
0.999881 -0.009203 -0.012368
0.999891 -0.008966 -0.011729
0.999839 -0.010305 -0.014687
0.999785 -0.010546 -0.017858
0.999662 -0.010510 -0.023779
0.999557 -0.009495 -0.028208
0.999441 -0.011373 -0.031438
0.999387 -0.015681 -0.031304
0.999011 -0.026013 -0.036058
0.998782 -0.031316 -0.038139
0.998814 -0.032073 -0.036643
0.998764 -0.033407 -0.036811
0.998784 -0.033063 -0.036580
0.998638 -0.035159 -0.038541
0.998190 -0.041893 -0.043147
0.997588 -0.050374 -0.047756
0.998528 -0.018470 0.050996
0.998079 -0.016730 0.059656
0.997676 -0.018601 0.065545
0.998245 -0.020259 0.055648
0.998315 -0.021816 0.053771
0.998453 -0.018026 0.052594
0.998837 -0.020836 0.043476
0.998716 -0.015805 0.048125
0.998047 -0.011780 0.061351
0.997950 -0.011814 0.062892
0.997818 -0.015474 0.064184
0.997625 -0.022042 0.065264
0.998224 -0.027707 0.052736
0.998504 -0.039883 0.037418
0.997472 -0.067852 0.021106
0.992720 -0.119024 0.018456
0.986550 -0.162747 0.015273
0.974368 -0.224849 -0.007102
0.957587 -0.287694 -0.016080
0.948646 -0.315752 -0.019270
0.999739 -0.013721 -0.018273
0.997282 -0.010633 -0.072914
0.997236 -0.016625 -0.072422
0.999823 -0.017639 -0.006601
0.997372 -0.019133 -0.069882
0.995930 -0.019308 -0.088036
0.998573 -0.014499 -0.051389
0.997733 -0.018121 -0.064808
0.999881 -0.014413 -0.005441
0.999911 -0.013344 -0.000656
0.998873 -0.012318 -0.045829
0.999746 -0.018094 0.013402
0.999142 -0.014586 -0.038766
0.998774 -0.020507 -0.045058
0.999683 -0.024677 0.005076
0.998322 -0.026002 -0.051743
0.996781 -0.024107 -0.076463
0.999453 -0.029893 -0.014142
0.997625 -0.029114 -0.062417
0.995614 -0.027077 -0.089548
0.998435 -0.037979 -0.041048
0.996008 -0.032790 -0.083021
0.994167 -0.037021 -0.101302
0.995351 -0.058637 -0.076406
0.997391 -0.057748 -0.043311
0.991949 -0.073140 -0.103378
0.993399 -0.106636 -0.042286
0.988554 -0.124758 -0.084830
0.983228 -0.146104 -0.109161
0.982545 -0.177219 -0.056557
0.973723 -0.211006 -0.085673
0.972028 -0.206006 -0.112795
0.972500 -0.228860 -0.043195
0.960527 -0.261667 -0.094438
0.957817 -0.282190 -0.054370
0.943878 -0.326848 -0.047582
0.944141 -0.322593 -0.067312
0.940732 -0.336050 -0.045757
0.940672 -0.333098 -0.064675
0.999248 -0.024826 -0.029801
0.998590 -0.035186 -0.039747
0.999575 -0.017466 -0.023319
0.993647 -0.061296 -0.094382
0.998702 -0.042500 -0.028084
0.997670 -0.045184 -0.051111
0.997434 -0.047262 -0.053771
0.997191 -0.049714 -0.056018
0.997004 -0.051237 -0.057944
0.996354 -0.053882 -0.066145
0.995751 -0.052717 -0.075508
0.995439 -0.048442 -0.082181
0.994288 -0.046047 -0.096289
0.995979 -0.069536 -0.056489
0.995888 -0.075184 -0.050544
0.994854 -0.089727 -0.047066
0.996633 -0.063297 -0.052117
0.996480 -0.063505 -0.054729
0.991930 -0.121498 -0.036252
0.991915 -0.122015 -0.034893
0.992629 -0.115293 -0.037357
0.992967 -0.109157 -0.045848
0.993970 -0.096804 -0.051512
0.994860 -0.083005 -0.057997
0.995494 -0.071686 -0.062078
0.995930 -0.065420 -0.061996
0.996370 -0.061582 -0.058767
0.996550 -0.061112 -0.056156
0.996841 -0.056801 -0.055519
0.996996 -0.059410 -0.049690
0.997602 -0.053798 -0.043550
0.998096 -0.047917 -0.038829
0.998026 -0.051637 -0.035744
0.998422 -0.046681 -0.031214
0.998937 -0.038333 -0.025594
0.999317 -0.029094 -0.022795
0.999516 -0.021711 -0.022280
0.999560 -0.018189 -0.023415
0.999602 -0.017266 -0.022314
0.999584 -0.020105 -0.020675
0.999643 -0.019904 -0.017809
0.999784 -0.015682 -0.013648
0.999877 -0.011909 -0.010245
0.999907 -0.010417 -0.008849
0.999903 -0.009997 -0.009699
0.999880 -0.010257 -0.011638
0.999802 -0.013072 -0.015021
0.999699 -0.017321 -0.017403
0.999181 -0.025866 -0.031132
0.992257 -0.099398 -0.074468
0.995111 -0.065909 -0.073549
0.989890 -0.128167 -0.060754
0.990014 -0.128645 -0.057640
0.990023 -0.126873 -0.061306
0.989885 -0.125901 -0.065395
0.990894 -0.124216 -0.051950
0.991305 -0.119689 -0.054667
0.992682 -0.114793 -0.037488
0.992434 -0.114329 -0.044766
0.995067 -0.095225 -0.027831
0.994460 -0.098855 -0.035743
0.997118 -0.072022 -0.023832
0.996814 -0.074117 -0.029457
0.998810 -0.043315 -0.022427
0.998554 -0.048255 -0.023709
0.999467 -0.025464 -0.020408
0.999447 -0.026829 -0.019664
0.999588 -0.020757 -0.019810
0.999714 -0.016980 -0.016870
0.999704 -0.016996 -0.017406
0.999787 -0.014246 -0.014902
0.999772 -0.015014 -0.015151
0.999839 -0.013032 -0.012359
0.999812 -0.014396 -0.012998
0.999848 -0.013301 -0.011283
0.999823 -0.014200 -0.012354
0.999848 -0.012875 -0.011734
0.999831 -0.013254 -0.012739
0.999817 -0.013919 -0.013149
0.999839 -0.012698 -0.012646
0.999809 -0.013592 -0.014048
0.999849 -0.011481 -0.013024
0.999795 -0.013381 -0.015189
0.999840 -0.011120 -0.013986
0.999712 -0.015165 -0.018618
0.999745 -0.013231 -0.018280
0.999551 -0.017443 -0.024365
0.999650 -0.013526 -0.022720
0.999364 -0.018943 -0.030203
0.999447 -0.014994 -0.029665
0.999241 -0.019070 -0.033961
0.999369 -0.014333 -0.032485
0.999204 -0.018772 -0.035212
0.999291 -0.015433 -0.034343
0.999202 -0.019144 -0.035066
0.999125 -0.021656 -0.035781
0.999198 -0.021449 -0.033822
0.998939 -0.027268 -0.037113
0.999117 -0.024366 -0.034242
0.998809 -0.030243 -0.038289
0.999125 -0.026622 -0.032265
0.998885 -0.030298 -0.036211
0.999205 -0.026134 -0.030110
0.998967 -0.029630 -0.034443
0.999226 -0.025101 -0.030298
0.998883 -0.031277 -0.035412
0.999050 -0.028193 -0.033217
0.998644 -0.035510 -0.038069
0.998539 -0.037859 -0.038546
0.997798 -0.049477 -0.044178
0.997639 -0.053652 -0.042860
0.991049 -0.119231 -0.060046
0.990947 -0.119222 -0.061719
0.992851 -0.108458 -0.049831
0.992367 -0.111500 -0.052691
0.993818 -0.101978 -0.043895
0.996166 -0.080113 -0.035153
0.997417 -0.063850 -0.032913
0.998390 -0.049384 -0.027906
0.999332 -0.029791 -0.021144
0.999761 -0.015631 -0.015309
0.999845 -0.011860 -0.013018
0.999860 -0.011696 -0.011941
0.999871 -0.011732 -0.010994
0.999845 -0.011897 -0.012942
0.999783 -0.013304 -0.016016
0.999765 -0.014461 -0.016148
0.999748 -0.014820 -0.016834
0.999697 -0.016539 -0.018224
0.999504 -0.021255 -0.023259
0.999314 -0.022725 -0.029248
0.999197 -0.023565 -0.032413
0.999174 -0.021717 -0.034336
0.999195 -0.020581 -0.034447
0.999229 -0.020431 -0.033531
0.999266 -0.022730 -0.030841
0.999368 -0.024340 -0.025918
0.999351 -0.025600 -0.025338
0.999313 -0.024972 -0.027399
0.999190 -0.025274 -0.031314
0.998637 -0.036488 -0.037319
0.997712 -0.053044 -0.041926
0.992355 -0.110559 -0.054841
0.990460 -0.123537 -0.061050
0.989287 -0.130691 -0.065048
0.988316 -0.133625 -0.073313
0.989608 -0.123194 -0.074153
0.991873 -0.099816 -0.078902
0.994229 -0.083932 -0.066819
0.993739 -0.078299 -0.079698
0.995815 -0.067158 -0.061993
0.997451 -0.054485 -0.046077
0.998160 -0.051963 -0.031238
0.998367 -0.051788 -0.024103
0.998694 -0.047689 -0.018327
0.998494 -0.050226 -0.022084
0.999045 -0.040832 -0.015521
0.999610 -0.024881 -0.012687
0.999828 -0.013745 -0.012439
0.999876 -0.007551 -0.013798
0.999832 -0.004907 -0.017654
0.999865 -0.004267 -0.015861
0.999867 -0.006549 -0.014914
0.999864 -0.010209 -0.012978
0.999822 -0.014779 -0.011697
0.999782 -0.018713 -0.009272
0.999877 -0.015138 -0.004025
0.999298 -0.033664 -0.016447
0.999550 -0.027095 -0.012870
0.999444 -0.029900 -0.014758
0.999605 -0.025457 -0.011908
0.999153 -0.035840 -0.020200
0.998790 -0.041680 -0.026089
0.998390 -0.048525 -0.029371
0.998535 -0.043931 -0.031576
0.998925 -0.036238 -0.028892
0.999360 -0.027191 -0.023262
0.999730 -0.017016 -0.015803
0.999850 -0.013200 -0.011242
0.999867 -0.013716 -0.008772
0.999865 -0.014707 -0.007374
0.999866 -0.015410 -0.005546
0.999826 -0.018010 -0.004911
0.999738 -0.022361 -0.004946
0.999514 -0.030988 -0.003439
0.999358 -0.035837 -0.000178
0.999312 -0.037063 0.000970
0.999560 -0.029149 0.005448
0.999735 -0.021071 0.009312
0.999809 -0.016012 0.011216
0.999848 -0.016541 0.005570
0.999812 -0.019389 -0.000306
0.999562 -0.027524 -0.010840
0.995364 -0.012402 -0.095381
0.996448 -0.017854 -0.082296
0.997409 -0.014813 -0.070400
0.997165 -0.017530 -0.073178
0.997998 -0.016262 -0.061124
0.998287 -0.013976 -0.056810
0.998524 -0.016180 -0.051852
0.998407 -0.022725 -0.051646
0.997730 -0.036639 -0.056507
0.996305 -0.062274 -0.059144
0.993238 -0.103720 -0.052167
0.987194 -0.151992 -0.048448
0.980318 -0.190328 -0.052465
0.976242 -0.214192 -0.032754
0.974896 -0.221500 -0.022710
0.997607 -0.061794 -0.031026
0.997710 -0.061300 -0.028573
0.997375 -0.043796 -0.057656
0.997408 -0.042685 -0.057926
0.992684 -0.053704 -0.108141
0.994013 -0.048717 -0.097800
0.993634 -0.107391 -0.034034
0.993979 -0.104409 -0.033235
0.993412 -0.109631 -0.033362
0.994388 -0.098551 -0.038469
0.999323 -0.032422 -0.017407
0.999163 -0.035423 -0.020451
0.999465 -0.029194 -0.014744
0.999380 -0.030281 -0.017980
0.999533 -0.024482 -0.018261
0.999532 -0.023203 -0.019936
0.999693 -0.018073 -0.016941
0.999676 -0.018233 -0.017748
0.999702 -0.015339 -0.018989
0.999671 -0.007473 -0.024542
0.999484 0.002136 -0.032056
0.999315 0.008769 -0.035962
0.999348 0.005601 -0.035675
0.996406 -0.057261 -0.062424
0.999209 -0.035591 -0.017736
