0.899307 0.152284 -0.409948
0.987352 -0.005788 -0.158440
0.987182 -0.005010 -0.159517
0.895034 0.086907 -0.437448
0.895037 0.086887 -0.437447
0.914490 -0.034614 -0.403126
0.902071 -0.068451 -0.426125
0.945519 0.004326 -0.325539
0.945520 0.004325 -0.325535
0.945034 0.004511 -0.326940
0.945032 0.004510 -0.326948
0.945031 0.004516 -0.326951
0.945030 0.004511 -0.326952
0.934642 -0.000375 -0.355589
0.934470 -0.000042 -0.356042
0.934466 -0.000036 -0.356051
0.934469 -0.000042 -0.356045
0.932649 -0.023495 -0.360020
0.932196 -0.009021 -0.361841
0.932200 -0.009017 -0.361830
0.932200 -0.009006 -0.361831
0.956948 -0.101406 -0.271969
0.956947 -0.101405 -0.271972
0.956948 -0.101415 -0.271966
0.956947 -0.101410 -0.271972
0.956947 -0.101405 -0.271972
0.956946 -0.101393 -0.271981
0.956949 -0.101414 -0.271964
0.956950 -0.101419 -0.271958
0.956948 -0.101420 -0.271962
0.960391 -0.107871 -0.256928
0.960391 -0.107857 -0.256936
0.960389 -0.107888 -0.256932
0.960390 -0.107886 -0.256928
0.883878 -0.045526 -0.465496
0.883884 -0.045526 -0.465484
0.883882 -0.045520 -0.465489
0.883872 -0.045530 -0.465508
0.883890 -0.045524 -0.465474
0.883883 -0.045516 -0.465488
0.917567 0.005083 -0.397549
0.917563 0.005085 -0.397557
0.917568 0.005073 -0.397547
0.917570 0.005085 -0.397542
0.975776 -0.074079 -0.205850
0.975769 -0.074086 -0.205881
0.975767 -0.074069 -0.205894
0.963675 -0.037830 -0.264385
0.966198 -0.039142 -0.254811
0.956401 -0.037577 -0.289630
0.948521 -0.015351 -0.316341
0.956953 -0.101354 -0.271970
0.956955 -0.101356 -0.271962
0.956943 -0.101405 -0.271988
0.960387 -0.110064 -0.256011
0.960341 -0.106038 -0.257879
0.880901 -0.047264 -0.470936
0.880903 -0.047282 -0.470930
0.883888 -0.045510 -0.465480
0.916527 0.005740 -0.399931
0.917572 0.005098 -0.397538
0.969300 -0.059915 -0.238470
0.969293 -0.059921 -0.238496
0.980523 -0.088553 -0.175308
0.967333 -0.038600 -0.250554
0.966215 -0.039144 -0.254747
0.960968 -0.032066 -0.274796
0.960963 -0.032051 -0.274813
0.955846 -0.028557 -0.292477
0.971035 -0.020314 -0.238074
0.970917 -0.019176 -0.238646
0.954757 -0.107477 -0.277288
0.954757 -0.107487 -0.277281
0.954782 -0.107432 -0.277217
0.955261 -0.096272 -0.279655
0.955263 -0.096283 -0.279646
0.967866 -0.070392 -0.241415
0.965644 -0.044145 -0.256092
0.965646 -0.044139 -0.256084
0.933668 -0.057070 -0.353565
0.933663 -0.057060 -0.353579
0.933404 -0.059430 -0.353872
0.933406 -0.059385 -0.353874
0.933667 -0.057054 -0.353570
0.933657 -0.057015 -0.353601
0.941789 0.068744 -0.329103
0.941829 0.072425 -0.328196
0.941790 0.068749 -0.329098
0.941794 0.068774 -0.329082
0.954907 0.129876 -0.266991
0.954905 0.129884 -0.266997
0.954902 0.129846 -0.267025
0.954918 0.129816 -0.266983
0.954922 0.129866 -0.266945
0.992347 -0.083056 -0.091372
0.992348 -0.083038 -0.091376
0.992351 -0.083012 -0.091373
0.991279 -0.070692 -0.111214
0.991351 -0.077710 -0.105760
0.983657 -0.076522 -0.162982
0.987309 -0.052380 -0.149924
0.987309 -0.052352 -0.149932
0.954781 -0.107433 -0.277222
0.954776 -0.107430 -0.277239
0.954778 -0.107432 -0.277231
0.960446 -0.051033 -0.273749
0.960447 -0.051028 -0.273747
0.960449 -0.051071 -0.273734
0.965491 -0.043917 -0.256708
0.965646 -0.044111 -0.256090
0.933666 -0.057087 -0.353566
0.933670 -0.057063 -0.353559
0.933674 -0.057063 -0.353549
0.962435 -0.067962 -0.262870
0.962429 -0.067980 -0.262885
0.961547 -0.065270 -0.266772
0.941797 0.068783 -0.329070
0.941802 0.068759 -0.329062
0.941801 0.068784 -0.329058
0.954908 0.129890 -0.266981
0.954625 0.132418 -0.266751
0.954910 0.129878 -0.266981
0.954908 0.129884 -0.266983
0.992487 -0.072999 -0.098190
0.992484 -0.072994 -0.098217
0.992379 -0.094004 -0.079674
0.991686 -0.085345 -0.096305
0.991351 -0.077724 -0.105746
0.991349 -0.077723 -0.105768
0.983476 -0.067654 -0.167921
0.987658 -0.052776 -0.147465
0.987578 -0.052645 -0.148047
0.988075 -0.103590 -0.113918
0.988066 -0.103590 -0.113992
0.988082 -0.103538 -0.113900
0.988072 -0.103564 -0.113963
0.988083 -0.103524 -0.113903
0.988084 -0.103536 -0.113888
0.985313 -0.138721 -0.099574
0.996986 -0.026676 -0.072855
0.996986 -0.026674 -0.072858
0.983214 0.119176 -0.138160
0.983215 0.119166 -0.138158
0.963721 0.137212 -0.228941
0.980256 0.142729 -0.136844
0.980261 0.142694 -0.136846
0.980262 0.142691 -0.136844
0.993365 -0.036370 -0.109101
0.993365 -0.036352 -0.109109
0.993367 -0.036384 -0.109083
0.994365 -0.077968 -0.071824
0.994366 -0.077950 -0.071838
0.983401 -0.009784 -0.181181
0.990081 -0.089908 -0.107961
0.989703 -0.083632 -0.116164
0.988198 -0.101576 -0.114657
0.988197 -0.101571 -0.114674
0.988089 -0.103508 -0.113870
0.985312 -0.138732 -0.099567
0.996541 0.048460 -0.067517
0.996540 0.048474 -0.067522
0.996539 0.048472 -0.067529
0.996781 -0.032595 -0.073251
0.993615 0.090347 -0.067579
0.983338 0.134524 -0.122268
0.980050 0.144120 -0.136863
0.980261 0.142695 -0.136846
0.993683 -0.037600 -0.105737
0.993682 -0.037605 -0.105746
0.993360 -0.036395 -0.109141
0.994470 -0.081152 -0.066660
0.994363 -0.077965 -0.071855
0.983403 -0.009784 -0.181169
0.990375 -0.096459 -0.099262
0.990083 -0.089891 -0.107956
0.971833 0.018981 -0.234907
0.971824 0.018947 -0.234943
0.971829 0.018977 -0.234923
0.971832 0.018986 -0.234907
0.971830 0.018956 -0.234921
0.971829 0.018977 -0.234920
0.971828 0.018964 -0.234927
0.971825 0.018957 -0.234940
0.971827 0.018979 -0.234929
0.974840 0.057072 -0.215478
0.974838 0.057106 -0.215476
0.974845 0.057111 -0.215444
0.974843 0.057132 -0.215444
0.985951 -0.081443 -0.145833
0.985958 -0.081396 -0.145815
0.985953 -0.081454 -0.145817
0.985958 -0.081421 -0.145801
0.985951 -0.081451 -0.145827
0.985952 -0.081452 -0.145824
0.985952 -0.081440 -0.145829
0.985951 -0.081469 -0.145823
0.985948 -0.081476 -0.145837
0.981029 -0.159185 -0.110648
0.981035 -0.159160 -0.110631
0.981039 -0.159142 -0.110618
0.993828 -0.101685 -0.044333
0.993830 -0.101669 -0.044325
0.985310 -0.138734 -0.099589
0.999872 0.011923 -0.010649
0.999872 0.011927 -0.010658
0.999872 0.011929 -0.010661
0.999410 0.032525 -0.011019
0.998285 0.053023 -0.024826
0.996208 0.075417 -0.043377
0.994788 0.068397 -0.075622
0.994784 0.068384 -0.075681
0.971870 0.019322 -0.234726
0.971872 0.019288 -0.234718
0.971835 0.018972 -0.234897
0.974823 0.057882 -0.215336
0.974842 0.057126 -0.215454
0.986000 -0.081819 -0.145291
0.985951 -0.081472 -0.145819
0.985957 -0.081416 -0.145807
0.985952 -0.081469 -0.145816
0.980910 -0.159717 -0.110928
0.981040 -0.159137 -0.110616
0.994005 -0.100612 -0.042797
0.993835 -0.101631 -0.044303
0.993830 -0.101667 -0.044331
0.999917 -0.011520 -0.005795
0.999872 0.011935 -0.010650
0.999519 0.030879 -0.002946
0.998285 0.052996 -0.024860
0.995004 0.067341 -0.073700
0.994785 0.068372 -0.075680
0.990909 0.054444 -0.123026
0.990909 0.054433 -0.123032
0.986861 0.063813 -0.148437
0.986087 0.061228 -0.154543
0.990571 0.065088 -0.120550
0.987175 0.086845 -0.133956
0.987176 0.086853 -0.133944
0.987179 0.086817 -0.133944
0.987177 0.086822 -0.133952
0.984158 -0.096872 -0.148491
0.984152 -0.096933 -0.148491
0.984153 -0.096926 -0.148485
0.990342 -0.094184 -0.101749
0.990347 -0.094154 -0.101727
0.998579 -0.031424 -0.043035
0.998579 -0.031431 -0.043039
0.999883 0.000600 -0.015269
0.999913 0.009746 -0.008834
0.999155 -0.013717 -0.038740
0.999154 -0.013711 -0.038764
0.996826 0.012248 -0.078660
0.996669 0.010561 -0.080869
0.923715 -0.096342 -0.370768
0.923723 -0.096316 -0.370754
0.923722 -0.096272 -0.370768
0.923735 -0.096276 -0.370734
0.921022 -0.100925 -0.376209
0.921024 -0.100957 -0.376195
0.923734 -0.096246 -0.370746
0.923730 -0.096263 -0.370752
0.923725 -0.096251 -0.370766
0.940517 0.091110 -0.327302
0.940514 0.091097 -0.327314
0.938891 0.093816 -0.331183
0.940529 0.091110 -0.327268
0.940528 0.091112 -0.327269
0.940518 0.091125 -0.327294
0.946103 0.121063 -0.300388
0.946100 0.121074 -0.300393
0.946099 0.121003 -0.300424
0.946108 0.121066 -0.300372
0.946109 0.121018 -0.300387
0.992644 0.049636 -0.110428
0.992644 0.049648 -0.110424
0.990908 0.054442 -0.123034
0.994094 0.053533 -0.094405
0.990271 0.080594 -0.113438
0.986821 0.088273 -0.135616
0.987180 0.086808 -0.133944
0.984229 -0.072661 -0.161288
0.984230 -0.072602 -0.161307
0.983050 -0.123245 -0.135735
0.987164 -0.113721 -0.112141
0.992666 -0.077087 -0.093126
0.997648 -0.046807 -0.050086
0.999286 -0.015144 -0.034617
0.999759 -0.007691 -0.020560
0.999883 0.000585 -0.015317
0.999151 -0.013670 -0.038867
0.999155 -0.013724 -0.038749
0.999155 -0.013716 -0.038751
0.999230 -0.014628 -0.036407
0.996675 0.010554 -0.080797
0.996671 0.010555 -0.080845
0.992198 -0.026698 -0.121784
0.992180 -0.026585 -0.121949
0.923753 -0.096273 -0.370692
0.923732 -0.096285 -0.370741
0.923738 -0.096300 -0.370721
0.923744 -0.096247 -0.370720
0.940533 0.091146 -0.327245
0.940540 0.091128 -0.327232
0.940533 0.091096 -0.327260
0.940532 0.091146 -0.327248
0.946718 -0.049689 -0.318207
0.947618 -0.047797 -0.315810
0.945309 0.123087 -0.302060
0.946111 0.121053 -0.300367
0.946109 0.121037 -0.300380
0.946108 0.121050 -0.300376
0.992925 0.056352 -0.104522
0.992924 0.056336 -0.104536
0.992926 0.056336 -0.104521
0.992925 0.056355 -0.104518
0.997048 0.063204 -0.043592
0.997048 0.063207 -0.043592
0.996033 0.057586 -0.067837
0.996034 0.057568 -0.067837
0.996032 0.057590 -0.067845
0.994054 0.057184 -0.092669
0.994053 0.057147 -0.092701
0.987067 -0.073007 -0.142716
0.987069 -0.073013 -0.142704
0.988254 -0.084339 -0.127443
0.996517 -0.037596 -0.074438
0.996512 -0.036997 -0.074798
0.996530 -0.047871 -0.068086
0.996531 -0.047855 -0.068093
0.998111 -0.019737 -0.058178
0.997052 -0.033651 -0.068954
0.999229 -0.014632 -0.036418
0.999229 -0.014639 -0.036424
0.998879 -0.040427 -0.024640
0.998877 -0.040447 -0.024667
0.935142 -0.085804 -0.343725
0.935138 -0.085837 -0.343727
0.935152 -0.085819 -0.343694
0.935148 -0.085814 -0.343705
0.935150 -0.085821 -0.343701
0.935152 -0.085828 -0.343691
0.935144 -0.085836 -0.343711
0.935149 -0.085838 -0.343699
0.925997 -0.156948 -0.343362
0.926013 -0.156936 -0.343323
0.925990 -0.156988 -0.343360
0.926003 -0.156948 -0.343343
0.924175 -0.155637 -0.348823
0.924142 -0.155665 -0.348898
0.924160 -0.159795 -0.346979
0.924207 -0.159717 -0.346888
0.924212 -0.159743 -0.346864
0.924197 -0.159745 -0.346902
0.995457 -0.014697 -0.094070
0.995454 -0.014695 -0.094103
0.995456 -0.014700 -0.094076
0.984624 0.074903 -0.157815
0.972296 0.092455 -0.214690
0.983469 -0.075859 -0.164422
0.986070 -0.035928 -0.162404
0.978476 0.077851 -0.191114
0.978480 0.077819 -0.191106
0.978478 0.077813 -0.191116
0.958306 0.071542 -0.276645
0.958302 0.071519 -0.276663
0.958304 0.071538 -0.276651
0.958305 0.071510 -0.276655
0.958306 0.071536 -0.276643
0.958305 0.071500 -0.276657
0.992927 0.056346 -0.104501
0.992927 0.056352 -0.104498
0.992927 0.056361 -0.104495
0.992927 0.056358 -0.104499
0.997118 0.063423 -0.041635
0.997118 0.063426 -0.041638
0.996036 0.057573 -0.067810
0.996178 0.057371 -0.065862
0.994122 0.056950 -0.092072
0.994053 0.057123 -0.092717
0.985480 -0.062688 -0.157797
0.985478 -0.062679 -0.157811
0.987072 -0.072993 -0.142692
0.987071 -0.073005 -0.142695
0.988106 -0.051619 -0.144849
0.996517 -0.037583 -0.074439
0.996518 -0.037575 -0.074435
0.996717 -0.035874 -0.072578
0.996714 -0.036483 -0.072322
0.996531 -0.047870 -0.068083
0.996531 -0.047869 -0.068084
0.999507 -0.003671 -0.031179
0.999433 -0.006012 -0.033134
0.997676 -0.026368 -0.062835
0.997676 -0.026369 -0.062822
0.999664 -0.003404 -0.025685
0.999647 -0.004014 -0.026264
0.998836 -0.041888 -0.023925
0.998879 -0.040461 -0.024589
0.935217 -0.086123 -0.343440
0.935227 -0.086126 -0.343414
0.935149 -0.085800 -0.343707
0.935145 -0.085808 -0.343715
0.935147 -0.085859 -0.343697
0.927884 -0.158153 -0.337667
0.927886 -0.158125 -0.337675
0.926052 -0.156892 -0.343238
0.926033 -0.156898 -0.343286
0.924244 -0.159697 -0.346801
0.924251 -0.159685 -0.346786
0.924238 -0.159693 -0.346818
0.995454 -0.014693 -0.094102
0.995460 -0.014675 -0.094044
0.995918 -0.016181 -0.088800
0.993467 0.059048 -0.097654
0.984624 0.074875 -0.157828
0.966457 -0.093488 -0.239208
0.978968 0.078142 -0.188454
0.978480 0.077810 -0.191110
0.958077 0.071602 -0.277421
0.958300 0.071511 -0.276671
0.999816 0.018679 -0.004463
0.999816 0.018674 -0.004474
0.999816 0.018676 -0.004465
0.999815 0.018699 -0.004428
0.999548 0.028557 -0.009383
0.999682 -0.000463 -0.025218
0.999682 -0.000477 -0.025231
0.999109 0.020185 -0.037071
0.995820 -0.020078 -0.089104
0.972975 -0.101323 -0.207493
0.972979 -0.101311 -0.207479
0.973000 -0.101327 -0.207373
0.972999 -0.101367 -0.207359
0.981410 -0.105275 -0.160473
0.961153 -0.091494 -0.260410
0.963929 -0.091553 -0.249918
0.999228 0.004994 -0.038962
0.999228 0.004982 -0.038957
0.999230 0.005015 -0.038901
0.999413 -0.019529 -0.028150
0.999364 -0.035298 -0.005144
0.998024 -0.004575 0.062670
0.998025 -0.004618 0.062647
0.999817 0.017623 -0.007462
0.999449 0.016085 -0.029033
0.996665 -0.042266 -0.069803
0.996662 -0.042270 -0.069838
0.989192 0.024292 -0.144601
0.973847 0.031770 -0.224973
0.999811 0.018851 -0.004716
0.999812 0.018829 -0.004725
0.999812 0.018811 -0.004730
0.999815 0.018692 -0.004446
0.999761 0.019681 -0.009555
0.998962 -0.019906 -0.040961
0.998074 -0.000336 -0.062039
0.998074 -0.000339 -0.062042
0.998072 -0.000332 -0.062071
0.999617 -0.014100 -0.023814
0.986810 -0.109846 -0.118915
0.986811 -0.109827 -0.118922
0.981419 -0.105287 -0.160411
0.963941 -0.091527 -0.249879
0.963923 -0.091547 -0.249944
0.963932 -0.091516 -0.249918
0.994918 -0.048866 -0.088036
0.999171 0.005248 -0.040380
0.999169 0.005209 -0.040427
0.999230 0.005024 -0.038905
0.999970 0.005225 0.005780
0.999825 -0.016280 -0.009173
0.997894 -0.004470 0.064714
0.998026 -0.004613 0.062640
0.999707 0.020159 0.013378
0.999817 0.017594 -0.007476
0.996696 -0.042496 -0.069211
0.996664 -0.042290 -0.069800
0.996664 -0.042285 -0.069809
0.982690 0.026921 -0.183293
0.982685 0.026923 -0.183315
0.996323 -0.075536 -0.040437
0.994210 -0.021898 -0.105199
0.994335 -0.023104 -0.103746
0.998423 -0.017520 0.053338
0.998422 -0.017554 0.053342
0.999947 -0.000081 0.010272
0.998232 0.001967 0.059398
0.999947 -0.000107 0.010277
0.999947 -0.000071 0.010264
0.998423 -0.017530 0.053337
0.998232 0.001962 0.059410
0.999912 -0.006566 0.011538
0.998470 -0.027320 0.048081
0.998974 -0.044522 0.008323
0.998469 -0.027342 0.048081
0.998598 -0.048933 -0.020189
0.996497 -0.044554 0.070776
0.999617 -0.014136 -0.023789
0.996428 -0.023127 0.081213
0.999617 -0.014126 -0.023785
0.996426 -0.023143 0.081237
0.995683 0.041816 0.082860
0.999640 -0.003702 -0.026556
0.995682 0.041850 0.082855
0.999640 -0.003779 -0.026571
0.999597 -0.004776 -0.027982
0.995684 0.041831 0.082850
0.994735 0.065823 0.078551
0.996321 0.069317 0.050386
0.994736 0.065821 0.078538
0.996321 0.069327 0.050388
0.996472 0.068158 0.048973
0.995193 0.063697 0.074383
0.996910 0.051250 0.059524
0.996698 0.053596 0.061003
0.997037 0.050914 0.057666
0.996699 0.053584 0.060996
0.997221 0.009518 0.073896
0.997829 0.002660 0.065802
0.997294 0.007197 0.073169
0.997829 0.002658 0.065801
0.995900 -0.050829 0.074829
0.994109 -0.062116 0.088819
0.991940 -0.098759 0.079378
0.991294 -0.090339 0.095787
0.990365 -0.133148 0.038061
0.991194 -0.091789 0.095445
0.991855 -0.099556 0.079450
0.990585 -0.107685 0.084527
0.991850 -0.100627 0.078159
0.990581 -0.107709 0.084545
0.980523 -0.145798 0.131598
0.991044 -0.120570 0.057404
0.980528 -0.145793 0.131562
0.991040 -0.120594 0.057420
0.991310 -0.119778 0.054380
0.980529 -0.145780 0.131567
0.998477 -0.037251 0.040703
0.989893 -0.104900 0.095437
0.998525 -0.038645 0.038129
0.989900 -0.104881 0.095386
0.999494 -0.021477 0.023460
0.997817 -0.064265 0.015206
0.999493 -0.021493 0.023506
0.999948 -0.008074 -0.006150
0.997955 -0.062117 0.015079
0.999492 -0.021506 0.023524
0.992490 -0.097646 0.073676
0.992492 -0.097648 0.073656
0.992160 -0.124950 0.002394
0.992370 -0.088311 0.086040
0.992829 -0.119373 -0.006306
0.989146 -0.127802 0.072497
0.992944 -0.118371 -0.007087
0.991528 -0.116930 0.056571
0.991526 -0.116910 0.056633
0.991535 -0.116866 0.056573
0.991532 -0.116858 0.056636
0.998422 -0.017537 0.053353
0.998231 0.001963 0.059419
0.998231 0.001962 0.059421
0.998421 -0.018466 0.053045
0.998422 -0.018640 0.052975
0.998487 -0.036224 0.041372
0.996483 -0.045754 0.070207
0.996428 -0.023110 0.081224
0.996427 -0.023114 0.081234
0.995252 0.005376 0.097187
0.995252 0.005373 0.097187
0.995254 0.005389 0.097165
0.996271 0.012969 0.085303
0.996269 0.012943 0.085326
0.994128 0.068832 0.083495
0.994736 0.065813 0.078541
0.996682 0.053914 0.060975
0.996698 0.053581 0.061013
0.997827 0.003668 0.065791
0.997827 0.002673 0.065834
0.995076 -0.049136 0.086073
0.994105 -0.062135 0.088851
0.994108 -0.062137 0.088817
0.997424 -0.025871 0.066902
0.991213 -0.091010 0.095992
0.991214 -0.090999 0.095989
0.991213 -0.091014 0.095983
0.991192 -0.091784 0.095472
0.990584 -0.107683 0.084542
0.980368 -0.146010 0.132511
0.980367 -0.146013 0.132518
0.980532 -0.145798 0.131532
0.990087 -0.103520 0.094925
0.989894 -0.104916 0.095402
0.999888 -0.004011 0.014393
0.999889 -0.003983 0.014359
0.998638 -0.040773 0.032551
0.992247 -0.078341 0.096483
0.992366 -0.088330 0.086063
0.992367 -0.088319 0.086071
0.987558 -0.099432 0.121828
0.991562 -0.116735 0.056378
0.991527 -0.116888 0.056663
0.998086 0.005388 0.061599
0.998231 0.001960 0.059424
0.997425 0.007325 0.071347
0.995255 0.001328 0.097294
0.995251 0.001274 0.097333
0.991647 -0.031466 0.125084
0.991648 -0.031465 0.125074
0.991647 -0.031465 0.125084
0.991643 -0.031468 0.125114
0.995369 0.032589 0.090434
0.995371 0.032588 0.090413
0.995370 0.032579 0.090423
0.995357 0.033875 0.090094
0.991706 -0.003287 0.128482
0.997805 0.034023 0.056803
0.997805 0.034017 0.056814
0.998464 0.032639 0.044760
0.998464 0.032607 0.044789
0.998182 0.006048 0.059966
0.998940 0.009169 0.045114
0.997181 -0.028370 0.069469
0.997832 -0.031800 0.057618
0.997832 -0.031807 0.057607
0.992056 -0.102563 0.072846
0.992056 -0.102583 0.072814
0.992054 -0.102591 0.072829
0.997200 -0.074083 -0.010205
0.997194 -0.074168 -0.010202
0.997199 -0.074095 -0.010222
0.997199 -0.074092 -0.010276
0.997283 -0.072929 -0.010397
0.997283 -0.072932 -0.010350
0.999541 -0.026000 -0.015566
0.999540 -0.025991 -0.015618
0.999542 -0.025965 -0.015561
0.999541 -0.025990 -0.015549
0.999542 -0.025928 -0.015627
0.990415 0.050401 0.128597
0.990411 0.050338 0.128653
0.990410 0.050318 0.128669
0.992126 -0.106433 0.066008
0.992130 -0.106407 0.065992
0.998796 0.005207 -0.048787
0.989802 -0.053859 0.131875
0.992227 -0.079167 0.096013
0.986003 -0.126453 0.108666
0.986002 -0.126465 0.108658
0.980195 -0.138201 0.141836
0.985392 -0.141864 0.094219
0.998230 0.001968 0.059433
0.997322 0.033046 0.065243
0.997811 0.012711 0.064897
0.996244 0.021196 0.083954
0.993617 -0.017189 0.111491
0.991648 -0.031460 0.125082
0.991319 -0.031944 0.127538
0.995369 0.032564 0.090447
0.995367 0.032546 0.090472
0.995366 0.032535 0.090485
0.995371 0.032561 0.090424
0.997724 0.015901 0.065525
0.997526 0.051497 0.047845
0.998522 0.031970 0.043947
0.998464 0.032640 0.044775
0.999480 0.014751 0.028687
0.998940 0.009174 0.045115
0.998347 -0.035631 0.045086
0.997832 -0.031802 0.057616
0.995483 -0.071081 0.062942
0.987615 -0.133729 0.082059
0.997282 -0.072948 -0.010332
0.997278 -0.073014 -0.010315
0.997281 -0.072962 -0.010325
0.997283 -0.072934 -0.010332
0.999544 -0.025909 -0.015496
0.999541 -0.026014 -0.015539
0.989683 0.051917 0.133538
0.989678 0.051993 0.133544
0.990410 0.050330 0.128664
0.992129 -0.106410 0.066001
0.999498 -0.017343 0.026512
0.985442 -0.025977 0.168014
0.989800 -0.053872 0.131887
0.978144 -0.116942 0.171929
0.974075 -0.173060 0.145700
0.974078 -0.173048 0.145691
0.997195 0.062809 0.040713
0.997196 0.062786 0.040722
0.998133 0.032769 0.051536
0.998029 0.048896 0.039348
0.998031 0.048848 0.039355
0.993420 -0.024125 0.111959
0.993422 -0.024116 0.111939
0.995116 -0.037580 0.091276
0.999764 -0.006556 0.020726
0.999995 -0.002763 0.001555
0.999814 0.010000 -0.016509
0.999814 0.009979 -0.016505
0.999517 0.027882 -0.013714
0.999518 0.027867 -0.013705
0.999997 0.002262 -0.000983
0.999997 0.002247 -0.000982
0.997676 -0.056714 0.037759
0.997676 -0.056721 0.037758
0.990675 -0.123736 0.057022
0.990675 -0.123752 0.056995
0.990674 -0.123746 0.057030
0.990677 -0.123738 0.056999
0.996135 -0.086054 0.017585
0.996136 -0.086048 0.017572
0.981831 -0.129486 0.138715
0.981820 -0.129560 0.138724
0.981838 -0.129480 0.138670
0.982909 0.007608 0.183933
0.982902 0.007684 0.183969
0.983901 -0.118455 0.133821
0.983904 -0.118444 0.133806
0.981857 0.062986 0.178859
0.974688 -0.064633 0.214021
0.974684 -0.064669 0.214031
0.974692 -0.064675 0.213993
0.974686 -0.064653 0.214028
0.974687 -0.064671 0.214017
0.974686 -0.064688 0.214014
0.967031 -0.172038 0.187762
0.967034 -0.172025 0.187758
0.995249 0.092422 0.030605
0.995250 0.092412 0.030608
0.997195 0.062808 0.040721
0.997974 0.049410 0.040093
0.998034 0.048833 0.039295
0.996061 -0.050836 0.072650
0.996062 -0.050840 0.072637
0.995118 -0.037570 0.091266
0.999164 -0.040525 0.005445
0.999822 -0.016733 0.008683
0.999797 0.011848 -0.016272
0.999813 0.009983 -0.016551
0.999525 0.028242 -0.012357
0.999516 0.027886 -0.013764
0.999998 0.001593 0.000894
0.999997 0.002257 -0.001013
0.997725 -0.055078 0.038869
0.997676 -0.056749 0.037717
0.990422 -0.127178 0.053758
0.990524 -0.122350 0.062386
0.990522 -0.122360 0.062408
0.981514 -0.132460 0.138150
0.981528 -0.132447 0.138060
0.981520 -0.132486 0.138082
0.981830 -0.129450 0.138752
0.981829 -0.129426 0.138781
0.982739 0.008978 0.184782
0.982732 0.009013 0.184817
0.982900 0.007626 0.183983
0.974489 -0.060820 0.216039
0.974488 -0.060900 0.216019
0.974691 -0.064674 0.213998
0.974692 -0.064688 0.213989
0.967037 -0.172009 0.187758
0.969988 -0.141065 0.198049
0.962655 -0.204010 0.177975
0.996500 -0.076892 -0.032797
0.996498 -0.076917 -0.032806
0.996499 -0.076902 -0.032811
0.997095 -0.059583 -0.047453
0.997094 -0.059577 -0.047479
0.998065 -0.001939 -0.062156
0.998063 -0.001951 -0.062175
0.996698 0.027963 -0.076235
0.996700 0.027961 -0.076204
0.997089 0.020146 -0.073542
0.997090 0.020119 -0.073533
0.998615 -0.048132 -0.021238
0.998615 -0.048140 -0.021223
0.993860 -0.106768 0.029025
0.994149 -0.107023 0.014608
0.994149 -0.107028 0.014603
0.996139 -0.086021 0.017550
0.991351 -0.126567 0.034711
0.990874 -0.134748 0.003456
0.990872 -0.134764 0.003478
0.990879 -0.134711 0.003481
0.990876 -0.134733 0.003463
0.965871 0.160955 0.202943
0.965876 0.160951 0.202926
0.965870 0.160968 0.202938
0.965871 0.160950 0.202948
0.965866 0.160986 0.202945
0.965864 0.160972 0.202963
0.965872 0.160962 0.202935
0.965871 0.160945 0.202951
0.976193 0.064937 0.206953
0.976188 0.064917 0.206986
0.976196 0.064853 0.206967
0.996287 -0.078327 -0.035739
0.996288 -0.078311 -0.035754
0.996498 -0.076905 -0.032832
0.996996 -0.060619 -0.048203
0.997094 -0.059581 -0.047481
0.997922 -0.000754 -0.064437
0.998064 -0.001952 -0.062159
0.996888 0.027530 -0.073861
0.996407 0.028787 -0.079650
0.997012 0.020199 -0.074565
0.997089 0.020130 -0.073535
0.999236 -0.026377 -0.028856
0.997580 -0.067725 -0.015750
0.994101 -0.108458 0.000077
0.994147 -0.107037 0.014627
0.994148 -0.107029 0.014643
0.991350 -0.126566 0.034718
0.990841 -0.135011 0.002451
0.990876 -0.134734 0.003443
0.965692 0.162170 0.202831
0.965688 0.162194 0.202831
0.965874 0.160971 0.202916
0.970885 0.123103 0.205493
0.970882 0.123081 0.205521
0.970894 0.123072 0.205469
0.970886 0.123035 0.205531
0.970893 0.123057 0.205483
0.996246 -0.003711 -0.086487
0.996246 -0.003690 -0.086493
0.996245 -0.003698 -0.086505
0.996242 -0.003687 -0.086531
0.996243 -0.003722 -0.086522
0.995505 -0.079840 -0.050941
0.996238 -0.071754 -0.048592
0.995799 -0.076900 -0.049708
0.995004 -0.063474 -0.077057
0.995007 -0.063434 -0.077055
0.994736 -0.092849 -0.043357
0.996815 -0.022637 -0.076469
0.996815 -0.022635 -0.076467
0.993950 0.031036 -0.105355
0.995087 0.037787 -0.091508
0.995086 0.037793 -0.091515
0.993214 0.050005 -0.105002
0.992575 0.055482 -0.108245
0.998300 -0.009967 -0.057418
0.998301 -0.009979 -0.057410
0.993301 -0.105154 -0.047907
0.992775 -0.119578 -0.009989
0.988839 -0.126162 -0.079254
0.987038 -0.140932 -0.076780
0.987041 -0.140896 -0.076796
0.985313 0.170738 -0.002454
0.985319 0.170707 -0.002450
0.985317 0.170716 -0.002461
0.993593 0.022853 0.110685
0.993594 0.022843 0.110676
0.999522 0.002391 0.030817
0.993689 -0.056344 0.096990
0.993691 -0.056332 0.096975
0.996532 -0.082565 0.010337
0.996532 -0.082573 0.010272
0.996528 -0.082618 0.010317
0.996532 -0.082569 0.010312
0.995901 -0.001848 -0.090429
0.995902 -0.001891 -0.090424
0.996246 -0.003717 -0.086484
0.996685 -0.065653 -0.048047
0.996239 -0.071776 -0.048550
0.996238 -0.071763 -0.048581
0.999215 -0.036460 -0.015524
0.995580 -0.069703 -0.062945
0.994520 -0.095284 -0.043026
0.994735 -0.092846 -0.043386
0.995967 0.002410 -0.089687
0.995968 0.002411 -0.089673
0.995932 -0.043334 -0.079010
0.996044 -0.043995 -0.077204
0.995087 0.037781 -0.091515
0.995086 0.037788 -0.091518
0.995087 0.037777 -0.091515
0.992651 0.043536 -0.112914
0.991707 0.062117 -0.112509
0.992578 0.055486 -0.108218
0.998455 -0.005009 -0.055333
0.998301 -0.009986 -0.057402
0.993788 -0.093362 -0.060574
0.991584 -0.115663 -0.058167
0.988839 -0.126162 -0.079257
0.986974 -0.141416 -0.076704
0.987038 -0.140918 -0.076803
0.995318 0.086833 -0.042453
0.995320 0.086818 -0.042438
0.995320 0.086804 -0.042462
0.978938 0.204137 0.002948
0.978928 0.204184 0.002958
0.999408 0.016286 -0.030304
0.999179 -0.037050 0.016373
0.993964 -0.057366 0.093514
0.996536 -0.082502 0.010432
0.996535 -0.082540 0.010261
0.998297 0.055506 -0.017960
0.998301 0.055453 -0.017897
0.998302 0.055429 -0.017883
0.999493 -0.031788 -0.001509
0.997942 -0.055441 0.032222
0.999214 -0.036465 -0.015526
0.996190 -0.084920 0.019865
0.996193 -0.084884 0.019857
0.996819 -0.079317 0.007811
0.996821 -0.079290 0.007802
0.995088 0.037797 -0.091492
0.997870 0.026797 -0.059471
0.997871 0.026780 -0.059465
0.995199 0.034443 -0.091613
0.995198 0.034439 -0.091628
0.996217 0.023463 -0.083669
0.993575 -0.001805 -0.113163
0.993575 -0.001809 -0.113159
0.985168 -0.099323 -0.139927
0.982753 -0.131625 -0.129891
0.988838 -0.126164 -0.079258
0.984108 -0.132150 -0.118609
0.984114 -0.132094 -0.118623
0.995317 0.086830 -0.042474
0.977105 0.145698 -0.155043
0.977095 0.145747 -0.155058
0.977102 0.145697 -0.155059
0.989453 0.089247 -0.114091
0.989945 0.089101 -0.109864
0.980953 0.106554 -0.162413
0.980956 0.106531 -0.162406
0.996443 0.015299 -0.082873
0.996449 0.015251 -0.082808
0.997998 0.060618 -0.018034
0.998000 0.060594 -0.018027
0.998302 0.055449 -0.017848
0.997235 -0.058118 0.046320
0.995502 -0.077472 0.054535
0.995505 -0.077435 0.054527
0.997332 -0.054496 -0.048565
0.995929 -0.086824 0.024223
0.996190 -0.084907 0.019893
0.996657 -0.080893 0.011426
0.996819 -0.079313 0.007834
0.999436 0.015365 -0.029856
0.995503 0.037500 -0.086992
0.994004 0.045171 -0.099577
0.994007 0.045159 -0.099555
0.995197 0.034408 -0.091648
0.993350 0.003721 -0.115078
0.993572 -0.001816 -0.113189
0.985611 -0.083639 -0.146889
0.985161 -0.099326 -0.139969
0.985158 -0.099346 -0.139980
0.993097 -0.079309 -0.086416
0.983933 -0.132324 -0.119862
0.984125 -0.132088 -0.118538
0.975428 0.149309 -0.162011
0.975426 0.149316 -0.162015
0.975428 0.149302 -0.162014
0.977109 0.145684 -0.155031
0.977097 0.145703 -0.155091
0.979561 0.107751 -0.169852
0.980960 0.106529 -0.162384
0.996081 0.019175 -0.086348
0.996446 0.015295 -0.082831
0.997470 0.061477 0.035704
0.997473 0.061423 0.035711
0.997476 0.061364 0.035714
0.993307 -0.043012 0.107201
0.993305 -0.043008 0.107217
0.989224 -0.108162 0.098677
0.989225 -0.108173 0.098654
0.989224 -0.108159 0.098681
0.987672 -0.121710 0.098440
0.987202 -0.124811 0.099269
0.987204 -0.124805 0.099258
0.996997 -0.076114 0.014275
0.996998 -0.076108 0.014244
0.996855 -0.075037 -0.025495
0.996854 -0.075040 -0.025514
0.996527 -0.052018 -0.065028
0.996525 -0.052021 -0.065046
0.990914 -0.014104 -0.133755
0.990969 -0.015031 -0.133243
0.989970 -0.034685 -0.136955
0.989972 -0.034691 -0.136940
0.992106 -0.038134 -0.119466
0.987579 -0.061749 -0.144481
0.987586 -0.061748 -0.144434
0.990272 -0.130141 0.049239
0.990270 -0.130140 0.049285
0.990263 -0.130167 0.049352
0.990261 -0.130179 0.049369
0.990269 -0.130141 0.049309
0.990266 -0.130158 0.049311
0.998371 0.036169 -0.044118
0.998374 0.036154 -0.044072
0.998371 0.036177 -0.044124
0.988513 0.127211 -0.081602
0.988511 0.127231 -0.081599
0.988514 0.127199 -0.081611
0.988514 0.127213 -0.081591
0.997416 0.063277 0.034018
0.997421 0.063195 0.034012
0.997475 0.061390 0.035702
0.996355 0.009699 0.084747
0.986618 -0.097847 0.130425
0.989295 -0.107440 0.098751
0.989222 -0.108163 0.098697
0.989222 -0.108162 0.098697
0.987671 -0.121714 0.098444
0.987669 -0.121726 0.098448
0.987669 -0.121730 0.098445
0.987199 -0.124823 0.099281
0.996973 -0.076173 0.015551
0.996994 -0.076152 0.014245
0.996480 -0.051307 -0.066297
0.996524 -0.052034 -0.065055
0.989884 -0.034559 -0.137609
0.989973 -0.034695 -0.136930
0.987378 -0.062655 -0.145461
0.987584 -0.061718 -0.144458
0.989176 -0.137328 0.051697
0.989172 -0.137364 0.051681
0.990257 -0.130191 0.049406
0.999547 -0.000184 -0.030108
0.991006 0.110937 -0.074833
0.988311 0.128383 -0.082214
0.988516 0.127201 -0.081590
0.988518 0.127199 -0.081562
0.985287 -0.111824 0.129248
0.985286 -0.111856 0.129230
0.985918 -0.122865 0.113445
0.987185 -0.140972 0.074783
0.987941 -0.133773 0.077953
0.987942 -0.133768 0.077949
0.996853 -0.075080 -0.025444
0.994983 -0.099776 0.007333
0.994982 -0.099783 0.007297
0.999251 -0.002674 -0.038605
0.999251 -0.002709 -0.038593
0.999253 -0.002649 -0.038557
0.999252 -0.002685 -0.038565
0.999254 -0.002657 -0.038532
0.998972 -0.013135 0.043388
0.998969 -0.013079 0.043479
0.998971 -0.013134 0.043401
0.998969 -0.013138 0.043464
0.990369 -0.030661 0.135012
0.990364 -0.030642 0.135058
0.990356 -0.030691 0.135105
0.990369 -0.030655 0.135020
0.990365 -0.030657 0.135049
0.990371 -0.030677 0.135000
0.984723 -0.121711 0.124529
0.984724 -0.121716 0.124512
0.984720 -0.121718 0.124541
0.999930 -0.011772 0.001016
0.995699 0.079172 -0.048114
0.999045 0.039823 0.017974
0.999046 0.039805 0.017941
0.984097 -0.100236 0.146646
0.984094 -0.100250 0.146658
0.984095 -0.100252 0.146654
0.985290 -0.111851 0.129199
0.985290 -0.111831 0.129217
0.981109 -0.148195 0.124350
0.993085 -0.112530 0.033440
0.996851 -0.075103 -0.025457
0.994894 -0.100579 0.008377
0.994981 -0.099795 0.007322
0.999255 -0.002634 -0.038495
0.999254 -0.002644 -0.038526
0.999257 -0.002577 -0.038452
0.999613 -0.025412 -0.011273
0.999612 -0.025468 -0.011296
0.999612 -0.025454 -0.011303
0.999612 -0.025468 -0.011265
0.999612 -0.025465 -0.011299
0.990106 -0.081629 0.114136
0.990316 -0.029029 0.135761
0.990355 -0.030691 0.135113
0.982995 -0.128292 0.131386
0.982996 -0.128290 0.131376
0.982991 -0.128302 0.131403
0.982984 -0.128306 0.131452
0.984725 -0.121699 0.124524
0.984724 -0.121706 0.124525
0.994087 -0.035356 0.102669
0.999778 0.010199 0.018445
0.999063 0.038111 0.020512
0.999047 0.039775 0.017960
0.990763 -0.124065 0.054745
0.990763 -0.124056 0.054765
0.990766 -0.124045 0.054732
0.990760 -0.124074 0.054769
0.988012 -0.132178 0.079761
0.992182 -0.121887 0.026792
0.993914 -0.105306 -0.032331
0.992638 -0.120207 0.014829
0.992697 -0.119850 0.013719
0.999548 0.027391 -0.012395
0.999549 0.027349 -0.012410
0.999600 0.026363 -0.010240
0.994092 -0.017620 0.107097
0.994092 -0.017655 0.107093
0.995639 -0.028096 0.088963
0.984090 -0.030344 0.175061
0.984085 -0.030360 0.175084
0.984026 -0.030679 0.175360
0.978732 -0.055645 0.197453
0.968446 -0.106300 0.225416
0.968452 -0.106280 0.225402
0.968645 -0.105747 0.224819
0.968642 -0.105744 0.224837
0.982953 -0.051715 0.176434
0.982956 -0.051708 0.176419
0.982898 -0.052067 0.176638
0.982900 -0.052041 0.176631
0.922598 -0.031816 -0.384449
0.917804 0.011830 -0.396857
0.922590 -0.031763 -0.384472
0.906235 -0.010685 -0.422640
0.903018 -0.057534 -0.425733
0.899881 -0.034312 -0.434783
0.886366 -0.075492 -0.456789
0.901481 -0.076103 -0.426076
0.882653 -0.076256 -0.463798
0.923656 -0.036562 -0.381474
0.834876 -0.051296 -0.548042
0.923626 -0.036524 -0.381551
0.880264 -0.079185 -0.467830
0.836165 -0.050318 -0.546165
0.858379 -0.055469 -0.510009
0.865697 -0.082225 -0.493769
0.865644 -0.082233 -0.493861
0.831107 -0.104517 -0.546203
0.833889 -0.060467 -0.548610
0.831096 -0.104446 -0.546233
0.831080 -0.104585 -0.546231
0.833987 -0.060486 -0.548459
0.826390 -0.023437 -0.562610
0.826382 -0.023468 -0.562620
0.833907 -0.060450 -0.548584
0.848406 0.017761 -0.529047
0.835585 0.009838 -0.549274
0.888102 0.011235 -0.459510
0.879749 0.026555 -0.474696
0.910789 0.015960 -0.412563
0.910770 0.015969 -0.412606
0.903615 -0.019500 -0.427902
0.903618 -0.019500 -0.427894
0.898614 -0.013857 -0.438522
0.888146 -0.046234 -0.457229
0.865940 -0.111058 -0.487661
0.880533 -0.077483 -0.467608
0.865948 -0.111056 -0.487647
0.851738 -0.134379 -0.506444
0.845648 -0.163300 -0.508146
0.861342 -0.142093 -0.487750
0.952896 -0.094593 -0.288169
0.936579 -0.075848 -0.342152
0.952898 -0.094605 -0.288158
0.917473 -0.058744 -0.393436
0.936570 -0.075844 -0.342177
0.936553 -0.075867 -0.342218
0.953823 -0.066812 -0.292843
0.942408 -0.044276 -0.331521
0.940694 0.019837 -0.338675
0.939745 0.021703 -0.341187
0.921389 -0.037344 -0.386844
0.924420 -0.031891 -0.380040
0.924426 -0.031883 -0.380025
0.921386 -0.037338 -0.386850
0.915842 -0.036773 -0.399851
0.915819 -0.036727 -0.399908
0.921750 -0.031259 -0.386524
0.921385 -0.037333 -0.386854
0.910582 -0.026420 -0.412483
0.923682 -0.036524 -0.381416
0.869521 -0.107247 -0.482111
0.869507 -0.107187 -0.482151
0.808497 -0.112574 -0.577632
0.791849 -0.085000 -0.604772
0.813659 -0.042881 -0.579759
0.822645 -0.030640 -0.567729
0.924854 0.071308 -0.373577
0.897933 0.188782 -0.397589
0.886378 -0.075496 -0.456765
0.886368 -0.075505 -0.456784
0.886353 -0.075481 -0.456816
0.882648 -0.076245 -0.463810
0.830399 -0.004695 -0.557149
0.850350 -0.090756 -0.518333
0.882226 0.022983 -0.470264
0.897376 0.195551 -0.395571
0.961946 -0.106640 -0.251570
0.961261 -0.056531 -0.269781
0.961245 -0.056369 -0.269870
0.945518 -0.006300 -0.325508
0.945486 -0.006251 -0.325603
0.938823 0.041840 -0.341850
0.973771 -0.067451 -0.217301
0.973771 -0.067439 -0.217307
0.948457 -0.008891 -0.316782
0.916947 0.022617 -0.398367
0.920635 0.079361 -0.382274
0.901618 0.017913 -0.432163
0.935813 -0.093537 -0.339861
0.907638 -0.080169 -0.412026
0.958195 -0.058800 -0.280009
0.982639 0.017433 -0.184707
0.962849 -0.041051 -0.266901
0.962827 -0.040929 -0.267001
0.974913 -0.083754 -0.206226
0.982133 0.037940 -0.184324
0.904306 0.103576 -0.414129
0.924769 -0.040924 -0.378321
0.926779 0.049306 -0.372358
0.923671 -0.036477 -0.381447
0.912567 -0.053528 -0.405409
0.917802 0.102068 -0.383695
0.932894 -0.039665 -0.357960
0.941920 0.050202 -0.332065
0.949889 -0.004051 -0.312561
0.959924 0.021249 -0.279455
0.948397 0.011218 -0.316888
0.955938 -0.005441 -0.293518
0.940303 0.014143 -0.340046
0.938182 -0.039882 -0.343838
0.827777 -0.099912 -0.552089
0.827760 -0.099921 -0.552113
0.813135 -0.090370 -0.575018
0.837915 -0.105301 -0.535546
0.925536 -0.059364 -0.373977
0.939738 0.021772 -0.341202
0.940696 0.019910 -0.338667
0.939728 0.021752 -0.341231
0.939731 0.021802 -0.341218
0.938352 0.082464 -0.335701
0.924826 0.066145 -0.374596
0.924827 0.066147 -0.374594
0.950742 0.100501 -0.293239
0.950740 0.100514 -0.293240
0.938366 0.082470 -0.335660
0.938006 0.085289 -0.335962
0.977536 -0.034126 -0.207987
0.977535 -0.034175 -0.207985
0.978036 -0.035077 -0.205464
0.978038 -0.035017 -0.205465
0.977534 -0.034172 -0.207991
0.977533 -0.034197 -0.207992
0.971781 -0.155708 -0.177194
0.972165 -0.148658 -0.181094
0.968521 -0.170068 -0.181782
0.961327 -0.205087 -0.183819
0.956443 -0.179243 -0.230410
0.956442 -0.179231 -0.230424
0.954610 -0.225481 -0.194624
0.954388 -0.228376 -0.192324
0.954619 -0.225445 -0.194623
0.954619 -0.225452 -0.194614
0.954623 -0.225427 -0.194623
0.954624 -0.225439 -0.194604
0.952431 -0.172841 -0.250999
0.951813 -0.187205 -0.242913
0.952427 -0.172827 -0.251025
0.952440 -0.172844 -0.250963
0.945535 0.027719 -0.324339
0.952940 0.021936 -0.302363
0.941525 0.066204 -0.330376
0.921069 0.148772 -0.359860
0.843910 0.294509 -0.448421
0.842778 0.297517 -0.448563
0.842784 0.297508 -0.448557
0.867433 0.243338 -0.433989
0.867423 0.243355 -0.433999
0.867402 0.243380 -0.434027
0.893854 0.210525 -0.395860
0.838469 0.275574 -0.470138
0.838479 0.275566 -0.470124
0.845824 0.210533 -0.490162
0.842987 0.250542 -0.476027
0.845834 0.210518 -0.490150
0.845840 0.210526 -0.490136
0.845835 0.210519 -0.490149
0.846039 0.168537 -0.505780
0.846043 0.168542 -0.505771
0.862880 0.239527 -0.445045
0.880515 0.112511 -0.460472
0.880508 0.112506 -0.460488
0.880517 0.112506 -0.460470
0.880521 0.112476 -0.460470
0.880510 0.112437 -0.460500
0.883884 -0.065937 -0.463035
0.893206 -0.040076 -0.447858
0.872347 -0.094366 -0.479694
0.883874 -0.065944 -0.463053
0.872338 -0.094385 -0.479706
0.911813 0.002711 -0.410597
0.827436 -0.192143 -0.527665
0.829447 -0.188999 -0.525640
0.827432 -0.192147 -0.527669
0.827430 -0.192149 -0.527673
0.829458 -0.188999 -0.525622
0.829462 -0.189015 -0.525610
0.829442 -0.189001 -0.525646
0.829454 -0.188999 -0.525629
0.829462 -0.189003 -0.525614
0.835517 -0.112151 -0.537897
0.828320 -0.129150 -0.545166
0.835539 -0.112151 -0.537863
0.835531 -0.112135 -0.537879
0.835531 -0.112134 -0.537880
0.841584 -0.096790 -0.531383
0.836312 -0.077903 -0.542690
0.850286 -0.057007 -0.523224
0.859736 -0.053249 -0.507955
0.850289 -0.056999 -0.523220
0.850294 -0.057006 -0.523212
0.866429 -0.017749 -0.498984
0.879674 0.006560 -0.475532
0.879676 0.006544 -0.475529
0.879877 0.008977 -0.475116
0.888006 -0.010576 -0.459710
0.887421 -0.012086 -0.460802
0.887418 -0.012075 -0.460807
0.979259 -0.005371 -0.202539
0.993810 0.101020 0.046221
0.995799 -0.073494 -0.054624
0.992671 -0.059234 -0.105337
0.827499 -0.049881 -0.559246
0.836185 -0.050328 -0.546134
0.827466 -0.049964 -0.559289
0.836196 -0.050284 -0.546121
0.836153 -0.050351 -0.546180
0.823241 -0.049118 -0.565563
0.862238 -0.037721 -0.505097
0.834469 -0.060090 -0.547769
0.862265 -0.037734 -0.505050
0.853046 -0.046470 -0.519762
0.859650 -0.059708 -0.507382
0.869781 -0.041800 -0.491665
0.876492 -0.044368 -0.479367
0.883590 -0.023578 -0.467668
0.896858 -0.043552 -0.440170
0.910466 -0.021574 -0.413021
0.925929 -0.020950 -0.377117
0.849815 0.088608 -0.519579
0.849790 0.088614 -0.519620
0.849975 0.088699 -0.519302
0.876494 0.017460 -0.481096
0.830529 0.086877 -0.550159
0.833813 0.087714 -0.545035
0.827011 0.056553 -0.559335
0.828345 -0.054402 -0.557570
0.827761 -0.132257 -0.545271
0.982647 0.017419 -0.184666
0.962287 0.083138 -0.259020
0.983257 0.020132 -0.181107
0.922599 0.086512 -0.375934
0.959437 0.005876 -0.281864
0.925808 0.078796 -0.369690
0.953845 -0.031764 -0.298615
0.906914 -0.159386 -0.390004
0.957243 -0.100760 -0.271171
0.918371 -0.182851 -0.350943
0.970864 -0.101544 -0.217053
0.943649 -0.125057 -0.306411
0.974824 -0.116023 -0.190413
0.925932 -0.020897 -0.377113
0.920659 -0.037375 -0.388574
0.961946 -0.106640 -0.251570
0.972518 0.028489 -0.231076
0.981681 -0.020610 -0.189414
0.983388 -0.009854 -0.181247
0.986008 -0.063919 -0.153960
0.971677 0.020332 -0.235435
0.995278 -0.071105 -0.066075
0.982019 0.000741 -0.188782
0.989923 -0.082052 -0.115412
0.996039 -0.032603 0.082728
0.981743 -0.159324 -0.103911
0.971177 -0.094582 -0.218792
0.981729 -0.159358 -0.103991
0.839862 -0.057934 -0.539700
0.839841 -0.058005 -0.539725
0.834857 -0.051335 -0.548067
0.878712 -0.020784 -0.476899
0.876998 -0.007334 -0.480438
0.878726 -0.020752 -0.476875
0.893205 0.011726 -0.449497
0.913807 -0.006641 -0.406095
0.906616 0.015307 -0.421678
0.924871 0.071350 -0.373527
0.933639 -0.005529 -0.358173
0.958080 0.011597 -0.286266
0.958075 0.011551 -0.286285
0.933644 -0.005565 -0.358159
0.963741 -0.128075 -0.234095
0.954833 -0.040015 -0.294436
0.943037 0.011659 -0.332484
0.943042 0.011755 -0.332465
0.943050 0.011638 -0.332446
0.936248 -0.149790 -0.317809
0.947355 -0.151644 -0.281998
0.947048 -0.151615 -0.283044
0.947052 -0.151607 -0.283032
0.947044 -0.151594 -0.283067
0.944849 -0.239543 -0.223339
0.944852 -0.239551 -0.223315
0.944826 -0.236811 -0.226327
0.944835 -0.236759 -0.226346
0.944829 -0.236804 -0.226322
0.944832 -0.236801 -0.226314
0.968679 -0.137983 -0.206450
0.972314 -0.062789 -0.225083
0.974492 -0.050964 -0.218560
0.974484 -0.050895 -0.218609
0.958692 0.103632 -0.264897
0.930940 0.149260 -0.333275
0.938783 0.139220 -0.315127
0.873000 0.216348 -0.437109
0.875043 0.213970 -0.434185
0.875031 0.213987 -0.434201
0.875038 0.213958 -0.434201
0.875032 0.213956 -0.434214
0.870395 0.116391 -0.478400
0.871706 0.109710 -0.477591
0.871708 0.109678 -0.477594
0.871716 0.109683 -0.477578
0.878284 -0.049904 -0.475528
0.877654 -0.053218 -0.476331
0.878286 -0.049940 -0.475520
0.878298 -0.049892 -0.475504
0.862979 -0.179192 -0.472395
0.863898 -0.203253 -0.460834
0.862931 -0.179180 -0.472489
0.863900 -0.203260 -0.460828
0.862934 -0.179186 -0.472479
0.861291 -0.155178 -0.483836
0.862939 -0.179172 -0.472477
0.941349 -0.115897 -0.316907
0.880102 -0.134122 -0.455446
0.880086 -0.134159 -0.455466
0.881422 -0.132810 -0.453274
0.881429 -0.132795 -0.453265
0.881440 -0.132795 -0.453242
0.890592 -0.049683 -0.452081
0.889560 -0.048335 -0.454253
0.890594 -0.049671 -0.452079
0.888875 0.018304 -0.457783
0.888632 0.018424 -0.458250
0.888628 0.018413 -0.458258
0.888874 0.018300 -0.457785
0.888879 0.018301 -0.457775
0.902455 0.014592 -0.430537
0.902453 0.014627 -0.430540
0.902458 0.014590 -0.430531
0.902463 0.014582 -0.430521
0.910570 0.009227 -0.413252
0.910530 0.009256 -0.413340
0.910527 0.009255 -0.413345
0.910570 0.009229 -0.413251
0.865142 -0.171888 -0.471151
0.966426 0.011619 -0.256683
0.980790 0.080592 -0.177637
0.972545 0.068028 -0.222552
0.966430 0.011602 -0.256667
0.959875 -0.032337 -0.278558
0.952665 -0.006032 -0.303961
0.969106 0.005981 -0.246571
0.941835 -0.028975 -0.334825
0.965825 -0.036242 -0.256649
0.935260 -0.046953 -0.350833
0.962908 -0.076884 -0.258643
0.925668 -0.116052 -0.360098
0.947012 -0.139081 -0.289526
0.951262 -0.128609 -0.280287
0.981865 -0.159484 0.102494
0.981468 -0.144037 0.126385
0.990416 -0.117992 0.071790
0.977929 -0.160282 0.134030
0.984213 -0.145893 0.100196
0.992164 -0.124939 0.001131
0.989781 -0.139727 0.028471
0.989703 -0.134517 0.048929
0.987663 -0.096687 0.123183
0.858785 0.055843 -0.509284
0.879757 0.026533 -0.474682
0.858772 0.055865 -0.509303
0.881830 0.036393 -0.470160
0.893467 -0.003929 -0.449111
0.904372 0.051177 -0.423665
0.899128 -0.022919 -0.437084
0.892926 0.017166 -0.449876
0.906286 0.017833 -0.422289
0.905353 0.001950 -0.424655
0.911045 -0.019713 -0.411835
0.903974 0.012007 -0.427419
0.913206 -0.012767 -0.407299
0.920912 -0.048368 -0.386759
0.912489 -0.029837 -0.408011
0.933023 -0.091730 -0.347927
0.920499 -0.050832 -0.387425
0.912495 -0.029890 -0.407994
0.930918 -0.106300 -0.349416
0.925591 -0.077899 -0.370422
0.925301 -0.101252 -0.365466
0.904277 0.103602 -0.414185
0.904283 0.103582 -0.414179
0.875944 0.164786 -0.453395
0.904239 0.103524 -0.414289
0.902311 0.148029 -0.404872
0.902245 0.148045 -0.405014
0.904987 0.114860 -0.409641
0.909975 0.022577 -0.414048
0.904939 -0.075040 -0.418872
0.888296 -0.089499 -0.450467
0.888331 -0.089409 -0.450415
0.902946 -0.070951 -0.423857
0.870136 -0.073041 -0.487369
0.886952 -0.084435 -0.454079
0.885754 -0.070263 -0.458807
0.884878 -0.069589 -0.460596
0.994605 -0.092132 0.047667
0.997625 -0.056181 -0.039863
0.986929 0.113084 -0.114821
0.986073 0.126005 -0.108548
0.991978 -0.123580 -0.026598
0.996927 0.007734 -0.077954
0.988611 -0.117034 0.094614
0.993607 0.075454 -0.083973
0.923703 -0.036493 -0.381367
0.904692 -0.071375 -0.420045
0.900713 0.016301 -0.434109
0.921327 0.033676 -0.387327
0.903223 0.027607 -0.428284
0.925422 0.016384 -0.378584
0.910765 0.015981 -0.412615
0.906127 0.031147 -0.421858
0.910763 0.015980 -0.412619
0.908407 0.022961 -0.417455
0.898616 -0.013773 -0.438519
0.905492 -0.042701 -0.422209
0.870106 -0.073063 -0.487418
0.852813 -0.097260 -0.513080
0.887420 -0.012093 -0.460802
0.887420 -0.012106 -0.460802
0.887426 -0.012109 -0.460792
0.887420 -0.012115 -0.460802
0.887419 -0.012109 -0.460805
0.898674 0.000810 -0.438616
0.898665 0.000798 -0.438634
0.898671 0.000822 -0.438623
0.898677 0.000829 -0.438610
0.898671 0.000823 -0.438623
0.898674 0.000833 -0.438615
0.898678 0.000832 -0.438609
0.958582 -0.126871 -0.255000
0.961288 -0.128673 -0.243656
0.958582 -0.126868 -0.255000
0.960409 -0.132016 -0.245328
0.951401 -0.001058 -0.307954
0.981441 0.073293 -0.177204
0.982137 0.037865 -0.184316
0.981444 0.073211 -0.177222
0.986607 -0.015230 -0.162405
0.982545 0.012098 -0.185629
0.984479 -0.023656 -0.173903
0.984626 -0.018852 -0.173655
0.981806 -0.045280 -0.184407
0.981640 -0.072245 -0.176529
0.980554 -0.077896 -0.180127
0.976695 -0.100776 -0.189501
0.980015 -0.095285 -0.174619
0.965093 -0.120568 -0.232507
0.984396 -0.092602 -0.149629
0.964294 -0.081349 -0.252030
0.986333 -0.162659 0.026269
0.988610 -0.117026 0.094636
0.842797 0.297496 -0.448540
0.843915 0.294535 -0.448393
0.843903 0.294530 -0.448418
0.845913 0.210439 -0.490048
0.845848 0.210511 -0.490128
0.845852 0.210525 -0.490116
0.880557 0.112454 -0.460405
0.880550 0.112474 -0.460415
0.883892 -0.065900 -0.463024
0.883915 -0.065900 -0.462980
0.888009 -0.010593 -0.459705
0.887422 -0.012097 -0.460799
0.887419 -0.012104 -0.460804
0.887428 -0.012109 -0.460786
0.899395 0.002066 -0.437132
0.898148 0.001071 -0.439691
0.999947 -0.000109 0.010282
0.999947 -0.000110 0.010266
0.999849 0.003778 0.016933
0.936252 -0.149783 -0.317799
0.938782 0.139228 -0.315126
0.920811 0.153185 -0.358667
0.851402 0.090044 -0.516727
0.854509 -0.017838 -0.519130
0.886995 0.003106 -0.461768
0.862921 -0.179194 -0.472501
0.941347 -0.115902 -0.316910
0.941354 -0.115887 -0.316894
0.941354 -0.115876 -0.316900
0.941353 -0.115849 -0.316913
0.986226 0.130211 -0.101996
0.986143 0.118205 -0.116403
0.985937 0.136713 -0.096114
0.986223 0.130143 -0.102111
0.993062 0.114007 -0.028803
0.993058 0.114060 -0.028738
0.993062 0.113999 -0.028830
0.991695 0.114750 -0.058079
0.993797 0.101151 0.046221
0.994223 0.106506 0.013315
0.999947 -0.000063 0.010271
0.999947 -0.000099 0.010274
0.999944 -0.000694 0.010605
0.999641 -0.025233 0.009027
0.999640 -0.025257 0.009019
0.998683 -0.047084 -0.020381
0.998682 -0.047099 -0.020394
0.999617 -0.014102 -0.023792
0.999616 -0.014159 -0.023832
0.999596 -0.004800 -0.028013
0.999595 -0.004787 -0.028042
0.999597 -0.004759 -0.027994
0.999594 -0.004828 -0.028082
0.999597 -0.004770 -0.027998
0.999597 -0.004761 -0.027979
0.996472 0.068169 0.048962
0.996472 0.068155 0.048966
0.996471 0.068163 0.048973
0.996472 0.068151 0.048983
0.998417 0.054024 0.015619
0.998601 0.048558 0.020944
0.998601 0.048561 0.020947
0.997033 0.050946 0.057697
0.997034 0.050941 0.057686
0.997033 0.050949 0.057699
0.997035 0.050929 0.057679
0.997034 0.050932 0.057702
0.997035 0.050920 0.057694
0.997291 0.007197 0.073206
0.997292 0.007198 0.073186
0.997291 0.007194 0.073198
0.997292 0.007193 0.073189
0.994876 -0.066544 0.076114
0.994876 -0.066549 0.076109
0.994876 -0.066550 0.076112
0.994874 -0.066561 0.076122
0.994876 -0.066555 0.076113
0.997461 -0.041260 0.058037
0.997460 -0.041281 0.058048
0.990364 -0.133150 0.038073
0.991849 -0.100630 0.078157
0.991849 -0.100627 0.078161
0.991851 -0.100639 0.078119
0.991849 -0.100630 0.078159
0.991312 -0.119768 0.054368
0.991304 -0.119828 0.054382
0.991312 -0.119764 0.054375
0.998524 -0.038661 0.038140
0.998526 -0.038628 0.038134
0.998526 -0.038639 0.038128
0.999816 0.013396 0.013701
0.999817 0.013341 0.013681
0.999507 0.031384 -0.000987
0.999507 0.031372 -0.000992
0.999949 -0.008088 -0.006129
0.999949 -0.008090 -0.006124
0.997956 -0.062098 0.015089
0.997955 -0.062117 0.015079
0.992593 -0.121475 -0.001451
0.992594 -0.121472 -0.001463
0.992945 -0.118364 -0.007095
0.992945 -0.118367 -0.007109
0.921744 -0.031239 -0.386538
0.914375 -0.028776 -0.403845
0.910570 -0.026377 -0.412513
0.914537 -0.026230 -0.403652
0.903398 -0.031612 -0.427637
0.914367 -0.028792 -0.403861
0.902035 -0.030025 -0.430617
0.897665 -0.040537 -0.438809
0.902021 -0.029978 -0.430649
0.899066 -0.035574 -0.436365
0.892710 -0.009318 -0.450535
