0.996160 -0.086762 -0.011723
0.999605 -0.009483 0.026454
0.995064 -0.094688 0.029686
0.996346 -0.032856 -0.078833
0.996951 0.018711 -0.075757
0.999266 -0.035797 0.013669
0.998467 0.030265 -0.046343
0.999851 0.007012 -0.015743
0.999947 -0.008985 -0.005068
0.999906 0.006231 0.012196
0.999057 -0.037699 -0.021532
0.999928 -0.004535 -0.011121
0.999228 -0.031767 0.023115
0.999067 -0.012730 -0.041260
0.999456 0.029269 -0.015217
0.999559 0.002217 -0.029599
0.999273 -0.029340 0.024330
0.998559 -0.011982 -0.052319
0.999173 -0.020894 -0.034876
0.999859 0.016770 -0.001135
0.999109 0.007701 0.041490
0.999541 -0.027161 -0.013399
0.997378 -0.053110 -0.049162
0.997042 -0.002148 -0.076827
0.997885 0.062469 -0.017979
0.999374 0.035367 0.000459
0.997720 -0.063365 0.023216
0.995098 -0.098821 -0.003692
0.998626 0.019952 -0.048454
0.998550 -0.052677 -0.011079
0.999836 -0.014928 -0.010258
0.998808 -0.047590 -0.010819
0.999316 -0.000758 -0.036975
0.999090 0.001346 -0.042626
0.998563 -0.007132 -0.053109
0.999641 0.025832 0.007139
0.998679 -0.051352 0.001536
0.991669 0.063209 -0.112239
0.992382 0.122648 -0.011595
0.992982 -0.108493 0.047078
0.994980 -0.050280 0.086531
0.988772 -0.125005 0.081871
0.998808 -0.026434 0.041036
0.999411 -0.020601 -0.027452
0.999605 0.028099 -0.000508
0.998516 -0.053749 0.008807
0.999364 -0.013435 -0.033017
0.998713 -0.029727 -0.041086
0.998910 0.037955 -0.027154
0.996321 0.035439 -0.078024
0.997486 0.070554 -0.006658
0.999219 -0.038274 0.009783
0.998932 0.029185 -0.035821
0.999221 0.001566 -0.039445
0.999282 0.032225 0.019949
0.998438 0.054781 0.010945
0.971003 0.233865 0.049602
0.999640 0.010843 0.024561
0.996072 -0.063252 -0.061970
0.998119 0.018498 -0.058444
0.994653 0.032273 -0.098105
0.997273 0.057791 -0.045889
0.991929 -0.107608 0.067069
0.999224 -0.038711 0.007205
0.999010 -0.024291 0.037277
0.998285 0.015851 -0.056358
0.999687 0.024999 -0.001126
0.998046 0.057747 -0.023852
0.999078 0.038204 -0.019605
0.997511 -0.069651 0.010986
0.996740 -0.080488 -0.005616
0.999913 0.011649 0.006194
0.998608 0.052703 0.002074
0.998562 -0.013063 0.051985
0.999402 0.021297 -0.027230
0.999906 -0.010475 0.008818
0.992943 -0.116651 0.021371
0.999406 -0.034350 0.002895
0.989219 -0.124176 -0.077624
0.999769 0.015610 -0.014746
0.998237 0.038925 -0.044800
0.998924 -0.011737 -0.044876
0.999468 -0.024376 -0.021682
0.999393 -0.009476 -0.033538
0.995115 -0.001785 -0.098706
0.996666 0.074801 -0.032591
0.999978 0.004298 0.005068
0.994966 0.100111 0.004550
0.995388 -0.018727 -0.094087
0.987111 -0.159203 -0.016297
0.998499 -0.050164 0.021992
0.985485 -0.166902 -0.031043
0.990177 -0.136627 0.029698
0.997678 0.053924 0.041594
0.999537 -0.029344 -0.008035
0.997169 -0.033843 0.067142
0.999186 0.002354 0.040272
0.998804 0.045078 -0.018931
0.999937 0.001969 0.011015
0.998306 -0.043878 -0.038207
0.995261 0.082180 -0.051982
0.998158 -0.041893 -0.043874
0.999757 0.005951 0.021219
0.999732 0.003780 0.022838
0.999367 0.024118 0.026134
0.998818 -0.040510 0.026849
0.996266 0.084294 0.018676
0.999567 -0.024416 -0.016395
0.997534 -0.067569 0.018965
0.998301 -0.032532 0.048337
0.999061 -0.043318 0.000493
0.999855 -0.010826 0.013170
0.993000 -0.118116 -0.000029
0.997409 -0.056679 0.044309
0.998030 -0.012494 0.061478
0.995411 -0.029939 0.090891
0.997208 0.009845 -0.074027
0.999662 -0.002855 -0.025859
0.987112 -0.160028 -0.000546
0.995607 -0.093192 -0.009091
0.999691 -0.022360 0.010852
0.997865 0.018328 0.062683
0.997952 -0.047669 0.042660
0.999635 -0.014122 0.023016
0.999411 -0.031486 -0.013618
0.998057 -0.062147 0.004448
0.991145 -0.108902 0.075967
0.998036 0.056342 -0.027386
0.999079 0.036314 -0.022837
0.999876 0.015303 -0.003681
0.999657 -0.009213 -0.024498
0.999966 -0.007635 -0.003264
0.998655 0.017747 -0.048711
0.999593 -0.007697 -0.027473
0.996120 -0.087671 -0.007699
0.999569 -0.026258 0.013106
0.995441 -0.067427 0.067457
0.996682 -0.078318 0.022174
0.995819 -0.082462 -0.039313
0.951868 -0.303675 -0.041590
0.995080 -0.095460 -0.026502
0.999787 0.017348 0.011180
0.997968 0.063667 0.002474
0.998350 -0.046272 0.033996
0.998263 0.004736 0.058725
0.998874 0.032099 0.034943
0.986611 -0.161091 -0.025477
0.999095 -0.002476 0.042464
0.999505 -0.027229 0.015774
0.999632 -0.002532 -0.026999
0.996010 -0.017378 -0.087537
0.999783 -0.005985 0.019951
0.999645 0.026283 0.004294
0.998504 0.030534 -0.045351
0.997702 -0.031921 0.059771
0.999877 0.003271 0.015307
0.997788 -0.040798 -0.052476
0.996953 -0.004038 -0.077899
0.999587 0.028303 0.005021
0.997110 -0.070695 0.027830
0.983798 -0.162577 -0.075565
0.985086 -0.094967 -0.143482
0.995616 0.071357 0.060475
0.988557 -0.018962 -0.149655
0.987270 -0.059469 0.147519
0.999230 -0.003905 0.039030
0.997356 -0.015709 0.070954
0.995777 -0.049794 0.077129
0.983541 -0.112210 0.141621
0.984840 -0.113511 0.131166
0.999108 0.020007 0.037195
0.999581 -0.028949 -0.000435
0.998743 0.044861 0.022358
0.998994 0.010697 0.043544
0.997756 -0.034591 0.057333
0.995004 -0.069410 0.071759
0.996544 0.050162 0.066204
0.996567 -0.054528 0.062300
0.999360 0.033544 -0.012450
0.999820 0.017905 0.006296
0.999468 -0.003286 0.032447
0.999719 -0.009231 0.021835
0.999934 0.010327 -0.005043
0.998583 0.017408 0.050284
0.995855 0.010823 0.090305
0.997391 -0.057608 -0.043499
0.999109 -0.018191 -0.038083
0.991930 -0.123816 -0.027301
0.964623 0.248823 0.087120
0.996430 -0.065478 0.053291
0.999137 0.035225 0.022006
0.995992 0.087834 0.016907
0.998905 0.044766 0.013576
0.999200 0.030838 -0.025465
0.999736 0.012403 -0.019364
0.999203 -0.008334 -0.039041
0.999375 0.009797 0.033976
0.997687 0.063135 -0.025204
0.999502 0.010557 -0.029740
0.998301 0.042841 -0.039484
0.996426 0.044796 0.071615
0.998950 0.044810 0.009555
0.999051 -0.043178 -0.005642
0.998058 -0.062035 -0.005706
0.998874 0.042748 -0.020575
0.996533 0.076096 -0.033650
0.995612 0.093294 0.007299
0.999112 -0.006340 0.041647
0.997056 0.032344 -0.069515
0.996800 0.074512 -0.028931
0.999122 -0.040202 -0.011786
0.991656 -0.128771 -0.006000
0.998166 0.003761 0.060412
0.992674 -0.028526 0.117406
0.999931 -0.011222 -0.003476
0.992718 -0.108185 0.052986
0.994616 0.102563 0.014810
0.999109 0.039018 0.016090
0.999579 0.011945 -0.026445
0.998970 0.028464 -0.035328
0.998403 0.055929 -0.007908
0.997225 0.029103 -0.068528
0.999917 -0.000181 -0.012915
0.998723 0.043602 -0.025519
0.996641 0.080899 -0.012756
0.995696 -0.046211 0.080338
0.997974 -0.063090 0.008234
0.999898 0.003687 -0.013834
0.996607 0.026210 -0.078020
0.993881 -0.099390 -0.048180
0.999647 -0.024088 -0.011177
0.999062 -0.034411 -0.026283
0.999918 0.011798 0.004923
0.997116 -0.037714 0.065856
0.998945 0.034013 -0.030859
0.998452 0.055585 -0.002053
0.995226 0.094158 0.025682
0.999456 -0.013308 0.030191
0.998633 -0.027749 -0.044300
0.984669 -0.066369 0.161313
0.996613 -0.051416 0.064180
0.992942 0.014732 0.117681
0.990407 0.013037 0.137564
0.996520 0.007951 0.082979
0.999417 0.020654 -0.027179
0.968541 -0.009633 -0.248666
0.998882 -0.046610 0.007880
0.999485 0.021777 -0.023555
0.999389 0.016142 -0.030999
0.995449 -0.086136 0.040770
0.994654 -0.017560 0.101764
0.998557 -0.001126 -0.053686
0.998898 0.046753 -0.004176
0.999974 0.007023 0.001567
0.989182 -0.123334 -0.079421
0.993868 0.109939 -0.011862
0.998551 -0.038652 0.037442
0.999808 -0.000895 0.019576
0.998516 0.017114 -0.051709
0.998936 -0.001423 0.046086
0.996398 -0.083484 0.014875
0.997987 -0.019059 -0.060483
0.983150 0.002231 -0.182790
0.998460 -0.027361 -0.048260
0.999279 -0.021498 0.031295
0.994625 0.091416 -0.048633
0.996826 0.078217 0.014858
0.998022 -0.046806 0.041961
0.998951 0.001126 0.045774
0.987264 0.158756 0.010314
0.999640 -0.023545 0.012895
0.999707 0.021796 -0.010540
0.995258 -0.091081 0.034149
0.997016 0.069457 0.033675
0.999774 -0.020040 -0.007053
0.996886 0.077023 0.016925
