0.525330 0.382619 0.842165 0.350052 0.605392
0.525142 0.398786 0.843519 0.350052 0.611145
0.541337 0.398136 0.842256 0.355805 0.611145
0.527308 0.398696 0.843370 0.350828 0.611145
0.541337 0.382160 0.841140 0.355805 0.605392
0.557641 0.381898 0.840280 0.361558 0.605392
0.558095 0.397372 0.840294 0.361558 0.611145
0.573929 0.381909 0.839512 0.367312 0.605392
0.574195 0.397517 0.839974 0.367312 0.611145
0.590252 0.382246 0.838978 0.373065 0.605392
0.590252 0.398071 0.840265 0.373065 0.611145
0.665591 0.403939 0.843370 0.399954 0.611145
0.670846 0.387194 0.841465 0.401831 0.605392
0.670879 0.401068 0.843370 0.401831 0.609986
0.654849 0.386056 0.840757 0.396078 0.605392
0.654653 0.402682 0.842411 0.396078 0.611145
0.670832 0.404576 0.843846 0.401831 0.611145
0.687082 0.389131 0.843059 0.407585 0.605392
0.687022 0.391901 0.843370 0.407585 0.606338
0.686797 0.406294 0.845148 0.407585 0.611145
0.689030 0.389441 0.843370 0.408231 0.605392
0.703500 0.409144 0.847677 0.413338 0.611145
0.703987 0.392050 0.845738 0.413338 0.605392
0.719653 0.393277 0.846780 0.419091 0.605392
0.719240 0.410499 0.848850 0.419091 0.611145
0.722212 0.410806 0.849124 0.420162 0.611145
0.735229 0.403357 0.849124 0.424845 0.608262
0.735312 0.394540 0.847882 0.424845 0.605392
0.750919 0.395609 0.848842 0.430598 0.605392
0.750914 0.397423 0.849124 0.430598 0.605973
0.735162 0.412223 0.850379 0.424845 0.611145
0.750833 0.413494 0.851604 0.430598 0.611145
0.621561 0.450633 0.846981 0.384572 0.628405
0.605542 0.449100 0.846182 0.378818 0.628405
0.622026 0.415939 0.841919 0.384572 0.616898
0.589977 0.430808 0.843373 0.373065 0.622652
0.589977 0.430785 0.843370 0.373065 0.622644
0.590091 0.414156 0.841424 0.373065 0.616898
0.589611 0.447931 0.845735 0.373065 0.628405
0.646812 0.454092 0.849124 0.393512 0.628405
0.654219 0.437233 0.846951 0.396078 0.622652
0.654080 0.451074 0.849124 0.396078 0.627112
0.637862 0.452814 0.848329 0.390325 0.628405
0.654340 0.419729 0.844468 0.396078 0.616898
0.653988 0.455157 0.849787 0.396078 0.628405
0.020000 0.485869 0.849124 0.168078 0.639911
0.029759 0.452023 0.846782 0.171700 0.628405
0.045636 0.465581 0.849124 0.177453 0.632731
0.045473 0.452183 0.847529 0.177453 0.628405
0.014037 0.451969 0.846111 0.165947 0.628405
0.014128 0.485645 0.848719 0.165947 0.639911
0.045681 0.469950 0.849585 0.177453 0.634158
0.045801 0.486987 0.850946 0.177453 0.639911
0.014021 0.493558 0.849124 0.165947 0.642634
0.046737 0.519840 0.852191 0.177453 0.651418
0.014060 0.518731 0.850197 0.165947 0.651418
0.079848 0.520047 0.853666 0.188960 0.651418
0.063116 0.520020 0.852757 0.183207 0.651418
0.078919 0.504705 0.853546 0.188960 0.645665
0.061991 0.488358 0.852483 0.183207 0.639911
0.078003 0.488706 0.853076 0.188960 0.639911
0.397410 0.537712 0.864884 0.304026 0.657171
0.413049 0.520222 0.862438 0.309779 0.651418
0.413134 0.538333 0.865647 0.309779 0.657171
0.397334 0.519837 0.861895 0.304026 0.651418
0.428939 0.520543 0.862781 0.315532 0.651418
0.428879 0.538496 0.865960 0.315532 0.657171
0.444832 0.520074 0.862425 0.321286 0.651418
0.444737 0.538170 0.865705 0.321286 0.657171
0.460773 0.519083 0.861514 0.327039 0.651418
0.460644 0.537370 0.864896 0.327039 0.657171
0.477070 0.522110 0.860630 0.332792 0.652997
0.468319 0.518070 0.860630 0.329683 0.651418
0.477081 0.517325 0.859868 0.332792 0.651418
0.492790 0.523214 0.860630 0.338545 0.653244
0.492853 0.517753 0.859841 0.338545 0.651418
0.476964 0.535330 0.863077 0.332792 0.657171
0.492681 0.535172 0.862465 0.338545 0.657171
0.508408 0.527282 0.860630 0.344299 0.654657
0.508461 0.517702 0.859334 0.344299 0.651418
0.524011 0.518782 0.859729 0.350052 0.651418
0.523892 0.525672 0.860630 0.350052 0.653726
0.508248 0.534935 0.861808 0.344299 0.657171
0.523673 0.535995 0.862027 0.350052 0.657171
0.539490 0.520013 0.860083 0.355805 0.651418
0.539465 0.523050 0.860630 0.355805 0.652366
0.551198 0.521336 0.860630 0.360115 0.651418
0.539321 0.538318 0.863332 0.355805 0.657171
0.554864 0.539734 0.863952 0.361558 0.657171
0.555152 0.521779 0.860798 0.361558 0.651418
0.570861 0.522506 0.860848 0.367312 0.651418
0.570505 0.540716 0.864091 0.367312 0.657171
0.586844 0.524257 0.861567 0.373065 0.651418
0.586210 0.541542 0.864251 0.373065 0.657171
0.602903 0.524461 0.861122 0.378818 0.651418
0.602203 0.541879 0.863838 0.378818 0.657171
0.619009 0.525464 0.861317 0.384572 0.651418
0.618172 0.542243 0.863333 0.384572 0.657171
0.635464 0.526864 0.860630 0.390325 0.651910
0.632944 0.525368 0.860630 0.389407 0.651418
0.635593 0.525294 0.860447 0.390325 0.651418
0.650332 0.538239 0.860630 0.396078 0.655449
0.651241 0.526059 0.859776 0.396078 0.651418
0.634168 0.542350 0.862164 0.390325 0.657171
0.650280 0.542862 0.860915 0.396078 0.657171
0.047375 0.535518 0.852615 0.177453 0.657171
0.063944 0.535516 0.853071 0.183207 0.657171
0.064726 0.550970 0.853153 0.183207 0.662925
0.048192 0.551026 0.853118 0.177453 0.662925
0.080639 0.535500 0.853584 0.188960 0.657171
0.081224 0.550817 0.853526 0.188960 0.662925
0.097105 0.535045 0.853912 0.194713 0.657171
0.097637 0.550410 0.853322 0.194713 0.662925
0.113620 0.534586 0.854180 0.200467 0.657171
0.113771 0.550068 0.853934 0.200467 0.662925
0.129650 0.533955 0.854412 0.206220 0.657171
0.129664 0.549588 0.854145 0.206220 0.662925
0.145347 0.533368 0.854726 0.211973 0.657171
0.145276 0.549037 0.854118 0.211973 0.662925
0.155040 0.548772 0.854877 0.215536 0.662925
0.160791 0.535737 0.854877 0.217726 0.658260
0.160750 0.532727 0.854799 0.217726 0.657171
0.160971 0.548704 0.855285 0.217726 0.662925
0.163172 0.532680 0.854877 0.218618 0.657171
0.176252 0.548233 0.855045 0.223480 0.662925
0.176339 0.532386 0.855420 0.223480 0.657171
0.192052 0.532181 0.855923 0.229233 0.657171
0.191722 0.547904 0.855445 0.229233 0.662925
0.207782 0.532054 0.856104 0.234986 0.657171
0.207964 0.548376 0.857262 0.234986 0.662925
0.223506 0.531947 0.856472 0.240740 0.657171
0.223814 0.548736 0.858436 0.240740 0.662925
0.239217 0.531874 0.857007 0.246493 0.657171
0.239729 0.549100 0.859410 0.246493 0.662925
0.254982 0.531506 0.857178 0.252246 0.657171
0.255601 0.549428 0.860224 0.252246 0.662925
0.261227 0.549696 0.860630 0.254258 0.662925
0.271044 0.532125 0.858129 0.257999 0.657171
0.271612 0.545951 0.860630 0.257999 0.661558
0.271752 0.550281 0.861421 0.257999 0.662925
0.287137 0.532128 0.858565 0.263753 0.657171
0.287632 0.541918 0.860630 0.263753 0.660148
0.303470 0.533340 0.859821 0.269506 0.657171
0.303627 0.537522 0.860630 0.269506 0.658468
0.288208 0.551666 0.862940 0.263753 0.662925
0.304228 0.552015 0.863511 0.269506 0.662925
0.318476 0.533947 0.860630 0.274905 0.657171
0.319971 0.552521 0.864191 0.275259 0.662925
0.319465 0.533985 0.860685 0.275259 0.657171
0.335221 0.535011 0.861693 0.281013 0.657171
0.335768 0.553579 0.865193 0.281013 0.662925
0.350786 0.535844 0.862558 0.286766 0.657171
0.351213 0.553967 0.865621 0.286766 0.662925
0.364717 0.554633 0.866384 0.291800 0.662925
0.366313 0.536444 0.863315 0.292519 0.657171
0.366648 0.553965 0.866384 0.292519 0.662679
0.366650 0.554696 0.866476 0.292519 0.662925
0.381890 0.537194 0.864163 0.298272 0.657171
0.381999 0.552557 0.866384 0.298272 0.662200
0.381990 0.554681 0.866607 0.298272 0.662925
0.397526 0.546916 0.866384 0.304026 0.660129
0.397659 0.555152 0.867431 0.304026 0.662925
0.049117 0.644042 0.854958 0.177453 0.697444
0.015706 0.644516 0.852237 0.165947 0.697444
0.049459 0.628529 0.855556 0.177453 0.691691
0.016173 0.612789 0.852939 0.165947 0.685938
0.049618 0.613083 0.855523 0.177453 0.685938
0.748040 0.671367 0.868783 0.430598 0.703198
0.747673 0.655356 0.868330 0.430598 0.697444
0.762984 0.655125 0.869089 0.436351 0.697444
0.079565 0.701979 0.849124 0.188960 0.717519
0.095246 0.701535 0.849124 0.194713 0.717169
0.094840 0.711054 0.848011 0.194713 0.720457
0.079162 0.710642 0.847963 0.188960 0.720457
0.110697 0.702629 0.849124 0.200467 0.717405
0.110203 0.711843 0.847803 0.200467 0.720457
0.126013 0.702213 0.849124 0.206220 0.717014
0.125422 0.712855 0.847500 0.206220 0.720457
0.141160 0.702992 0.849124 0.211973 0.717033
0.140539 0.713896 0.847294 0.211973 0.720457
0.079992 0.693731 0.850182 0.188960 0.714704
0.095601 0.694476 0.849873 0.194713 0.714704
0.111047 0.694638 0.850166 0.200467 0.714704
0.126417 0.695103 0.850162 0.206220 0.714704
0.141639 0.695535 0.850416 0.211973 0.714704
0.156368 0.703513 0.849124 0.217726 0.716851
0.155658 0.715131 0.847117 0.217726 0.720457
0.171480 0.705061 0.849124 0.223480 0.717017
0.170979 0.715959 0.847312 0.223480 0.720457
0.187026 0.703211 0.849124 0.229233 0.715830
0.186367 0.717564 0.846851 0.229233 0.720457
0.201885 0.718806 0.846742 0.234986 0.720457
0.198423 0.701251 0.849124 0.233392 0.714704
0.202738 0.701588 0.849082 0.234986 0.714704
0.156796 0.696512 0.850364 0.217726 0.714704
0.171927 0.697656 0.850360 0.223480 0.714704
0.187258 0.699550 0.849763 0.229233 0.714704
0.217716 0.720393 0.846135 0.240740 0.720457
0.218423 0.704959 0.849124 0.240740 0.715756
0.205937 0.701708 0.849124 0.236164 0.714704
0.234309 0.704628 0.849124 0.246493 0.715249
0.233566 0.722020 0.845543 0.246493 0.720457
0.250339 0.705257 0.849124 0.252246 0.715147
0.249570 0.723130 0.845230 0.252246 0.720457
0.265645 0.723573 0.845297 0.257999 0.720457
0.257355 0.704459 0.849124 0.254708 0.714704
0.266653 0.705495 0.848628 0.257999 0.714704
0.218584 0.701487 0.849799 0.240740 0.714704
0.234432 0.702799 0.849497 0.246493 0.714704
0.250411 0.703763 0.849445 0.252246 0.714704
0.282803 0.706492 0.848381 0.263753 0.714704
0.281712 0.724888 0.844746 0.263753 0.720457
0.298919 0.707495 0.848205 0.269506 0.714704
0.297582 0.725423 0.844970 0.269506 0.720457
0.314777 0.707838 0.848538 0.275259 0.714704
0.313696 0.724804 0.846264 0.275259 0.720457
0.329202 0.725542 0.846391 0.281013 0.720457
0.325922 0.707736 0.849124 0.279307 0.714704
0.330446 0.709323 0.849124 0.281013 0.715241
0.330593 0.707593 0.849438 0.281013 0.714704
0.345555 0.716502 0.849124 0.286766 0.717720
0.345053 0.724772 0.847926 0.286766 0.720457
0.355103 0.724117 0.849124 0.290353 0.720457
0.346152 0.707255 0.850573 0.286766 0.714704
0.361228 0.723645 0.849914 0.292519 0.720457
0.361764 0.706873 0.851857 0.292519 0.714704
0.377644 0.706124 0.853527 0.298272 0.714704
0.377298 0.722786 0.851753 0.298272 0.720457
0.393357 0.705722 0.854875 0.304026 0.714704
0.393338 0.722118 0.853406 0.304026 0.720457
0.409355 0.721623 0.854873 0.309779 0.720457
0.409355 0.721579 0.854877 0.309779 0.720442
0.393382 0.705720 0.854877 0.304035 0.714704
0.409496 0.705277 0.856338 0.309779 0.714704
0.409392 0.721619 0.854877 0.309792 0.720457
0.425575 0.721116 0.856102 0.315532 0.720457
0.425692 0.704897 0.857558 0.315532 0.714704
0.442048 0.704717 0.858194 0.321286 0.714704
0.441728 0.721191 0.856359 0.321286 0.720457
0.458487 0.704676 0.858622 0.327039 0.714704
0.458269 0.720700 0.857410 0.327039 0.720457
0.474956 0.704821 0.858454 0.332792 0.714704
0.474704 0.720507 0.857865 0.332792 0.720457
0.491390 0.704431 0.858896 0.338545 0.714704
0.491114 0.720360 0.858021 0.338545 0.720457
0.015278 0.691573 0.849124 0.165947 0.714115
0.048054 0.702316 0.849124 0.177453 0.717959
0.047603 0.709789 0.848071 0.177453 0.720457
0.014903 0.709210 0.847538 0.165947 0.720457
0.015349 0.677025 0.850286 0.165947 0.708951
0.048672 0.676217 0.852615 0.177453 0.708951
0.065156 0.676153 0.852868 0.183207 0.708951
0.080799 0.676733 0.852567 0.188960 0.708951
0.773283 0.725851 0.871488 0.442104 0.720457
0.746440 0.718894 0.869441 0.430598 0.720457
0.748155 0.702797 0.869369 0.430598 0.714704
0.588256 0.735312 0.863447 0.373065 0.726211
0.603808 0.719292 0.863142 0.378818 0.720457
0.604137 0.735269 0.864095 0.378818 0.726211
0.587941 0.719390 0.862689 0.373065 0.720457
0.619794 0.719245 0.863719 0.384572 0.720457
0.620149 0.735292 0.864929 0.384572 0.726211
0.635764 0.719003 0.864126 0.390325 0.720457
0.636025 0.734968 0.865025 0.390325 0.726211
0.651689 0.718709 0.864455 0.396078 0.720457
0.651953 0.734645 0.865280 0.396078 0.726211
0.667593 0.718420 0.864866 0.401831 0.720457
0.667858 0.734284 0.865420 0.401831 0.726211
0.683447 0.718099 0.865086 0.407585 0.720457
0.683595 0.734021 0.865644 0.407585 0.726211
0.699237 0.717969 0.865400 0.413338 0.720457
0.699277 0.733810 0.865729 0.413338 0.726211
0.714673 0.734000 0.866384 0.419000 0.726211
0.714945 0.718264 0.865593 0.419091 0.720457
0.714922 0.733846 0.866384 0.419091 0.726154
0.714930 0.734011 0.866403 0.419091 0.726211
0.721600 0.718337 0.866384 0.421430 0.720457
0.731333 0.734364 0.868064 0.424845 0.726211
0.731740 0.718378 0.868029 0.424845 0.720457
0.746799 0.734625 0.869077 0.430598 0.726211
0.264007 0.757618 0.840917 0.257999 0.731964
0.232077 0.756056 0.841148 0.246493 0.731964
0.264745 0.740952 0.842663 0.257999 0.726211
0.232685 0.739094 0.843302 0.246493 0.726211
0.264978 0.735690 0.843370 0.257999 0.724444
0.232723 0.738467 0.843370 0.246493 0.725997
0.295469 0.774836 0.840366 0.269506 0.737717
0.311774 0.759057 0.841589 0.275259 0.731964
0.311572 0.774900 0.841021 0.275259 0.737717
0.295874 0.758822 0.841097 0.269506 0.731964
0.327814 0.758653 0.842887 0.281013 0.731964
0.327802 0.774628 0.842171 0.281013 0.737717
0.332646 0.758469 0.843370 0.282721 0.731964
0.340347 0.774059 0.843370 0.285425 0.737717
0.344161 0.757815 0.844673 0.286766 0.731964
0.344166 0.773867 0.843742 0.286766 0.737717
0.361076 0.756301 0.847337 0.292519 0.731964
0.360189 0.773205 0.845205 0.292519 0.737717
0.376765 0.755816 0.848500 0.298272 0.731964
0.376233 0.772422 0.846711 0.298272 0.737717
0.392472 0.771581 0.848474 0.304026 0.737717
0.392688 0.766155 0.849124 0.304026 0.735857
0.381917 0.755479 0.849124 0.300087 0.731964
0.393144 0.754779 0.850510 0.304026 0.731964
0.397883 0.771257 0.849124 0.305919 0.737717
0.408986 0.770590 0.850448 0.309779 0.737717
0.409101 0.754327 0.851820 0.309779 0.731964
0.425323 0.753697 0.853218 0.315532 0.731964
0.425280 0.769773 0.852064 0.315532 0.737717
0.441700 0.753076 0.854622 0.321286 0.731964
0.441658 0.769117 0.853522 0.321286 0.737717
0.457959 0.768552 0.854769 0.327039 0.737717
0.457989 0.767228 0.854877 0.327039 0.737249
0.444094 0.752951 0.854877 0.322103 0.731964
0.458184 0.752522 0.855891 0.327039 0.731964
0.459249 0.768502 0.854877 0.327484 0.737717
0.474501 0.768126 0.855976 0.332792 0.737717
0.474346 0.752490 0.855991 0.332792 0.731964
0.490953 0.752000 0.857059 0.338545 0.731964
0.490927 0.767680 0.856821 0.338545 0.737717
0.507499 0.751588 0.858351 0.344299 0.731964
0.507472 0.767340 0.858011 0.344299 0.737717
0.523786 0.751294 0.859252 0.350052 0.731964
0.523731 0.767076 0.858998 0.350052 0.737717
0.588417 0.766860 0.863790 0.373065 0.737717
0.604265 0.751087 0.864416 0.378818 0.731964
0.604323 0.766877 0.864536 0.378818 0.737717
0.588470 0.751122 0.864031 0.373065 0.731964
0.620355 0.751069 0.865428 0.384572 0.731964
0.620171 0.766793 0.865085 0.384572 0.737717
0.636403 0.751117 0.866325 0.390325 0.731964
0.636387 0.766791 0.866060 0.390325 0.737717
0.652317 0.766626 0.866324 0.396078 0.737717
0.652270 0.754020 0.866384 0.396078 0.733128
0.639807 0.751031 0.866384 0.391556 0.731964
0.652249 0.750795 0.866499 0.396078 0.731964
0.655006 0.766583 0.866384 0.397045 0.737717
0.668192 0.766302 0.866515 0.401831 0.737717
0.668076 0.750458 0.866594 0.401831 0.731964
0.677667 0.750176 0.866384 0.405315 0.731964
0.683875 0.750021 0.866302 0.407585 0.731964
0.684061 0.765941 0.866351 0.407585 0.737717
0.682409 0.765996 0.866384 0.406985 0.737717
0.693859 0.749837 0.866384 0.411248 0.731964
0.684840 0.765925 0.866384 0.407867 0.737717
0.699545 0.749805 0.866537 0.413338 0.731964
0.699661 0.765701 0.866969 0.413338 0.737717
0.715120 0.749922 0.867238 0.419091 0.731964
0.715046 0.765776 0.866880 0.419091 0.737717
0.730776 0.750012 0.868164 0.424845 0.731964
0.730532 0.765741 0.867584 0.424845 0.737717
0.746157 0.750385 0.868723 0.430598 0.731964
0.745894 0.766237 0.867727 0.430598 0.737717
0.311400 0.790813 0.840514 0.275259 0.743471
0.295204 0.790690 0.840006 0.269506 0.743471
0.327827 0.790482 0.841691 0.281013 0.743471
0.344114 0.789876 0.843004 0.286766 0.743471
0.344120 0.781048 0.843370 0.286766 0.740286
0.347624 0.789744 0.843370 0.287978 0.743471
0.360531 0.789105 0.844768 0.292519 0.743471
0.376517 0.788382 0.846128 0.298272 0.743471
0.392356 0.787774 0.847222 0.304026 0.743471
0.408071 0.786798 0.849124 0.309509 0.743471
0.408858 0.786747 0.849228 0.309779 0.743471
0.425212 0.785901 0.850935 0.315532 0.743471
0.441671 0.785140 0.852620 0.321286 0.743471
0.458014 0.784472 0.853943 0.327039 0.743471
0.469461 0.784102 0.854877 0.331050 0.743471
0.474413 0.783960 0.855208 0.332792 0.743471
0.490596 0.783596 0.855776 0.338545 0.743471
0.507476 0.783098 0.857683 0.344299 0.743471
0.523723 0.782830 0.858752 0.350052 0.743471
0.588208 0.782694 0.863155 0.373065 0.743471
0.604144 0.782738 0.864096 0.378818 0.743471
0.620651 0.782535 0.865915 0.384572 0.743471
0.636349 0.782729 0.865541 0.390325 0.743471
0.652192 0.782575 0.865728 0.396078 0.743471
0.668152 0.782255 0.866010 0.401831 0.743471
0.668206 0.774417 0.866384 0.401831 0.740650
0.684180 0.782328 0.865276 0.407585 0.743471
0.699603 0.782031 0.865706 0.413338 0.743471
0.699642 0.776883 0.866384 0.413338 0.741728
0.715045 0.774819 0.866384 0.419091 0.740943
0.715025 0.782051 0.865770 0.419091 0.743471
0.721890 0.781687 0.866384 0.421593 0.743471
0.730798 0.781398 0.867002 0.424845 0.743471
0.746082 0.781967 0.866781 0.430598 0.743471
0.547247 0.782627 0.860630 0.358345 0.743471
0.540039 0.782689 0.859985 0.355805 0.743471
0.539854 0.751140 0.860630 0.355676 0.731964
0.556375 0.751071 0.861790 0.361558 0.731964
0.556418 0.782507 0.861544 0.361558 0.743471
0.012346 0.773119 0.843690 0.165947 0.743471
0.043758 0.775220 0.843025 0.177453 0.743471
0.041715 0.807752 0.843292 0.177453 0.754977
0.010685 0.805250 0.843335 0.165947 0.754977
0.074720 0.777698 0.841694 0.188960 0.743471
0.072640 0.810705 0.842896 0.188960 0.754977
0.103143 0.814317 0.842088 0.200467 0.754977
0.104236 0.796959 0.840547 0.200467 0.749224
0.105497 0.779810 0.839598 0.200467 0.743471
0.746036 0.815312 0.862735 0.430598 0.754977
0.730271 0.819705 0.860630 0.424845 0.756069
0.730310 0.816254 0.861263 0.424845 0.754977
0.724057 0.816884 0.860630 0.422586 0.754977
0.746366 0.828278 0.860630 0.430598 0.759234
0.746072 0.848983 0.857446 0.430598 0.766484
0.771043 0.847147 0.860630 0.439699 0.766484
0.745884 0.832445 0.859860 0.430598 0.760730
0.777630 0.846528 0.861468 0.442104 0.766484
0.776474 0.814519 0.864612 0.442104 0.754977
0.460321 0.879305 0.853026 0.327039 0.777990
0.475919 0.878630 0.853510 0.332792 0.777990
0.476607 0.894416 0.854132 0.332792 0.783744
0.461090 0.895165 0.853811 0.327039 0.783744
0.491568 0.878161 0.853905 0.338545 0.777990
0.492044 0.893822 0.854126 0.338545 0.783744
0.507327 0.877956 0.854221 0.344299 0.777990
0.507627 0.893549 0.854324 0.344299 0.783744
0.523027 0.877737 0.854735 0.350052 0.777990
0.523220 0.893349 0.854407 0.350052 0.783744
0.538801 0.893416 0.854786 0.355805 0.783744
0.538797 0.889933 0.854877 0.355805 0.782465
0.526387 0.877723 0.854877 0.351280 0.777990
0.538818 0.877758 0.855392 0.355805 0.777990
0.540727 0.893417 0.854877 0.356505 0.783744
0.554478 0.893491 0.855409 0.361558 0.783744
0.554516 0.877908 0.855768 0.361558 0.777990
0.570156 0.878286 0.855808 0.367312 0.777990
0.569989 0.893858 0.855488 0.367312 0.783744
0.585684 0.879007 0.855368 0.373065 0.777990
0.585380 0.894518 0.855788 0.373065 0.783744
0.600990 0.887127 0.854877 0.378818 0.780640
0.599226 0.879910 0.854877 0.378085 0.777990
0.601201 0.880047 0.854811 0.378818 0.777990
0.600682 0.895555 0.855427 0.378818 0.783744
0.616619 0.881292 0.854417 0.384572 0.777990
0.616566 0.886726 0.854877 0.384572 0.779993
0.616278 0.897482 0.856400 0.384572 0.783744
0.632530 0.882330 0.854305 0.390325 0.777990
0.632364 0.887630 0.854877 0.390325 0.779866
0.631695 0.898927 0.856671 0.390325 0.783744
0.647529 0.897492 0.854877 0.396078 0.783159
0.648750 0.883467 0.853452 0.396078 0.777990
0.647393 0.899251 0.855163 0.396078 0.783744
0.663887 0.900042 0.853894 0.401831 0.783744
0.650979 0.899338 0.854877 0.397315 0.783744
0.664949 0.884622 0.852712 0.401831 0.777990
0.681484 0.884954 0.852415 0.407585 0.777990
0.680590 0.900490 0.853343 0.407585 0.783744
0.697844 0.885180 0.852412 0.413338 0.777990
0.697206 0.900593 0.852930 0.413338 0.783744
0.714396 0.884983 0.853198 0.419091 0.777990
0.714192 0.900868 0.853895 0.419091 0.783744
0.724986 0.900852 0.854877 0.422574 0.783744
0.730863 0.891222 0.854877 0.424845 0.780643
0.731009 0.883153 0.854490 0.424845 0.777990
0.731964 0.901253 0.855982 0.424845 0.783744
0.733939 0.883146 0.854877 0.425968 0.777990
0.748592 0.898888 0.858937 0.430598 0.783744
0.746285 0.881888 0.856592 0.430598 0.777990
0.788043 0.949821 0.868661 0.442104 0.801003
0.753317 0.937931 0.864991 0.430598 0.795250
0.785118 0.916849 0.864343 0.442104 0.789497
0.752440 0.918564 0.862198 0.430598 0.789497
0.753560 0.946067 0.866384 0.430598 0.797767
0.753305 0.955784 0.867779 0.430598 0.801003
0.000502 0.935822 0.842562 0.165947 0.801003
0.031709 0.940265 0.843773 0.177453 0.801003
0.029181 0.973350 0.842178 0.177453 0.812510
0.063807 0.944868 0.844126 0.188960 0.801003
0.061930 0.977944 0.842038 0.188960 0.812510
0.097749 0.981272 0.841415 0.200467 0.812510
0.080141 0.947467 0.843784 0.194713 0.801003
0.097846 0.949323 0.843601 0.200467 0.801003
0.133678 0.981791 0.840850 0.211973 0.812510
0.133394 0.966277 0.841838 0.211973 0.806757
0.115650 0.950172 0.843575 0.206220 0.801003
0.119002 0.950416 0.843370 0.207231 0.801003
0.133562 0.950718 0.842985 0.211973 0.801003
0.198618 0.981949 0.843370 0.234986 0.813292
0.198629 0.979834 0.843357 0.234986 0.812510
0.198871 0.979828 0.843370 0.235072 0.812510
0.213802 0.995537 0.844627 0.240740 0.818263
0.214434 0.979878 0.844343 0.240740 0.812510
0.198473 0.995287 0.843491 0.234986 0.818263
0.230738 0.980742 0.845452 0.246493 0.812510
0.228922 0.996777 0.844263 0.246493 0.818263
0.247360 0.982046 0.846897 0.252246 0.812510
0.247098 0.997498 0.846483 0.252246 0.818263
0.263601 0.982275 0.846925 0.257999 0.812510
0.263107 0.998085 0.847682 0.257999 0.818263
0.281366 0.999468 0.848862 0.263753 0.818263
0.281207 0.989334 0.849124 0.263753 0.814243
0.279578 0.984613 0.849124 0.263264 0.812510
0.287531 0.999318 0.849124 0.265531 0.818263
0.284940 0.984329 0.849124 0.264984 0.812510
0.298913 0.989295 0.849124 0.269506 0.814828
0.298711 0.982966 0.848563 0.269506 0.812510
0.281151 0.984705 0.849303 0.263753 0.812510
0.299174 0.998338 0.849845 0.269506 0.818263
0.436260 0.981652 0.864309 0.315532 0.812510
0.451184 0.982310 0.865570 0.321286 0.812510
0.451143 0.997877 0.865865 0.321286 0.818263
0.436273 0.997354 0.864942 0.315532 0.818263
0.466015 0.981204 0.865753 0.327039 0.812510
0.467497 0.996821 0.865917 0.327039 0.818263
0.480856 0.978644 0.864633 0.332792 0.812510
0.483060 0.994241 0.865018 0.332792 0.818263
0.496244 0.974682 0.861769 0.338545 0.812510
0.497638 0.991054 0.863246 0.338545 0.818263
0.511862 0.986329 0.860630 0.344299 0.817285
0.502101 0.973794 0.860630 0.340663 0.812510
0.512619 0.971883 0.858056 0.344299 0.812510
0.527480 0.987859 0.859220 0.350052 0.818263
0.527338 0.970905 0.856687 0.350052 0.812510
0.514551 0.989072 0.860630 0.345275 0.818263
0.511794 0.989396 0.861093 0.344299 0.818263
0.541841 0.970565 0.856589 0.355805 0.812510
0.542402 0.987784 0.859237 0.355805 0.818263
0.557158 0.971413 0.858074 0.361558 0.812510
0.557516 0.987280 0.859295 0.361558 0.818263
0.182890 0.980226 0.842712 0.229233 0.812510
0.308159 0.983191 0.849124 0.272514 0.812510
0.317159 0.983729 0.850107 0.275259 0.812510
0.387739 0.981263 0.857386 0.298272 0.812510
0.404797 0.981400 0.859934 0.304026 0.812510
0.405087 0.989503 0.860630 0.304026 0.815465
0.710149 0.041083 0.800973 0.413338 0.490326
0.692350 0.039983 0.800425 0.407585 0.490326
0.692889 0.024423 0.798409 0.407585 0.484573
0.762396 0.044915 0.803097 0.430598 0.489857
0.054290 0.092086 0.791591 0.182430 0.513339
0.039594 0.091023 0.789875 0.177453 0.513339
0.056413 0.089761 0.791591 0.183207 0.512459
0.055502 0.076311 0.790265 0.183207 0.507586
0.037609 0.074684 0.787283 0.177453 0.507586
0.062731 0.077002 0.791591 0.185514 0.507586
0.056606 0.092271 0.791860 0.183207 0.513339
0.073196 0.093271 0.793690 0.188960 0.513339
0.073187 0.077429 0.793315 0.188960 0.507586
0.090535 0.077299 0.795950 0.194713 0.507586
0.090034 0.093241 0.795566 0.194713 0.513339
0.107035 0.076710 0.797300 0.200467 0.507586
0.106069 0.093163 0.795863 0.200467 0.513339
0.107693 0.076703 0.797344 0.200693 0.507586
0.121662 0.092621 0.797344 0.205914 0.513339
0.123735 0.076278 0.798182 0.206220 0.507586
0.122533 0.092508 0.797435 0.206220 0.513339
0.140492 0.075858 0.798641 0.211973 0.507586
0.138975 0.091513 0.797987 0.211973 0.513339
0.146083 0.091973 0.797344 0.214360 0.513339
0.157061 0.086312 0.797344 0.217726 0.510896
0.156431 0.092976 0.796597 0.217726 0.513339
0.158273 0.077474 0.798429 0.217726 0.507586
0.172606 0.094579 0.797344 0.223049 0.513339
0.174104 0.094717 0.797552 0.223480 0.513339
0.174670 0.079531 0.798780 0.223480 0.507586
0.190235 0.081315 0.798804 0.229233 0.507586
0.189674 0.096974 0.798561 0.229233 0.513339
0.205449 0.082127 0.799168 0.234986 0.507586
0.205119 0.097863 0.799097 0.234986 0.513339
0.220568 0.082265 0.799513 0.240740 0.507586
0.220502 0.098336 0.799263 0.240740 0.513339
0.235683 0.082168 0.799714 0.246493 0.507586
0.235676 0.098264 0.799561 0.246493 0.513339
0.366631 0.098501 0.800767 0.292519 0.513339
0.385703 0.085119 0.802612 0.298272 0.507586
0.384627 0.100532 0.802909 0.298272 0.513339
0.368094 0.083136 0.801070 0.292519 0.507586
0.390260 0.085593 0.803097 0.299785 0.507586
0.386840 0.100793 0.803097 0.298996 0.513339
0.402953 0.087574 0.804659 0.304026 0.507586
0.401690 0.103046 0.804600 0.304026 0.513339
0.420211 0.090379 0.807096 0.309779 0.507586
0.419374 0.106205 0.807616 0.309779 0.513339
0.435020 0.092686 0.808851 0.315071 0.507586
0.427618 0.107571 0.808851 0.312629 0.513339
0.436293 0.092857 0.808987 0.315532 0.507586
0.435952 0.108966 0.810047 0.315532 0.513339
0.451921 0.094467 0.810357 0.321286 0.507586
0.452126 0.111248 0.812238 0.321286 0.513339
0.467307 0.095304 0.810975 0.327039 0.507586
0.467623 0.113054 0.813832 0.327039 0.513339
0.477969 0.114248 0.814604 0.330970 0.513339
0.482554 0.095737 0.811099 0.332792 0.507586
0.482593 0.114338 0.814604 0.332792 0.513257
0.497270 0.113971 0.813583 0.338545 0.513339
0.498258 0.094317 0.809425 0.338545 0.507586
0.484902 0.114656 0.814604 0.333705 0.513339
0.482596 0.114598 0.814641 0.332792 0.513339
0.513106 0.098846 0.808851 0.344299 0.509176
0.503628 0.093831 0.808851 0.340529 0.507586
0.513550 0.092895 0.807474 0.344299 0.507586
0.512150 0.113009 0.811820 0.344299 0.513339
0.349440 0.097163 0.800042 0.286766 0.513339
0.352029 0.066505 0.800290 0.286766 0.501833
0.369364 0.067764 0.800848 0.292519 0.501833
0.334649 0.065602 0.799946 0.281013 0.501833
0.058951 0.185311 0.808458 0.183207 0.542106
0.042949 0.185366 0.808068 0.177453 0.542106
0.069788 0.185190 0.808851 0.187020 0.542106
0.075220 0.183242 0.808851 0.188960 0.541463
0.075227 0.185197 0.809079 0.188960 0.542106
0.091318 0.178380 0.808851 0.194713 0.539890
0.091448 0.185060 0.809818 0.194713 0.542106
0.107551 0.178810 0.808851 0.200467 0.540345
0.107607 0.184356 0.809760 0.200467 0.542106
0.123735 0.175948 0.808851 0.206220 0.539423
0.124001 0.184417 0.810354 0.206220 0.542106
0.139871 0.172239 0.808851 0.211973 0.537992
0.140258 0.185273 0.811177 0.211973 0.542106
0.155623 0.169809 0.808851 0.217726 0.537085
0.156129 0.185607 0.811536 0.217726 0.542106
0.171940 0.186018 0.812058 0.223480 0.542106
0.187666 0.186222 0.812202 0.229233 0.542106
0.203218 0.186232 0.812107 0.234986 0.542106
0.218777 0.186493 0.811989 0.240740 0.542106
0.234414 0.173712 0.808851 0.246493 0.538103
0.234541 0.185329 0.810214 0.246493 0.542106
0.250350 0.183538 0.808200 0.252246 0.542106
0.245036 0.184162 0.808851 0.250290 0.542106
0.265775 0.181660 0.806611 0.257999 0.542106
0.296605 0.163619 0.803097 0.269506 0.537097
0.312569 0.164352 0.803097 0.275259 0.537674
0.329037 0.162802 0.803097 0.281013 0.537297
0.281264 0.179745 0.805423 0.263753 0.542106
0.296641 0.178378 0.804969 0.269506 0.542106
0.312593 0.177250 0.804733 0.275259 0.542106
0.329092 0.176613 0.804893 0.281013 0.542106
0.345681 0.176624 0.805210 0.286766 0.542106
0.345986 0.160259 0.803303 0.286766 0.536352
0.363016 0.161242 0.804365 0.292519 0.536352
0.362657 0.177469 0.806093 0.292519 0.542106
0.380245 0.163027 0.806027 0.298272 0.536352
0.379850 0.179424 0.807873 0.298272 0.542106
0.391110 0.180798 0.808851 0.302117 0.542106
0.396927 0.175849 0.808851 0.304026 0.540062
0.397508 0.165612 0.808038 0.304026 0.536352
0.396780 0.181697 0.809485 0.304026 0.542106
0.414533 0.185333 0.812378 0.309779 0.542106
0.427240 0.188269 0.814604 0.313895 0.542106
0.432244 0.189487 0.815448 0.315532 0.542106
0.448025 0.191675 0.816969 0.321286 0.542106
0.463943 0.193771 0.818548 0.327039 0.542106
0.463620 0.209650 0.820357 0.327039 0.547562
0.479402 0.195122 0.819449 0.332792 0.542106
0.479192 0.203520 0.820357 0.332792 0.545030
0.488588 0.196187 0.820357 0.336147 0.542106
0.495057 0.196853 0.820972 0.338545 0.542106
0.510158 0.197080 0.821287 0.344299 0.542106
0.525364 0.197620 0.822229 0.350052 0.542106
0.540570 0.197165 0.822690 0.355805 0.542106
0.541211 0.212374 0.826111 0.355805 0.546512
0.555812 0.195549 0.822651 0.361558 0.542106
0.556796 0.207924 0.826111 0.361558 0.545223
0.572294 0.195376 0.823385 0.367312 0.542106
0.573165 0.204436 0.826111 0.367312 0.544232
0.589519 0.202873 0.826111 0.373065 0.544162
0.588640 0.190900 0.821984 0.373065 0.542106
0.606186 0.191968 0.822853 0.378818 0.542106
0.606597 0.202454 0.826111 0.378818 0.544284
0.623673 0.188747 0.821433 0.384572 0.542106
0.641464 0.190006 0.821741 0.390325 0.542106
0.658833 0.189921 0.821171 0.396078 0.542106
0.675683 0.190914 0.821008 0.401831 0.542106
0.692175 0.193168 0.821253 0.407585 0.542106
0.708357 0.194247 0.820870 0.413338 0.542106
0.724309 0.197890 0.821853 0.419091 0.542106
0.740043 0.200405 0.822355 0.424845 0.542106
0.755555 0.202498 0.822827 0.430598 0.542106
0.043067 0.202279 0.809942 0.177453 0.547859
0.026897 0.202463 0.809706 0.171700 0.547859
0.042995 0.192234 0.808851 0.177453 0.544430
0.010615 0.202493 0.809272 0.165947 0.547859
0.737889 0.247550 0.831864 0.424845 0.555775
0.724555 0.241074 0.831864 0.419864 0.553612
0.738156 0.240428 0.830657 0.424845 0.553612
0.737547 0.258942 0.833539 0.424845 0.559365
0.721930 0.258897 0.834405 0.419091 0.559365
0.402535 0.259014 0.826111 0.304640 0.565119
0.416775 0.256172 0.826111 0.309779 0.563828
0.417012 0.261080 0.827298 0.309779 0.565119
0.432507 0.251958 0.826111 0.315532 0.561977
0.432929 0.263452 0.828837 0.315532 0.565119
0.448408 0.246427 0.826111 0.321286 0.559561
0.448552 0.264322 0.829461 0.321286 0.565119
0.464129 0.265496 0.830271 0.327039 0.565119
0.464159 0.247688 0.827340 0.327039 0.559365
0.449603 0.245966 0.826111 0.321717 0.559365
0.479765 0.248961 0.828379 0.332792 0.559365
0.479686 0.266463 0.831034 0.332792 0.565119
0.492903 0.267427 0.831864 0.337647 0.565119
0.495351 0.250204 0.829442 0.338545 0.559365
0.495372 0.266272 0.831864 0.338545 0.564668
0.495357 0.267613 0.832041 0.338545 0.565119
0.511109 0.251667 0.830935 0.344299 0.559365
0.511124 0.257660 0.831864 0.344299 0.561329
0.511102 0.268972 0.833427 0.344299 0.565119
0.520146 0.252434 0.831864 0.347609 0.559365
0.527455 0.270784 0.835670 0.350052 0.565119
0.526940 0.253052 0.832683 0.350052 0.559365
0.539499 0.272203 0.837617 0.354192 0.565119
0.543417 0.254890 0.835117 0.355805 0.559365
0.544094 0.268279 0.837617 0.355805 0.563627
0.559978 0.256911 0.837617 0.361504 0.559365
0.544044 0.272566 0.838125 0.355805 0.565119
0.559861 0.272927 0.839038 0.361558 0.565119
0.560133 0.256919 0.837633 0.361558 0.559365
0.576060 0.257268 0.838432 0.367312 0.559365
0.575861 0.273377 0.839897 0.367312 0.565119
0.592387 0.258106 0.839691 0.373065 0.559365
0.592014 0.273858 0.840794 0.373065 0.565119
0.608469 0.257989 0.839485 0.378818 0.559365
0.608109 0.274068 0.840747 0.378818 0.565119
0.624736 0.258661 0.840022 0.384572 0.559365
0.624404 0.274446 0.840808 0.384572 0.565119
0.641217 0.258711 0.839087 0.390325 0.559365
0.640930 0.274634 0.839535 0.390325 0.565119
0.657858 0.258673 0.837683 0.396078 0.559365
0.657440 0.274966 0.838412 0.396078 0.565119
0.673562 0.263913 0.837617 0.401831 0.561162
0.659279 0.258679 0.837617 0.396571 0.559365
0.673634 0.258595 0.837096 0.401831 0.559365
0.689915 0.275267 0.836734 0.407585 0.565119
0.689659 0.259012 0.836662 0.407585 0.559365
0.676295 0.274989 0.837617 0.402801 0.565119
0.673461 0.274897 0.837849 0.401831 0.565119
0.706199 0.258003 0.834656 0.413338 0.559365
0.705964 0.275513 0.836786 0.413338 0.565119
0.721619 0.276143 0.836174 0.419091 0.565119
0.737229 0.276308 0.835649 0.424845 0.565119
0.752876 0.275847 0.834716 0.430598 0.565119
0.010923 0.254726 0.816280 0.165947 0.565119
0.026893 0.253689 0.815905 0.171700 0.565119
0.027079 0.272246 0.819176 0.171700 0.570872
0.011280 0.272852 0.819161 0.165947 0.570872
0.042961 0.253011 0.815798 0.177453 0.565119
0.043203 0.270770 0.818506 0.177453 0.570872
0.076253 0.256257 0.814604 0.188960 0.567238
0.062739 0.251190 0.814604 0.184324 0.565119
0.076132 0.250260 0.813976 0.188960 0.565119
0.059477 0.251550 0.814874 0.183207 0.565119
0.059381 0.269227 0.817760 0.183207 0.570872
0.076495 0.266895 0.816018 0.188960 0.570872
0.092621 0.249955 0.814080 0.194713 0.565119
0.092818 0.254461 0.814604 0.194713 0.566697
0.099450 0.250120 0.814604 0.197021 0.565119
0.093016 0.266374 0.816058 0.194713 0.570872
0.109716 0.265870 0.815991 0.200467 0.570872
0.109416 0.250214 0.815295 0.200467 0.565119
0.125568 0.250255 0.815412 0.206220 0.565119
0.126102 0.266056 0.816292 0.206220 0.570872
0.141620 0.250678 0.816019 0.211973 0.565119
0.142024 0.266136 0.816549 0.211973 0.570872
0.157887 0.251082 0.817498 0.217726 0.565119
0.158059 0.266609 0.817354 0.217726 0.570872
0.173535 0.251367 0.817853 0.223480 0.565119
0.173835 0.266905 0.818003 0.223480 0.570872
0.189091 0.251351 0.817737 0.229233 0.565119
0.189538 0.266960 0.817974 0.229233 0.570872
0.205076 0.250971 0.816433 0.234986 0.565119
0.205135 0.266920 0.817710 0.234986 0.570872
0.220696 0.250830 0.816239 0.240740 0.565119
0.220808 0.266855 0.817520 0.240740 0.570872
0.236346 0.250631 0.815938 0.246493 0.565119
0.236481 0.266896 0.817535 0.246493 0.570872
0.251977 0.249955 0.815333 0.252246 0.565119
0.252200 0.266868 0.817623 0.252246 0.570872
0.267527 0.249812 0.815454 0.257999 0.565119
0.267907 0.267126 0.818046 0.257999 0.570872
0.283145 0.249409 0.815642 0.263753 0.565119
0.283623 0.267080 0.818507 0.263753 0.570872
0.299052 0.249473 0.816395 0.269506 0.565119
0.299718 0.268486 0.820272 0.269506 0.570872
0.300489 0.268550 0.820357 0.269765 0.570872
0.316294 0.261999 0.820357 0.275259 0.568586
0.315418 0.249677 0.817430 0.275259 0.565119
0.316864 0.270022 0.822290 0.275259 0.570872
0.332786 0.252533 0.819899 0.281013 0.565119
0.332979 0.254240 0.820357 0.281013 0.565549
0.334482 0.272983 0.824751 0.281013 0.570872
0.335981 0.253091 0.820357 0.282067 0.565119
0.344919 0.274570 0.826111 0.284532 0.570872
0.349617 0.254297 0.821717 0.286766 0.565119
0.351213 0.272195 0.826111 0.286766 0.570008
0.366655 0.256278 0.823670 0.292519 0.565119
0.367592 0.265471 0.826111 0.292519 0.567516
0.384164 0.258861 0.825738 0.298272 0.565119
0.384313 0.260163 0.826111 0.298272 0.565421
0.400764 0.258871 0.826013 0.304026 0.565119
0.400785 0.259264 0.826111 0.304026 0.565223
0.351419 0.275324 0.826829 0.286766 0.570872
0.368693 0.278110 0.829382 0.292519 0.570872
0.385225 0.279081 0.830613 0.298272 0.570872
0.401669 0.280189 0.831378 0.304026 0.570872
0.447652 0.330691 0.837617 0.321286 0.587498
0.463483 0.323076 0.837617 0.327039 0.584527
0.479122 0.317631 0.837617 0.332792 0.582421
0.011726 0.384214 0.838071 0.165947 0.605392
0.027929 0.384144 0.838331 0.171700 0.605392
0.028364 0.400878 0.840577 0.171700 0.611145
0.012132 0.401412 0.840542 0.165947 0.611145
0.044081 0.383688 0.838223 0.177453 0.605392
0.045012 0.399729 0.840066 0.177453 0.611145
0.061479 0.389263 0.837617 0.183207 0.608233
0.050147 0.382747 0.837617 0.179533 0.605392
0.061150 0.380238 0.835916 0.183207 0.605392
0.078762 0.395393 0.837617 0.188960 0.611058
0.078556 0.375567 0.833022 0.188960 0.605392
0.061706 0.398189 0.839198 0.183207 0.611145
0.078753 0.395701 0.837690 0.188960 0.611145
0.095667 0.376684 0.831864 0.194713 0.606813
0.087253 0.373656 0.831864 0.191901 0.605392
0.095465 0.371831 0.830824 0.194713 0.605392
0.095577 0.392770 0.835948 0.194713 0.611145
0.079623 0.395581 0.837617 0.189252 0.611145
0.112079 0.380467 0.831864 0.200467 0.608671
0.112171 0.368031 0.828641 0.200467 0.605392
0.112185 0.390111 0.834413 0.200467 0.611145
0.128161 0.383295 0.831864 0.206220 0.609928
0.128022 0.366206 0.827605 0.206220 0.605392
0.128099 0.387976 0.833076 0.206220 0.611145
0.144036 0.384555 0.831087 0.211973 0.611145
0.136376 0.385801 0.831864 0.209162 0.611145
0.143632 0.366357 0.827757 0.211973 0.605392
0.159035 0.366001 0.827534 0.217726 0.605392
0.159273 0.384834 0.831166 0.217726 0.611145
0.174430 0.366099 0.827758 0.223480 0.605392
0.174658 0.383589 0.830410 0.223480 0.611145
0.189829 0.366109 0.827897 0.229233 0.605392
0.189987 0.383840 0.830670 0.229233 0.611145
0.205347 0.366412 0.828270 0.234986 0.605392
0.205345 0.383677 0.830685 0.234986 0.611145
0.220929 0.366964 0.828769 0.240740 0.605392
0.220767 0.383864 0.830919 0.240740 0.611145
0.236609 0.367919 0.829621 0.246493 0.605392
0.236334 0.384829 0.831783 0.246493 0.611145
0.237585 0.384934 0.831864 0.246947 0.611145
0.252238 0.379314 0.831864 0.252246 0.608917
0.252327 0.368935 0.830574 0.252246 0.605392
0.252181 0.385948 0.832774 0.252246 0.611145
0.267949 0.369558 0.831128 0.257999 0.605392
0.267927 0.375908 0.831864 0.257999 0.607561
0.267897 0.386699 0.833361 0.257999 0.611145
0.283699 0.369811 0.831417 0.263753 0.605392
0.283670 0.374364 0.831864 0.263753 0.606983
0.283537 0.386622 0.833473 0.263753 0.611145
0.294911 0.370256 0.831864 0.267799 0.605392
0.299471 0.387131 0.833963 0.269506 0.611145
0.299660 0.370446 0.832062 0.269506 0.605392
0.315522 0.370861 0.832426 0.275259 0.605392
0.315441 0.387619 0.834406 0.275259 0.611145
0.013092 0.424322 0.843370 0.165947 0.618931
0.012823 0.418351 0.842659 0.165947 0.616898
0.028843 0.417573 0.842788 0.171700 0.616898
0.028903 0.422614 0.843370 0.171700 0.618594
0.013795 0.435244 0.844579 0.165947 0.622652
0.029387 0.434674 0.844796 0.171700 0.622652
0.045100 0.424603 0.843370 0.177453 0.619684
0.045047 0.416678 0.842635 0.177453 0.616898
0.045204 0.433300 0.844315 0.177453 0.622652
0.061356 0.423751 0.843370 0.183207 0.619644
0.061574 0.415781 0.842334 0.183207 0.616898
0.061125 0.432987 0.844811 0.183207 0.622652
0.078338 0.415093 0.842025 0.188960 0.616898
0.078139 0.421542 0.843370 0.188960 0.618832
0.077670 0.434545 0.846162 0.188960 0.622652
0.094939 0.422061 0.843370 0.194713 0.619186
0.095223 0.414445 0.841644 0.194713 0.616898
0.094413 0.435985 0.847252 0.194713 0.622652
0.111386 0.422860 0.843370 0.200467 0.619411
0.111786 0.413385 0.840857 0.200467 0.616898
0.111149 0.436499 0.847356 0.200467 0.622652
0.127572 0.425405 0.843370 0.206220 0.620307
0.127915 0.411640 0.839597 0.206220 0.616898
0.127211 0.435109 0.846193 0.206220 0.622652
0.143452 0.429444 0.843370 0.211973 0.622011
0.143627 0.409257 0.838020 0.211973 0.616898
0.143369 0.431962 0.844037 0.211973 0.622652
0.159230 0.411447 0.837617 0.217726 0.618234
0.147074 0.408588 0.837617 0.213224 0.616898
0.159260 0.406143 0.836251 0.217726 0.616898
0.174805 0.414454 0.837617 0.223480 0.619669
0.174783 0.404065 0.835074 0.223480 0.616898
0.159118 0.429189 0.842323 0.217726 0.622652
0.149541 0.430906 0.843370 0.214206 0.622652
0.174892 0.425955 0.840546 0.223480 0.622652
0.190241 0.415383 0.837617 0.229233 0.620142
0.190155 0.403210 0.834620 0.229233 0.616898
0.205790 0.415978 0.837617 0.234986 0.620499
0.205590 0.402635 0.834399 0.234986 0.616898
0.190332 0.425368 0.840203 0.229233 0.622652
0.205920 0.424348 0.839774 0.234986 0.622652
0.221032 0.402705 0.834567 0.240740 0.616898
0.221314 0.415956 0.837617 0.240740 0.620604
0.236596 0.403475 0.835255 0.246493 0.616898
0.236799 0.414401 0.837617 0.246493 0.620030
0.221464 0.423648 0.839511 0.240740 0.622652
0.237021 0.423930 0.839817 0.246493 0.622652
0.252050 0.403259 0.835284 0.252246 0.616898
0.252303 0.413447 0.837617 0.252246 0.619760
0.267980 0.405696 0.837024 0.257999 0.616898
0.268039 0.408527 0.837617 0.257999 0.617720
0.252800 0.425041 0.840684 0.252246 0.622652
0.268557 0.425738 0.841384 0.257999 0.622652
0.273508 0.406524 0.837617 0.259974 0.616898
0.284511 0.427438 0.842721 0.263753 0.622652
0.283984 0.407521 0.838377 0.263753 0.616898
0.299690 0.407335 0.838525 0.269506 0.616898
0.300264 0.427681 0.843167 0.269506 0.622652
0.061110 0.452660 0.848366 0.183207 0.628405
0.070957 0.453077 0.849124 0.186830 0.628405
0.077141 0.450355 0.849124 0.188960 0.627438
0.077123 0.453575 0.849631 0.188960 0.628405
0.094191 0.444019 0.849124 0.194713 0.624927
0.110828 0.443134 0.849124 0.200467 0.624457
0.127074 0.446476 0.849124 0.206220 0.625759
0.143278 0.452023 0.849124 0.211973 0.628152
0.093537 0.454602 0.850880 0.194713 0.628405
0.110468 0.455887 0.851948 0.200467 0.628405
0.127129 0.454862 0.850845 0.206220 0.628405
0.143248 0.452897 0.849330 0.211973 0.628405
0.159151 0.433218 0.843370 0.217726 0.623693
0.159109 0.450753 0.847750 0.217726 0.628405
0.145105 0.452601 0.849124 0.212625 0.628405
0.174839 0.436103 0.843370 0.223480 0.625063
0.174722 0.449994 0.847192 0.223480 0.628405
0.190437 0.437229 0.843370 0.229233 0.625574
0.190454 0.447832 0.845975 0.229233 0.628405
0.205995 0.436968 0.843370 0.234986 0.625537
0.206158 0.448311 0.846384 0.234986 0.628405
0.221744 0.438139 0.843370 0.240740 0.626219
0.221888 0.446296 0.845380 0.240740 0.628405
0.237398 0.438678 0.843370 0.246493 0.626654
0.237551 0.445011 0.844819 0.246493 0.628405
0.253126 0.437073 0.843370 0.252246 0.626101
0.253258 0.444906 0.845048 0.252246 0.628405
0.268798 0.435023 0.843370 0.257999 0.625341
0.269101 0.445345 0.845486 0.257999 0.628405
0.284609 0.430657 0.843370 0.263753 0.623627
0.284981 0.445881 0.846172 0.263753 0.628405
0.300297 0.428654 0.843370 0.269506 0.622935
0.300960 0.446847 0.847095 0.269506 0.628405
0.429132 0.465453 0.852671 0.315532 0.634158
0.445615 0.449729 0.851647 0.321286 0.628405
0.445680 0.467484 0.854716 0.321286 0.634158
0.429455 0.448741 0.850641 0.315532 0.628405
0.461539 0.450434 0.852131 0.327039 0.628405
0.461413 0.467282 0.854276 0.327039 0.634158
0.525092 0.452729 0.849124 0.350052 0.629847
0.520769 0.448852 0.849124 0.348506 0.628405
0.525117 0.448536 0.848668 0.350052 0.628405
0.477389 0.450571 0.851920 0.332792 0.628405
0.477208 0.467052 0.853664 0.332792 0.634158
0.493191 0.450217 0.851259 0.338545 0.628405
0.493048 0.466773 0.853042 0.338545 0.634158
0.509069 0.449567 0.850166 0.344299 0.628405
0.508858 0.466404 0.852287 0.344299 0.634158
0.524853 0.465507 0.850898 0.350052 0.634158
0.540971 0.462751 0.849124 0.355805 0.633575
0.542206 0.446447 0.845980 0.355805 0.628405
0.557190 0.463822 0.848263 0.361558 0.634158
0.544808 0.464398 0.849124 0.357189 0.634158
0.557991 0.446223 0.845288 0.361558 0.628405
0.573768 0.447222 0.845575 0.367312 0.628405
0.573163 0.465059 0.848598 0.367312 0.634158
0.589135 0.465451 0.848470 0.373065 0.634158
0.540804 0.464748 0.849560 0.355805 0.634158
0.605099 0.466896 0.849113 0.378818 0.634158
0.606330 0.466957 0.849124 0.379262 0.634158
0.621099 0.466181 0.849124 0.384572 0.633640
0.637787 0.457487 0.849124 0.390325 0.629881
0.621047 0.467808 0.849400 0.384572 0.634158
0.637491 0.470975 0.851361 0.390325 0.634158
0.653411 0.473050 0.852569 0.396078 0.634158
0.669979 0.457296 0.851223 0.401831 0.628405
0.669381 0.475079 0.853896 0.401831 0.634158
0.685888 0.459091 0.852642 0.407585 0.628405
0.684885 0.475771 0.854171 0.407585 0.634158
0.689647 0.476519 0.854877 0.409231 0.634158
0.701779 0.464987 0.854877 0.413338 0.629721
0.701840 0.460905 0.854221 0.413338 0.628405
0.701317 0.478123 0.856502 0.413338 0.634158
0.709530 0.461644 0.854877 0.416129 0.628405
0.716691 0.478691 0.856727 0.419091 0.634158
0.717596 0.462242 0.855382 0.419091 0.628405
0.396937 0.486888 0.854877 0.304026 0.641710
0.396972 0.481417 0.853998 0.304026 0.639911
0.412908 0.481718 0.854331 0.309779 0.639911
0.412905 0.484810 0.854877 0.309779 0.640904
0.396900 0.499620 0.857328 0.304026 0.645665
0.412942 0.501263 0.858567 0.309779 0.645665
0.428912 0.482356 0.854809 0.315532 0.639911
0.428908 0.482776 0.854877 0.315532 0.640048
0.428966 0.501837 0.859042 0.315532 0.645665
0.431655 0.482468 0.854877 0.316516 0.639911
0.444997 0.501261 0.858642 0.321286 0.645665
0.445081 0.483094 0.855207 0.321286 0.639911
0.461197 0.483484 0.855429 0.327039 0.639911
0.461000 0.500920 0.858191 0.327039 0.645665
0.477234 0.483903 0.854877 0.332792 0.640213
0.475303 0.483105 0.854877 0.332101 0.639911
0.477232 0.483051 0.854798 0.332792 0.639911
0.477144 0.499899 0.857080 0.332792 0.645665
0.486705 0.483240 0.854877 0.336238 0.639911
0.492893 0.500398 0.857210 0.338545 0.645665
0.493018 0.483396 0.854923 0.338545 0.639911
0.508730 0.486328 0.854877 0.344299 0.640935
0.496182 0.483417 0.854877 0.339704 0.639911
0.508749 0.483251 0.854438 0.344299 0.639911
0.508623 0.500526 0.856942 0.344299 0.645665
0.524436 0.492007 0.854877 0.350052 0.642974
0.524614 0.482659 0.853386 0.350052 0.639911
0.524254 0.500487 0.856391 0.350052 0.645665
0.540005 0.493867 0.854877 0.355805 0.643435
0.540322 0.482604 0.852757 0.355805 0.639911
0.539815 0.501295 0.856416 0.355805 0.645665
0.556118 0.483346 0.852661 0.361558 0.639911
0.555823 0.494465 0.854877 0.361558 0.643348
0.555568 0.501987 0.856366 0.361558 0.645665
0.572233 0.484184 0.852682 0.367312 0.639911
0.571813 0.494648 0.854877 0.367312 0.643107
0.571477 0.503025 0.856607 0.367312 0.645665
0.588359 0.485104 0.852833 0.373065 0.639911
0.587972 0.494641 0.854877 0.373065 0.642783
0.587562 0.504303 0.856980 0.373065 0.645665
0.604511 0.485858 0.852921 0.378818 0.639911
0.604173 0.494905 0.854877 0.378818 0.642589
0.603730 0.505435 0.857202 0.378818 0.645665
0.620606 0.487000 0.853310 0.384572 0.639911
0.620406 0.494133 0.854877 0.384572 0.641984
0.619893 0.507007 0.857792 0.384572 0.645665
0.636737 0.488809 0.854149 0.390325 0.639911
0.636578 0.492683 0.854877 0.390325 0.641100
0.636046 0.507662 0.857736 0.390325 0.645665
0.647400 0.490215 0.854877 0.394124 0.639911
0.651972 0.508645 0.857724 0.396078 0.645665
0.652796 0.490852 0.855217 0.396078 0.639911
0.668484 0.492186 0.855920 0.401831 0.639911
0.667611 0.509243 0.857901 0.401831 0.645665
0.684186 0.493223 0.856611 0.407585 0.639911
0.683322 0.509588 0.857817 0.407585 0.645665
0.015040 0.550615 0.851437 0.165947 0.662925
0.682521 0.558250 0.860039 0.407585 0.662925
0.667673 0.558275 0.860630 0.402202 0.662925
0.683034 0.526168 0.859212 0.407585 0.651418
0.666889 0.526277 0.859497 0.401831 0.651418
0.650465 0.558427 0.862010 0.396078 0.662925
0.714006 0.527048 0.860065 0.419091 0.651418
0.713297 0.558434 0.860221 0.419091 0.662925
0.732101 0.527560 0.860630 0.425720 0.651418
0.722942 0.558668 0.860630 0.422651 0.662925
0.745436 0.528039 0.861118 0.430598 0.651418
0.744817 0.559185 0.862000 0.430598 0.662925
0.776788 0.528471 0.861666 0.442104 0.651418
0.776200 0.559695 0.863474 0.442104 0.662925
0.048828 0.566574 0.853758 0.177453 0.668678
0.065350 0.566526 0.853987 0.183207 0.668678
0.081693 0.566324 0.854211 0.188960 0.668678
0.097997 0.566067 0.854322 0.194713 0.668678
0.114077 0.565714 0.854357 0.200467 0.668678
0.129905 0.565323 0.854437 0.206220 0.668678
0.145607 0.564891 0.854856 0.211973 0.668678
0.146101 0.564875 0.854877 0.212153 0.668678
0.161109 0.564648 0.855582 0.217726 0.668678
