0.453567 0.610849 0.997521 0.446126 0.780461
0.453777 0.617107 0.997499 0.450374 0.780302
0.456217 0.625711 0.997407 0.456200 0.778652
0.446159 0.283061 1.005950 0.225838 0.782508
0.453011 0.289784 1.005280 0.230432 0.777905
0.443628 0.290791 1.005230 0.231087 0.784231
0.453246 0.282444 1.005830 0.225429 0.777739
0.443770 0.295406 1.004770 0.234236 0.784144
0.449388 0.297241 1.004640 0.235510 0.780368
0.443031 0.298300 1.004380 0.236190 0.784643
0.454572 0.295377 1.004890 0.234270 0.776880
0.445888 0.304169 1.003640 0.240186 0.782740
0.456813 0.304065 1.004040 0.240213 0.775428
0.456808 0.298613 1.004630 0.236496 0.775396
0.453917 0.310957 1.002960 0.244866 0.777420
0.444111 0.312430 1.002210 0.245769 0.783939
0.443930 0.323356 1.000070 0.253168 0.784066
0.449018 0.326273 0.999817 0.255224 0.780731
0.442782 0.326342 0.999408 0.255187 0.784811
0.451903 0.336144 0.998099 0.262063 0.778885
0.452957 0.345037 0.996512 0.268261 0.778211
0.443837 0.341277 0.996669 0.265525 0.784123
0.443672 0.332458 0.998291 0.259401 0.784237
0.446445 0.347902 0.995605 0.270185 0.782417
0.443360 0.353081 0.994673 0.273806 0.784413
0.450821 0.348813 0.995668 0.270862 0.779579
0.443208 0.358484 0.994032 0.277634 0.784497
0.444924 0.363905 0.993898 0.281544 0.783385
0.447055 0.370672 0.994114 0.286410 0.782022
0.442581 0.378075 0.994860 0.291585 0.785020
0.452864 0.318825 1.001520 0.250200 0.778165
0.444353 0.319672 1.000850 0.250674 0.783785
0.455489 0.324316 1.000620 0.253993 0.776478
0.446223 0.417034 1.007640 0.316501 0.783412
0.446592 0.425203 1.010490 0.321418 0.783234
0.441563 0.422195 1.009810 0.319359 0.786554
0.445975 0.432613 1.012480 0.326076 0.783715
0.448842 0.437769 1.013050 0.329526 0.781818
0.445771 0.437194 1.013440 0.329010 0.783864
0.449162 0.441800 1.013270 0.332241 0.781649
0.445001 0.442004 1.013650 0.332227 0.784486
0.449168 0.447414 1.013130 0.335956 0.781784
0.444492 0.446835 1.013690 0.335484 0.784888
0.446772 0.454706 1.012940 0.340811 0.783468
0.454443 0.455030 1.012040 0.341151 0.778356
0.443422 0.450706 1.013510 0.338068 0.785675
0.457625 0.465889 1.010690 0.348405 0.776424
0.446676 0.463727 1.012090 0.346863 0.783664
0.438098 0.284166 1.005850 0.226565 0.787949
0.436336 0.289990 1.005160 0.230501 0.789139
0.439561 0.294731 1.004710 0.233740 0.786973
0.437335 0.299859 1.003920 0.237192 0.788461
0.437947 0.306890 1.002870 0.241958 0.788043
0.437534 0.311395 1.002090 0.245007 0.788315
0.439473 0.322345 1.000040 0.252423 0.786999
0.437579 0.328061 0.998837 0.256303 0.788226
0.436476 0.335994 0.997335 0.261771 0.788927
0.437347 0.342022 0.996270 0.265968 0.788339
0.437305 0.347529 0.995389 0.269830 0.788348
0.436684 0.353421 0.994432 0.273954 0.788743
0.438873 0.356857 0.994025 0.276413 0.787318
0.437954 0.362067 0.993696 0.280137 0.787920
0.437656 0.370427 0.993794 0.286125 0.788142
0.436912 0.376391 0.994172 0.290377 0.788662
0.436956 0.316201 1.001150 0.248236 0.788680
0.439109 0.427685 1.011520 0.322743 0.788283
0.437963 0.422939 1.010150 0.319654 0.788965
0.439005 0.434371 1.013020 0.327034 0.788452
0.442504 0.437373 1.013550 0.329062 0.786109
0.438785 0.437819 1.013590 0.329297 0.788667
0.439177 0.441119 1.013740 0.331527 0.788417
0.439783 0.446916 1.013760 0.335441 0.788076
0.439819 0.456677 1.013030 0.342038 0.788148
0.439832 0.451292 1.013590 0.338426 0.788089
0.439468 0.464163 1.012400 0.347126 0.788452
0.417261 0.086274 1.013550 0.092895 0.800948
0.420777 0.080219 1.014060 0.088745 0.798637
0.423773 0.086003 1.013730 0.092770 0.796683
0.424914 0.081480 1.014060 0.089662 0.795914
0.413677 0.078326 1.014220 0.087377 0.803285
0.423857 0.077703 1.014390 0.087067 0.796596
0.422741 0.093479 1.013490 0.097946 0.797382
0.414410 0.092253 1.013230 0.097018 0.802806
0.424114 0.100055 1.013560 0.102543 0.796501
0.415669 0.100095 1.013240 0.102497 0.801975
0.424092 0.105107 1.013710 0.106057 0.796531
0.417485 0.107769 1.013520 0.107854 0.800797
0.413228 0.111770 1.013550 0.110572 0.803552
0.419208 0.113180 1.013990 0.111585 0.799678
0.423032 0.109684 1.013900 0.109201 0.797215
0.425025 0.113440 1.014350 0.111791 0.795925
0.412947 0.117962 1.014100 0.114799 0.803707
0.415439 0.125498 1.015200 0.119906 0.802134
0.422699 0.119681 1.014940 0.116031 0.797434
0.424527 0.259995 1.008160 0.210078 0.797096
0.426375 0.265043 1.007660 0.213517 0.795853
0.417772 0.264336 1.007250 0.212947 0.801644
0.418649 0.256896 1.008240 0.207922 0.801059
0.423588 0.271563 1.006830 0.217917 0.797738
0.417295 0.271015 1.006470 0.217474 0.801971
0.424097 0.277546 1.006180 0.221976 0.797396
0.417739 0.277568 1.005730 0.221920 0.801670
0.423927 0.283744 1.005390 0.226160 0.797499
0.418262 0.283317 1.005110 0.225826 0.801309
0.418421 0.287807 1.004470 0.228847 0.801182
0.422011 0.291504 1.004260 0.231389 0.798759
0.417544 0.293639 1.003520 0.232767 0.801720
0.423021 0.288620 1.004730 0.229455 0.798097
0.423451 0.296087 1.003700 0.234497 0.797769
0.419012 0.299017 1.002890 0.236432 0.800712
0.425169 0.303102 1.002770 0.239254 0.796584
0.417910 0.304322 1.001950 0.240003 0.801398
0.423529 0.309044 1.001720 0.243276 0.797640
0.418228 0.311230 1.000850 0.244677 0.801120
0.423461 0.352195 0.994853 0.272953 0.797375
0.424913 0.359185 0.994115 0.277879 0.796411
0.416173 0.356946 0.994598 0.276195 0.802153
0.418116 0.349107 0.995316 0.270749 0.800898
0.424193 0.364921 0.993755 0.281921 0.796900
0.417854 0.365202 0.994071 0.282009 0.801035
0.424533 0.370395 0.993821 0.285822 0.796682
0.416662 0.372934 0.994236 0.287417 0.801851
0.422281 0.377486 0.994491 0.290764 0.798196
0.415936 0.379128 0.994865 0.291705 0.802367
0.415230 0.382676 0.995415 0.294118 0.802859
0.420051 0.384265 0.995752 0.295332 0.799718
0.426192 0.381437 0.994971 0.293645 0.795693
0.412869 0.385903 0.996018 0.296236 0.804436
0.427293 0.385899 0.996032 0.296687 0.795032
0.416721 0.391359 0.997498 0.299921 0.801980
0.423981 0.390107 0.997337 0.299307 0.797248
0.420884 0.651456 0.993100 0.473385 0.802399
0.428220 0.658949 0.993486 0.478486 0.797508
0.420275 0.659434 0.992351 0.478716 0.802785
0.427516 0.650863 0.994172 0.473077 0.798017
0.427469 0.667628 0.992526 0.484280 0.798007
0.421615 0.665263 0.991983 0.482618 0.801883
0.421767 0.677640 0.990903 0.490917 0.801819
0.425497 0.680844 0.991146 0.493130 0.799371
0.420997 0.683889 0.990434 0.495130 0.802386
0.429121 0.675137 0.991988 0.489330 0.796923
0.422363 0.671543 0.991478 0.486825 0.801390
0.429155 0.681131 0.991507 0.493368 0.796945
0.407663 0.085968 1.013610 0.092600 0.807220
0.405162 0.076389 1.014540 0.085986 0.808879
0.408037 0.094306 1.013140 0.098373 0.806960
0.404798 0.100091 1.013050 0.102353 0.809032
0.408747 0.106746 1.013180 0.107028 0.806434
0.405401 0.113826 1.013380 0.111862 0.808565
0.405570 0.119299 1.013720 0.115583 0.808484
0.406035 0.125597 1.014420 0.119847 0.808193
0.404603 0.309479 0.999263 0.243240 0.810058
0.411515 0.314453 0.999582 0.246757 0.805522
0.403499 0.317043 0.998178 0.248407 0.810730
0.412593 0.257946 1.007540 0.208545 0.805114
0.409851 0.262838 1.006580 0.211804 0.806932
0.410409 0.270931 1.005690 0.217305 0.806555
0.411391 0.278478 1.005020 0.222459 0.805911
0.408835 0.281938 1.004250 0.224758 0.807597
0.413467 0.283525 1.004610 0.225907 0.804515
0.409153 0.284966 1.003860 0.226809 0.807363
0.411005 0.289397 1.003340 0.229794 0.806081
0.412140 0.297691 1.002200 0.235405 0.805252
0.410414 0.305229 1.000780 0.240469 0.806305
0.410442 0.352385 0.995057 0.272944 0.805950
0.409909 0.357834 0.994618 0.276722 0.806293
0.410119 0.362467 0.994350 0.279956 0.806136
0.409972 0.369236 0.994235 0.284675 0.806248
0.409865 0.375823 0.994547 0.289260 0.806343
0.410776 0.381334 0.995176 0.293088 0.805776
0.405541 0.384982 0.995577 0.295465 0.809244
0.407690 0.390895 0.996855 0.299467 0.807874
0.414279 0.663161 0.991038 0.481113 0.806729
0.416612 0.669405 0.990848 0.485316 0.805189
0.411864 0.668142 0.990215 0.484406 0.808322
0.415595 0.656306 0.991869 0.476559 0.805883
0.413004 0.650263 0.991883 0.472475 0.807594
0.417501 0.674470 0.990557 0.488726 0.804619
0.411329 0.673511 0.989727 0.487998 0.808691
0.414941 0.680827 0.989799 0.492979 0.806353
0.403487 0.256166 1.006450 0.207136 0.811126
0.405650 0.264727 1.005740 0.212995 0.809701
0.404043 0.268526 1.005020 0.215538 0.810746
0.403402 0.272874 1.004400 0.218475 0.811157
0.406600 0.277703 1.004390 0.221832 0.809066
0.401527 0.277553 1.003480 0.221601 0.812365
0.403548 0.284290 1.002870 0.226192 0.810989
0.403833 0.293544 1.001420 0.232411 0.810695
0.406758 0.299218 1.001090 0.236324 0.808746
0.404137 0.358899 0.994529 0.277372 0.810110
0.402808 0.350222 0.995060 0.271330 0.811020
0.404261 0.365863 0.994258 0.282209 0.810028
0.401998 0.372530 0.994283 0.286797 0.811533
0.403824 0.379460 0.994785 0.291646 0.810348
0.417141 0.557203 0.998364 0.409088 0.804402
0.417959 0.566374 0.997668 0.415421 0.804053
0.410477 0.563890 0.996964 0.413564 0.808848
0.406003 0.557618 0.996773 0.409145 0.811577
0.417793 0.572118 0.997286 0.419383 0.804254
0.410896 0.571230 0.996546 0.418644 0.808738
0.416505 0.578466 0.996796 0.423745 0.805194
0.408880 0.576931 0.995971 0.422551 0.810146
0.415228 0.587083 0.996309 0.429667 0.806141
0.409196 0.582180 0.995747 0.426184 0.810024
0.406912 0.588435 0.995051 0.430452 0.811564
0.412951 0.594028 0.995738 0.434407 0.807700
0.406741 0.595720 0.994622 0.435443 0.811738
0.420530 0.593486 0.996680 0.434145 0.802702
0.411741 0.600795 0.995157 0.439010 0.808518
0.407091 0.602849 0.994192 0.440325 0.811528
0.419427 0.601671 0.996147 0.439730 0.803460
0.395277 0.295153 0.999541 0.233269 0.816200
0.401346 0.301821 0.999727 0.237946 0.812221
0.393723 0.301714 0.998340 0.237685 0.817153
0.395347 0.260002 1.004500 0.209536 0.816415
0.400292 0.264345 1.004850 0.212608 0.813193
0.392257 0.266796 1.003030 0.214055 0.818396
0.394425 0.255101 1.005030 0.206196 0.817038
0.399682 0.269170 1.004160 0.215868 0.813582
0.397011 0.273528 1.003080 0.218746 0.815291
0.396299 0.280239 1.002020 0.223258 0.815704
0.397067 0.284811 1.001500 0.226359 0.815162
0.397983 0.288692 1.001050 0.228988 0.814525
0.397287 0.357177 0.994419 0.276056 0.814670
0.394974 0.351411 0.994593 0.272021 0.816221
0.396144 0.365548 0.994067 0.281839 0.815417
0.394632 0.372786 0.994011 0.286843 0.816417
0.396203 0.378422 0.994367 0.290781 0.815377
0.399121 0.561216 0.995292 0.411458 0.816025
0.403985 0.566686 0.995794 0.415362 0.813087
0.399000 0.566856 0.994928 0.415364 0.816258
0.401026 0.555891 0.996060 0.407833 0.814686
0.405260 0.573237 0.995622 0.419926 0.812412
0.399826 0.572377 0.994739 0.419209 0.815860
0.404401 0.578065 0.995216 0.423250 0.813051
0.399169 0.579340 0.994193 0.424013 0.816407
0.403941 0.582981 0.994855 0.426632 0.813415
0.399016 0.586055 0.993712 0.428644 0.816577
0.401772 0.592031 0.993902 0.432814 0.814887
0.401227 0.598658 0.993343 0.437340 0.815277
0.389524 0.359087 0.993880 0.277244 0.819822
0.387860 0.349134 0.994077 0.270320 0.820938
0.388359 0.366598 0.993647 0.282436 0.820580
0.390379 0.370691 0.993752 0.285314 0.819233
0.389374 0.376401 0.993894 0.289265 0.819897
0.398734 0.383481 0.994980 0.294319 0.813720
0.389836 0.385887 0.994685 0.295827 0.819592
0.388216 0.395449 0.995563 0.302340 0.820677
0.394084 0.393505 0.996088 0.301044 0.816829
0.399238 0.389039 0.995860 0.298105 0.813416
0.401287 0.396431 0.997450 0.303068 0.812114
0.393961 0.567208 0.993888 0.415475 0.819430
0.392880 0.556989 0.994241 0.408354 0.819790
0.398440 0.555832 0.995563 0.407721 0.816311
0.393693 0.575130 0.993366 0.420962 0.819784
0.393088 0.581267 0.992790 0.425192 0.820248
0.392250 0.586367 0.992222 0.428685 0.820830
0.395237 0.592752 0.992461 0.433157 0.819023
0.395094 0.602200 0.991775 0.439621 0.819171
0.393106 0.692251 0.985859 0.500401 0.820881
0.397044 0.699286 0.986475 0.505235 0.818429
0.391263 0.701507 0.985324 0.506665 0.822222
0.399802 0.693760 0.987038 0.501518 0.816524
0.404973 0.692789 0.987883 0.500939 0.813104
0.403981 0.700426 0.987661 0.506108 0.813905
0.398213 0.706456 0.986697 0.510127 0.817816
0.393053 0.708501 0.985686 0.511446 0.821218
0.403666 0.707299 0.987676 0.510788 0.814273
0.396245 0.712134 0.986378 0.513958 0.819241
0.392084 0.712630 0.985505 0.514236 0.821944
0.402661 0.713430 0.987556 0.514950 0.815076
0.395090 0.718142 0.986187 0.518026 0.820138
0.398288 0.724013 0.986949 0.522068 0.818226
0.402532 0.720620 0.987651 0.519837 0.815349
0.403996 0.727052 0.987966 0.524241 0.814543
0.397305 0.730210 0.986800 0.526259 0.819018
0.402747 0.733763 0.987780 0.528763 0.815528
0.398572 0.736695 0.987040 0.530669 0.818342
0.403787 0.741312 0.987786 0.533895 0.814977
0.396606 0.742323 0.986614 0.534432 0.819754
0.404687 0.748799 0.987716 0.538964 0.814524
0.399323 0.747329 0.987014 0.537860 0.818070
0.407421 0.754108 0.987741 0.542598 0.812774
0.399483 0.753941 0.986791 0.542321 0.818079
0.396307 0.760398 0.986063 0.546596 0.820301
0.399281 0.765328 0.986231 0.549975 0.818414
0.394077 0.764931 0.985563 0.549593 0.821875
0.403732 0.760350 0.986969 0.546720 0.815344
0.400678 0.769797 0.986091 0.553009 0.817552
0.395577 0.769570 0.985545 0.552741 0.820963
0.406434 0.767337 0.986686 0.551465 0.813636
0.398842 0.774642 0.985509 0.556207 0.818857
0.404995 0.772884 0.986133 0.555158 0.814693
0.404787 0.777793 0.985650 0.558431 0.814903
0.407829 0.783392 0.985200 0.562211 0.812924
0.397975 0.783632 0.984601 0.562186 0.819557
0.406302 0.792198 0.984129 0.568039 0.814063
0.397732 0.793174 0.983682 0.568543 0.819863
0.380700 0.356358 0.993168 0.275210 0.825667
0.379132 0.347026 0.993175 0.268713 0.826693
0.382170 0.364993 0.993230 0.281232 0.824686
0.384425 0.371690 0.993427 0.285917 0.823177
0.382126 0.378792 0.993562 0.290808 0.824696
0.379780 0.386165 0.993828 0.295853 0.826236
0.382763 0.392807 0.994604 0.300450 0.824242
0.386150 0.564537 0.992201 0.413380 0.824147
0.384386 0.555848 0.992227 0.407269 0.824926
0.387861 0.572438 0.992203 0.418932 0.823341
0.385603 0.583071 0.990799 0.426218 0.824860
0.388232 0.589923 0.991000 0.431026 0.823346
0.382930 0.588702 0.989679 0.430020 0.826543
0.388726 0.577917 0.992060 0.422757 0.822916
0.389426 0.596901 0.990830 0.435855 0.822681
0.383824 0.594385 0.989561 0.433957 0.826086
0.389184 0.604648 0.990246 0.441155 0.822888
0.384856 0.601053 0.989416 0.438568 0.825537
0.384649 0.693469 0.984104 0.501112 0.826378
0.385030 0.700416 0.983964 0.505823 0.826208
0.386808 0.708290 0.984273 0.511206 0.825220
0.388778 0.715401 0.984759 0.516067 0.824131
0.387345 0.721942 0.984473 0.520486 0.825217
0.393000 0.725072 0.985860 0.522698 0.821682
0.391972 0.730258 0.985677 0.526192 0.822483
0.388593 0.727752 0.984856 0.524438 0.824583
0.393137 0.736428 0.985926 0.530386 0.821873
0.387829 0.733398 0.984679 0.528241 0.825209
0.391890 0.743022 0.985628 0.534806 0.822842
0.387699 0.740187 0.984643 0.532816 0.825456
0.393739 0.749163 0.985933 0.538984 0.821771
0.387863 0.746875 0.984659 0.537324 0.825520
0.393248 0.755902 0.985703 0.543508 0.822239
0.388155 0.753621 0.984675 0.541866 0.825497
0.388737 0.761533 0.984671 0.547187 0.825300
0.390570 0.768106 0.984852 0.551638 0.824255
0.390987 0.775338 0.984518 0.556483 0.824103
0.388327 0.784039 0.983698 0.562252 0.826057
0.391753 0.790212 0.983581 0.566452 0.823843
0.375326 0.371774 0.992720 0.285839 0.829210
0.375338 0.362160 0.992600 0.279163 0.829201
0.374969 0.381221 0.993085 0.292388 0.829435
0.374627 0.386521 0.993347 0.296003 0.829658
0.374881 0.393129 0.993676 0.300518 0.829443
0.381352 0.571155 0.990542 0.417814 0.827226
0.384080 0.576923 0.990916 0.421915 0.825717
0.377478 0.578140 0.988910 0.422524 0.829641
0.375624 0.570679 0.988949 0.417281 0.830612
0.378368 0.585462 0.988590 0.427616 0.829209
0.378366 0.591960 0.988187 0.432105 0.829334
0.378414 0.600361 0.987746 0.437896 0.829463
0.379932 0.696364 0.982919 0.502999 0.829432
0.380577 0.702544 0.982856 0.507192 0.829083
0.379547 0.709277 0.982482 0.511744 0.829852
0.382530 0.716187 0.983229 0.516497 0.828125
0.381304 0.722936 0.982958 0.521049 0.829081
0.382836 0.729217 0.983386 0.525330 0.828268
0.382462 0.737191 0.983311 0.530704 0.828714
0.382589 0.743973 0.983360 0.535273 0.828810
0.382489 0.750481 0.983344 0.539646 0.829053
0.382125 0.757049 0.983250 0.544043 0.829465
0.381425 0.762682 0.983094 0.547798 0.830086
0.383470 0.769550 0.983469 0.552439 0.828941
0.383485 0.778425 0.983278 0.558388 0.829162
0.382372 0.784940 0.982852 0.562725 0.830047
0.384000 0.792265 0.982475 0.567639 0.829043
0.367979 0.363105 0.991819 0.279722 0.834053
0.366584 0.372140 0.991748 0.285964 0.834940
0.369365 0.378439 0.992290 0.290366 0.833120
0.369040 0.386740 0.992562 0.296098 0.833324
0.368275 0.394223 0.992695 0.301100 0.833834
0.370086 0.578955 0.986720 0.422817 0.834035
0.373434 0.582862 0.987333 0.425636 0.832086
0.369280 0.583567 0.986094 0.425972 0.834568
0.371818 0.573874 0.987640 0.419361 0.832934
0.372602 0.588279 0.986744 0.429354 0.832688
0.367271 0.586838 0.985339 0.428164 0.835848
0.373355 0.595595 0.986599 0.434437 0.832419
0.368014 0.592453 0.985270 0.432076 0.835550
0.373153 0.601016 0.986305 0.438162 0.832668
0.368763 0.599507 0.985178 0.436980 0.835292
0.374742 0.697749 0.981626 0.503848 0.832753
0.375045 0.704458 0.981433 0.508395 0.832624
0.368281 0.700918 0.979920 0.505883 0.836898
0.369283 0.695088 0.980476 0.501953 0.836228
0.374365 0.710029 0.981136 0.512160 0.833137
0.369575 0.707385 0.979973 0.510282 0.836133
0.376072 0.715294 0.981546 0.515764 0.832175
0.368845 0.714058 0.979659 0.514792 0.836706
0.377682 0.720598 0.981986 0.519395 0.831301
0.371753 0.721527 0.980374 0.519905 0.835042
0.376558 0.726566 0.981700 0.523413 0.832158
0.369294 0.729669 0.979674 0.525360 0.836783
0.375772 0.734699 0.981502 0.528889 0.832861
0.369368 0.735925 0.979693 0.529579 0.836898
0.377805 0.741223 0.982091 0.533323 0.831766
0.370723 0.742438 0.980114 0.533997 0.836226
0.377030 0.747071 0.981916 0.537244 0.832415
0.371416 0.750082 0.980380 0.539137 0.836031
0.376418 0.753548 0.981797 0.541582 0.832998
0.369637 0.756162 0.979933 0.543171 0.837336
0.374758 0.760884 0.981406 0.546458 0.834275
0.377802 0.765725 0.982263 0.549752 0.832516
0.376807 0.770298 0.982036 0.552788 0.833288
0.378593 0.775002 0.982406 0.555977 0.832276
0.377690 0.781353 0.982070 0.560199 0.833024
0.377963 0.788136 0.981847 0.564743 0.832983
0.369933 0.016392 1.014320 0.045253 0.831980
0.366974 0.008900 1.012680 0.040372 0.833668
0.384208 0.014650 1.015260 0.044035 0.822594
0.396898 0.008557 1.015070 0.039996 0.814093
0.398940 0.015793 1.016040 0.044794 0.812803
0.357784 0.161736 1.008060 0.142318 0.839965
0.363945 0.168325 1.009240 0.146877 0.836089
0.357867 0.170913 1.007440 0.148333 0.839962
0.363241 0.161053 1.009460 0.142059 0.836486
0.363279 0.178125 1.008460 0.153305 0.836608
0.356965 0.178031 1.006610 0.152952 0.840544
0.364306 0.183062 1.008430 0.156595 0.836050
0.360020 0.185051 1.007010 0.157739 0.838743
0.363283 0.192220 1.007400 0.162673 0.836857
0.369176 0.185082 1.009570 0.158165 0.832998
0.367872 0.192851 1.008630 0.163313 0.834001
0.366867 0.199648 1.007660 0.167807 0.834736
0.360645 0.198285 1.006140 0.166640 0.838624
0.368023 0.207586 1.007040 0.173221 0.834114
0.361423 0.206358 1.005560 0.172121 0.838274
0.360644 0.559460 0.985395 0.409006 0.839198
0.364750 0.566115 0.986207 0.413734 0.836970
0.360307 0.568878 0.984790 0.415500 0.839696
0.366975 0.560885 0.987117 0.410176 0.835487
0.370709 0.560122 0.988211 0.409786 0.833233
0.370345 0.566829 0.987722 0.414416 0.833654
0.365835 0.573254 0.986018 0.418717 0.836492
0.360303 0.575200 0.984361 0.419874 0.839843
0.363608 0.581489 0.984764 0.424335 0.837969
0.362712 0.589050 0.984028 0.429530 0.838671
0.362670 0.595942 0.983691 0.434301 0.838881
0.363020 0.604007 0.983455 0.439886 0.838894
0.351538 0.164628 1.006220 0.143960 0.843955
0.351407 0.173072 1.005520 0.149487 0.844045
0.353448 0.177959 1.005560 0.152767 0.842720
0.353984 0.181793 1.005440 0.155324 0.842432
0.352242 0.187652 1.004620 0.159153 0.843666
0.356392 0.193532 1.005380 0.163266 0.841206
0.351590 0.192731 1.004130 0.162534 0.844215
0.356335 0.201296 1.004760 0.168488 0.841425
0.350725 0.198231 1.003570 0.166219 0.844905
0.356001 0.206586 1.004250 0.172095 0.841749
0.352632 0.205090 1.003540 0.170955 0.843861
0.354887 0.564634 0.983490 0.412393 0.842799
0.353342 0.556433 0.983498 0.406695 0.843480
0.355402 0.572120 0.983188 0.417581 0.842696
0.356498 0.578941 0.983025 0.422326 0.842191
0.357287 0.585591 0.982793 0.426948 0.841867
0.355575 0.599344 0.981651 0.436401 0.843272
0.357087 0.606948 0.981778 0.441707 0.842582
0.353356 0.605116 0.980847 0.440313 0.844792
0.357206 0.592063 0.982417 0.431423 0.842083
0.341430 0.162227 1.003660 0.142008 0.850361
0.345295 0.160509 1.004860 0.141032 0.847925
0.345223 0.167853 1.004310 0.145830 0.847969
0.347144 0.171750 1.004590 0.148466 0.846788
0.346664 0.174549 1.004170 0.150279 0.847071
0.350143 0.178397 1.004670 0.152928 0.844827
0.344871 0.179695 1.003220 0.153601 0.848215
0.349702 0.182768 1.004210 0.155790 0.845154
0.346842 0.185449 1.003320 0.157492 0.847037
0.346768 0.191508 1.002960 0.161541 0.847227
0.344838 0.197786 1.002110 0.165714 0.848612
0.346043 0.205115 1.001920 0.170731 0.848040
0.343515 0.559298 0.980768 0.408428 0.849550
0.349783 0.567128 0.981916 0.413951 0.845925
0.343229 0.568231 0.980129 0.414532 0.849944
0.349622 0.560016 0.982286 0.409073 0.845825
0.349710 0.575551 0.981357 0.419752 0.846178
0.341846 0.575798 0.979268 0.419681 0.850954
0.352317 0.582520 0.981634 0.424654 0.844781
0.345714 0.583208 0.979825 0.424904 0.848792
0.351406 0.589002 0.981023 0.429102 0.845502
0.345104 0.590290 0.979293 0.429777 0.849360
0.353178 0.593925 0.981251 0.432571 0.844568
0.348187 0.596095 0.979849 0.433894 0.847665
0.349145 0.603744 0.979821 0.439219 0.847327
0.341557 0.173006 1.002880 0.149076 0.850286
0.345074 0.171705 1.004050 0.148364 0.848109
0.336449 0.165342 1.001930 0.143850 0.853441
0.339085 0.178387 1.001730 0.152545 0.851858
0.340884 0.185189 1.001770 0.157111 0.850815
0.340317 0.193024 1.001160 0.162352 0.851343
0.340068 0.200471 1.000680 0.167382 0.851688
0.340619 0.206061 1.000510 0.171225 0.851500
0.334527 0.560363 0.978640 0.408963 0.855209
0.334982 0.570564 0.978033 0.415922 0.855124
0.335664 0.576422 0.977747 0.419943 0.854816
0.336870 0.582182 0.977729 0.423928 0.854216
0.339671 0.588499 0.978047 0.428369 0.852652
0.339566 0.596057 0.977716 0.433579 0.852961
0.342785 0.602070 0.978265 0.437840 0.851185
0.330572 0.167915 0.999848 0.145311 0.857032
0.334310 0.173892 1.000600 0.149389 0.854774
0.328729 0.172653 0.998866 0.148371 0.858150
0.335328 0.180837 1.000440 0.154034 0.854209
0.329422 0.179877 0.998592 0.153179 0.857783
0.334281 0.187596 0.999685 0.158497 0.854954
0.329628 0.186386 0.998259 0.157541 0.857751
0.335340 0.195681 0.999566 0.163988 0.854496
0.329597 0.192475 0.997923 0.161630 0.857883
0.335979 0.200319 0.999531 0.167157 0.854222
0.331416 0.200345 0.998139 0.167024 0.857006
0.336533 0.204838 0.999440 0.170248 0.853997
0.331124 0.207997 0.997725 0.172255 0.857414
0.331232 0.164065 1.000400 0.142817 0.856652
0.333337 0.602389 0.976141 0.437755 0.857087
0.338216 0.606388 0.977124 0.440677 0.854167
0.333901 0.609434 0.976198 0.442627 0.857015
0.338324 0.601766 0.977197 0.437476 0.853935
0.343700 0.608947 0.978383 0.442625 0.850872
0.338352 0.612779 0.977156 0.445082 0.854373
0.333222 0.615308 0.976138 0.446651 0.857734
0.343261 0.615489 0.978266 0.447126 0.851429
0.338761 0.619589 0.977330 0.449792 0.854441
0.333400 0.622660 0.976365 0.451721 0.858004
0.345641 0.622601 0.978826 0.452105 0.850240
0.340081 0.628002 0.977725 0.455628 0.853993
0.333518 0.631598 0.976602 0.457877 0.858371
0.347344 0.631946 0.979183 0.458586 0.849531
0.323621 0.153975 0.999028 0.135958 0.861478
0.329713 0.159417 1.000340 0.139716 0.857634
0.322704 0.161399 0.997906 0.140761 0.861882
0.329093 0.153244 1.000770 0.135678 0.858109
0.327774 0.164054 0.999272 0.142672 0.858750
0.324842 0.168339 0.997916 0.145378 0.860496
0.325210 0.174297 0.997557 0.149332 0.860264
0.323813 0.178514 0.996775 0.152086 0.861117
0.325217 0.185530 0.996816 0.156815 0.860367
0.324214 0.193412 0.996105 0.162102 0.861137
0.327206 0.197489 0.996927 0.164958 0.859463
0.323494 0.202362 0.995620 0.168177 0.861876
0.327214 0.609183 0.974916 0.442233 0.861255
0.327793 0.601278 0.974997 0.436812 0.860527
0.328514 0.617588 0.975328 0.448060 0.860858
0.326777 0.625029 0.975301 0.453115 0.862383
0.328132 0.632570 0.975736 0.458351 0.861896
0.317419 0.156309 0.996872 0.137267 0.865253
0.317604 0.148269 0.997878 0.132035 0.865337
0.316987 0.162200 0.996025 0.141098 0.865368
0.319583 0.166336 0.996377 0.143890 0.863700
0.314130 0.167640 0.994622 0.144587 0.867061
0.320139 0.172870 0.995986 0.148220 0.863324
0.314678 0.175725 0.994047 0.149954 0.866656
0.319833 0.180280 0.995323 0.153139 0.863516
0.315717 0.182267 0.993880 0.154352 0.866026
0.319856 0.187332 0.994918 0.157863 0.863594
0.314306 0.188968 0.993152 0.158816 0.867028
0.319670 0.193963 0.994613 0.162357 0.863880
0.316177 0.197792 0.993472 0.164856 0.866154
0.322429 0.601133 0.973985 0.436549 0.863929
0.318113 0.609391 0.973262 0.442087 0.867088
0.322408 0.616955 0.974266 0.447417 0.864745
0.319144 0.624512 0.974022 0.452492 0.867281
0.322498 0.632894 0.974801 0.458373 0.865549
0.308128 0.153037 0.994518 0.134850 0.871097
0.311737 0.159420 0.994822 0.139128 0.868700
0.305099 0.158467 0.992976 0.138309 0.872838
0.312738 0.152273 0.995972 0.134495 0.868260
0.307437 0.165107 0.992923 0.142738 0.871256
0.308890 0.172091 0.992663 0.147386 0.870267
0.310000 0.180415 0.992333 0.152954 0.869559
0.308881 0.187209 0.991607 0.157474 0.870330
0.309693 0.195547 0.991582 0.163155 0.870052
0.311611 0.598993 0.971842 0.434769 0.870727
0.316072 0.601881 0.972746 0.436876 0.868019
0.311209 0.606536 0.971840 0.439914 0.871337
0.312940 0.612303 0.972416 0.443916 0.870566
0.315220 0.617876 0.973069 0.447806 0.869427
0.313813 0.624815 0.973119 0.452514 0.870741
0.314761 0.631918 0.973464 0.457420 0.870499
0.300151 0.163608 0.990915 0.141545 0.875781
0.304005 0.169161 0.991505 0.145318 0.873323
0.299678 0.170035 0.990127 0.145778 0.875978
0.301066 0.150441 0.992681 0.132925 0.875512
0.300246 0.157653 0.991597 0.137632 0.875844
0.303237 0.175595 0.990708 0.149565 0.873744
0.296305 0.174542 0.988710 0.148688 0.878016
0.304436 0.183497 0.990487 0.154877 0.873022
0.298165 0.181197 0.988755 0.153182 0.876865
0.305582 0.189656 0.990505 0.159063 0.872401
0.299650 0.189258 0.988729 0.158639 0.876018
0.303952 0.194840 0.989835 0.162542 0.873517
0.298542 0.197926 0.988102 0.164514 0.876895
0.310923 0.340406 0.986608 0.263633 0.872095
0.311126 0.344423 0.986321 0.266393 0.871932
0.307026 0.346960 0.985493 0.268079 0.874617
0.304520 0.338090 0.985712 0.261969 0.876318
0.315818 0.340115 0.987246 0.263468 0.868849
0.312837 0.342995 0.986675 0.265429 0.870811
0.305042 0.354412 0.984547 0.273106 0.875875
0.312312 0.354152 0.985430 0.273009 0.871007
0.315400 0.346538 0.986602 0.267865 0.869051
0.315908 0.361275 0.985080 0.277842 0.868496
0.306887 0.360981 0.984028 0.277555 0.874552
0.311793 0.367406 0.983843 0.281904 0.871160
0.305611 0.366481 0.983232 0.281213 0.875335
0.307122 0.377418 0.982024 0.288500 0.874116
0.310839 0.380280 0.982043 0.290431 0.871536
0.305624 0.384099 0.981163 0.292926 0.874996
0.313873 0.375564 0.983090 0.287366 0.869617
0.305262 0.371577 0.982584 0.284612 0.875491
0.315330 0.380854 0.982580 0.290879 0.868500
0.303802 0.610351 0.970276 0.442315 0.876198
0.309716 0.611436 0.971713 0.443221 0.872561
0.304714 0.600156 0.970334 0.435370 0.875133
0.309183 0.616176 0.971775 0.446450 0.873170
0.304674 0.616722 0.970730 0.446692 0.876021
0.310685 0.621980 0.972375 0.450465 0.872567
0.305028 0.622542 0.971075 0.450682 0.876147
0.309304 0.628460 0.972312 0.454864 0.873809
0.303335 0.630520 0.971006 0.456090 0.877674
0.307025 0.716934 0.964234 0.514886 0.876054
0.309267 0.719965 0.964106 0.516958 0.874514
0.306988 0.719838 0.963693 0.516810 0.876009
0.310758 0.722468 0.964346 0.518720 0.873574
0.306284 0.722474 0.963662 0.518610 0.876511
0.308148 0.727551 0.964010 0.522132 0.875413
0.308584 0.736805 0.963692 0.528475 0.875261
0.311544 0.736429 0.964182 0.528294 0.873313
0.309134 0.738060 0.963742 0.529361 0.874920
0.311755 0.740149 0.964295 0.530822 0.873264
0.312112 0.703360 0.967094 0.505925 0.872949
0.318301 0.699523 0.968648 0.503507 0.868939
0.319650 0.704947 0.968147 0.507192 0.867978
0.314246 0.695981 0.968557 0.501038 0.871680
0.307781 0.695949 0.967743 0.500891 0.875977
0.321209 0.692714 0.970215 0.499047 0.867171
0.316138 0.709795 0.966836 0.510347 0.870198
0.309118 0.711065 0.965470 0.511010 0.874791
0.315051 0.717594 0.965715 0.515579 0.870834
0.315367 0.724637 0.965317 0.520369 0.870661
0.308610 0.733926 0.963929 0.526508 0.875201
0.316499 0.731721 0.965393 0.525235 0.870083
0.317088 0.738067 0.965323 0.529556 0.869786
0.310379 0.745314 0.964485 0.534310 0.874370
0.318510 0.744077 0.965749 0.533681 0.869052
0.316599 0.750586 0.965653 0.538011 0.870503
0.308695 0.753098 0.964903 0.539533 0.875806
0.318032 0.758419 0.966420 0.543342 0.869898
0.310171 0.761759 0.965683 0.545397 0.875198
0.316821 0.766527 0.966805 0.548770 0.871053
0.310731 0.769158 0.966303 0.550389 0.875177
0.295304 0.155064 0.990421 0.135788 0.878957
0.297293 0.159394 0.990503 0.138687 0.877619
0.291767 0.160568 0.988782 0.139321 0.881032
0.288495 0.154075 0.988554 0.134959 0.883207
0.293635 0.168096 0.988536 0.144342 0.879740
0.289731 0.173587 0.986884 0.147899 0.882102
0.291996 0.179043 0.987077 0.151600 0.880656
0.291525 0.186026 0.986497 0.156287 0.880980
0.292804 0.194031 0.986450 0.161732 0.880288
0.294034 0.199618 0.986657 0.165583 0.879670
0.289406 0.200417 0.985317 0.166030 0.882549
0.297949 0.345042 0.984237 0.266634 0.880614
0.298043 0.338049 0.984611 0.261812 0.880554
0.300392 0.351625 0.984193 0.271165 0.879001
0.299436 0.357736 0.983486 0.275287 0.879592
0.299260 0.365666 0.982650 0.280610 0.879633
0.301719 0.377085 0.981607 0.288241 0.877793
0.298602 0.382878 0.980732 0.292069 0.879804
0.299128 0.372029 0.981962 0.284857 0.879640
0.295027 0.602113 0.967965 0.436452 0.881277
0.294312 0.611579 0.967915 0.442891 0.882160
0.298949 0.617864 0.969334 0.447312 0.879641
0.296674 0.626623 0.969173 0.453222 0.881582
0.296819 0.637064 0.969649 0.460370 0.882106
0.304576 0.719832 0.963634 0.516800 0.877660
0.303478 0.725367 0.963521 0.520556 0.878442
0.300747 0.722504 0.963535 0.518616 0.880264
0.303133 0.727924 0.963534 0.522313 0.878715
0.306394 0.738858 0.963760 0.529838 0.876762
0.303158 0.705390 0.965737 0.507132 0.878874
0.300659 0.697373 0.966743 0.501725 0.880687
0.303134 0.712698 0.964539 0.512008 0.878751
0.301117 0.717344 0.963858 0.515136 0.880026
0.302159 0.732804 0.963594 0.525646 0.879472
0.301247 0.738855 0.963656 0.529741 0.880214
0.301719 0.745804 0.964035 0.534436 0.880125
0.302140 0.752592 0.964440 0.539034 0.880121
0.302045 0.759236 0.964945 0.543491 0.880468
0.305027 0.766410 0.965641 0.548392 0.878824
0.291632 0.365714 0.981738 0.280538 0.884751
0.294279 0.370390 0.981659 0.283717 0.882946
0.290241 0.369328 0.981255 0.282939 0.885661
0.291690 0.339706 0.983177 0.262857 0.884627
0.290696 0.346419 0.982767 0.267430 0.885327
0.293054 0.352635 0.982875 0.271719 0.883815
0.292900 0.360101 0.982367 0.276778 0.883933
0.295729 0.376416 0.981178 0.287756 0.881876
0.288866 0.374754 0.980519 0.286545 0.886523
0.291564 0.384118 0.979915 0.292828 0.884558
0.299850 0.727402 0.963474 0.521931 0.880890
0.295375 0.704133 0.965239 0.506202 0.884099
0.294080 0.695517 0.966208 0.500349 0.885071
0.296601 0.712401 0.964297 0.511799 0.883153
0.295354 0.719824 0.963652 0.516818 0.883911
0.295155 0.725956 0.963476 0.520946 0.884057
0.296219 0.731159 0.963495 0.524451 0.883415
0.295232 0.738698 0.963621 0.529548 0.884230
0.294351 0.746770 0.963928 0.534960 0.885104
0.296219 0.753565 0.964326 0.539563 0.884090
0.294919 0.761607 0.964719 0.544910 0.885309
0.298486 0.768342 0.965281 0.549521 0.883257
0.283522 0.349592 0.980812 0.269409 0.889848
0.286685 0.356732 0.981435 0.274351 0.887987
0.281324 0.355723 0.980155 0.273489 0.891372
0.287632 0.362092 0.981355 0.278006 0.887405
0.281452 0.361063 0.979934 0.277124 0.891336
0.285217 0.367899 0.980394 0.281855 0.888955
0.286974 0.343780 0.982019 0.265539 0.887676
0.286276 0.340271 0.981898 0.263112 0.888044
0.281151 0.374824 0.979097 0.286392 0.891591
0.282328 0.383029 0.978683 0.291929 0.890755
0.288749 0.703045 0.964566 0.505346 0.888472
0.287925 0.696326 0.965172 0.500755 0.889067
0.290711 0.709765 0.964137 0.509956 0.887120
0.289871 0.716795 0.963510 0.514737 0.887616
0.290444 0.723583 0.963321 0.519321 0.887230
0.289941 0.731486 0.963196 0.524640 0.887653
0.288859 0.738563 0.963260 0.529368 0.888553
0.288731 0.744742 0.963417 0.533519 0.888797
0.290138 0.751564 0.963864 0.538089 0.888104
0.289164 0.759407 0.964019 0.543319 0.889064
0.290395 0.769556 0.964410 0.550145 0.888675
0.269177 0.127804 0.985213 0.116996 0.895459
0.274691 0.133977 0.986375 0.121265 0.892027
0.270162 0.133961 0.985122 0.121144 0.894864
0.274835 0.124579 0.987058 0.114993 0.891926
0.280039 0.124420 0.988670 0.115042 0.888732
0.280358 0.131125 0.988269 0.119520 0.888529
0.276861 0.140474 0.986510 0.125648 0.890642
0.270980 0.140209 0.984935 0.125340 0.894349
0.280018 0.137867 0.987627 0.123998 0.888697
0.276700 0.144713 0.986134 0.128464 0.890717
0.273449 0.147685 0.985006 0.130376 0.892734
0.281901 0.143456 0.987722 0.127763 0.887486
0.273301 0.156358 0.984134 0.136129 0.892694
0.280980 0.150219 0.986840 0.132219 0.887975
0.283397 0.157402 0.986763 0.137032 0.886321
0.265162 0.133536 0.983776 0.120742 0.898003
0.263377 0.125754 0.983670 0.115470 0.899048
0.264490 0.139820 0.983257 0.124937 0.898456
0.266633 0.146900 0.983262 0.129703 0.897049
0.265239 0.153156 0.982329 0.133844 0.897845
0.256659 0.129843 0.981378 0.118042 0.903177
0.260253 0.136633 0.982220 0.122701 0.901080
0.254554 0.137672 0.980297 0.123237 0.904509
0.259460 0.142700 0.981569 0.126741 0.901559
0.254218 0.142218 0.979919 0.126277 0.904725
0.260743 0.150017 0.981343 0.131658 0.900690
0.253672 0.148124 0.979241 0.130207 0.904989
0.261897 0.154584 0.981256 0.134723 0.899910
0.257254 0.157145 0.979571 0.136313 0.902701
0.258982 0.121507 0.982546 0.112496 0.901697
0.247343 0.133133 0.978012 0.119979 0.908710
0.248352 0.125442 0.978814 0.114842 0.908081
0.253055 0.121591 0.980632 0.112391 0.905271
0.247093 0.142148 0.977380 0.126018 0.908882
0.245163 0.150248 0.976157 0.131401 0.910013
0.249350 0.155623 0.977193 0.135112 0.907506
0.190706 0.414685 0.938221 0.308210 0.939173
0.195656 0.422508 0.939965 0.313651 0.936724
0.190823 0.424635 0.938049 0.314872 0.939525
0.196690 0.415509 0.940627 0.309037 0.935924
0.201083 0.412581 0.942655 0.307304 0.933527
0.201222 0.421020 0.942334 0.312908 0.933670
0.195194 0.430177 0.939520 0.318789 0.937247
0.191067 0.429642 0.938027 0.318259 0.939582
0.200073 0.427875 0.941515 0.317448 0.934474
0.196148 0.436285 0.939625 0.322962 0.936875
0.191592 0.433908 0.938077 0.321161 0.939423
0.201021 0.434787 0.941547 0.322139 0.934108
0.193575 0.440766 0.938493 0.325900 0.938452
0.199463 0.440170 0.940660 0.325728 0.935084
0.199386 0.444702 0.940373 0.328807 0.935204
0.202630 0.449240 0.941241 0.332028 0.933403
0.195027 0.449333 0.938529 0.331795 0.937763
0.202998 0.456359 0.940907 0.336900 0.933257
0.194428 0.459041 0.937784 0.338411 0.938249
0.180362 0.416051 0.934262 0.308680 0.945088
0.185591 0.420344 0.936165 0.311771 0.942312
0.180302 0.424642 0.934232 0.314435 0.945563
0.184084 0.411679 0.935673 0.305916 0.942746
0.186936 0.428905 0.936546 0.317590 0.941919
0.182629 0.431891 0.934978 0.319438 0.944538
0.187184 0.436188 0.936444 0.322537 0.942035
0.182184 0.437847 0.934662 0.323464 0.944994
0.187607 0.443334 0.936289 0.327415 0.941963
0.182186 0.444496 0.934375 0.327999 0.945145
0.187096 0.451817 0.935654 0.333187 0.942401
0.181362 0.449967 0.933784 0.331700 0.945712
0.187842 0.461171 0.935437 0.339618 0.942121
0.182369 0.457202 0.933744 0.336682 0.945233
0.174264 0.417650 0.932112 0.309487 0.948716
0.174892 0.425698 0.932342 0.314939 0.948768
0.177333 0.432329 0.933126 0.319525 0.947638
0.177407 0.440072 0.932938 0.324797 0.947841
0.178063 0.445936 0.932878 0.328823 0.947573
0.176876 0.452159 0.932107 0.333022 0.948348
0.177548 0.460646 0.931900 0.338857 0.948078
0.178122 0.508276 0.930744 0.371432 0.948967
0.181960 0.516727 0.932037 0.377276 0.947063
0.175774 0.517695 0.929452 0.377736 0.950426
0.183492 0.509538 0.932806 0.372457 0.946013
0.187979 0.505978 0.934503 0.370200 0.943325
0.187605 0.514609 0.934255 0.376035 0.943834
0.181682 0.524280 0.931668 0.382366 0.947344
0.176635 0.526119 0.929383 0.383433 0.949998
0.186251 0.521835 0.933604 0.380850 0.944803
0.182092 0.532173 0.931510 0.387658 0.947177
0.177000 0.533141 0.929136 0.388143 0.949775
0.187711 0.529160 0.933998 0.385814 0.944127
0.181132 0.541015 0.930651 0.393527 0.947661
0.176114 0.539595 0.928356 0.392420 0.950169
0.188255 0.539613 0.933925 0.392806 0.943974
0.168678 0.418588 0.930200 0.309890 0.952046
0.170608 0.424265 0.930870 0.313797 0.951205
0.165927 0.424155 0.929260 0.313526 0.953942
0.164706 0.418148 0.928833 0.309426 0.954350
0.171623 0.430866 0.931172 0.318306 0.950906
0.167576 0.429513 0.929790 0.317229 0.953214
0.169525 0.521651 0.926534 0.380183 0.953710
0.172744 0.528383 0.927466 0.384809 0.951952
0.167381 0.528668 0.924972 0.384804 0.954639
0.172204 0.534350 0.926804 0.388783 0.952135
0.168423 0.533607 0.925056 0.388141 0.953996
0.173510 0.540795 0.927042 0.393123 0.951435
0.169186 0.539807 0.925028 0.392318 0.953564
0.172951 0.436833 0.931505 0.322419 0.950345
0.166668 0.437055 0.929237 0.322320 0.953955
0.172360 0.444789 0.930937 0.327819 0.950849
0.165925 0.444896 0.928597 0.327644 0.954523
0.172677 0.451283 0.930689 0.332267 0.950765
0.168274 0.452084 0.929043 0.332641 0.953282
0.172798 0.457092 0.930409 0.336245 0.950770
0.168809 0.459164 0.928840 0.337511 0.953058
0.171496 0.508503 0.928129 0.371357 0.952637
0.170228 0.515349 0.927298 0.375955 0.953411
0.160298 0.423592 0.927194 0.312914 0.957122
0.160845 0.414915 0.927393 0.307084 0.956382
0.163043 0.430668 0.928134 0.317838 0.955858
0.159346 0.442354 0.926110 0.325645 0.958076
0.162686 0.449544 0.927061 0.330691 0.956365
0.157494 0.450395 0.924814 0.331061 0.959108
0.162425 0.510149 0.924331 0.372156 0.957557
0.166512 0.515493 0.925741 0.375924 0.955403
0.162870 0.517104 0.924033 0.376880 0.957282
0.167061 0.510512 0.926269 0.372568 0.955101
0.162812 0.522974 0.923449 0.380823 0.957147
0.160876 0.528154 0.922061 0.384214 0.957946
0.164651 0.533590 0.923307 0.387992 0.955884
0.157981 0.534216 0.920168 0.388161 0.959207
0.163424 0.539249 0.922327 0.391729 0.956405
0.158979 0.541692 0.920073 0.393202 0.958561
0.160646 0.436122 0.927053 0.321459 0.957349
0.155009 0.417783 0.925117 0.308785 0.959761
0.154523 0.425774 0.924848 0.314179 0.960358
0.148499 0.422767 0.922271 0.311913 0.963372
0.148273 0.412437 0.922338 0.304912 0.963134
0.156961 0.432008 0.925669 0.318514 0.959230
0.150817 0.430204 0.923057 0.317046 0.962364
0.157167 0.437339 0.925561 0.322150 0.959240
0.151579 0.437809 0.922976 0.322230 0.962025
0.152376 0.446110 0.922799 0.327918 0.961674
0.152499 0.511153 0.919861 0.372447 0.962639
0.157785 0.517990 0.921716 0.377286 0.959890
0.152155 0.519504 0.918999 0.378081 0.962666
0.158202 0.512164 0.922388 0.373361 0.959773
0.157656 0.523313 0.921129 0.380856 0.959778
0.153780 0.527137 0.918930 0.383259 0.961556
0.148620 0.535284 0.915655 0.388502 0.963755
0.154978 0.537468 0.918479 0.390219 0.960590
0.153981 0.541539 0.917704 0.392908 0.961009
0.139475 0.100246 0.935529 0.094650 0.966732
0.141469 0.106699 0.935957 0.099120 0.965636
0.135965 0.105224 0.933723 0.097961 0.968521
0.144271 0.111872 0.936659 0.102724 0.964007
0.136889 0.111662 0.933622 0.102389 0.967916
0.142539 0.117723 0.935437 0.106671 0.964740
0.137035 0.120192 0.932927 0.108208 0.967542
0.136191 0.076541 0.935469 0.078385 0.968384
0.137313 0.084611 0.935527 0.083902 0.967863
0.130862 0.081432 0.932580 0.081518 0.970874
0.130738 0.073494 0.932928 0.076122 0.970880
0.129419 0.088560 0.931474 0.086333 0.971552
0.130755 0.093459 0.931898 0.089732 0.970989
0.127656 0.092791 0.930391 0.089165 0.972387
0.135883 0.091853 0.934439 0.088807 0.968566
0.133717 0.096540 0.933157 0.091940 0.969614
0.127895 0.095944 0.930340 0.091333 0.972278
0.138650 0.095080 0.935562 0.091106 0.967237
0.130319 0.101756 0.931233 0.095402 0.971191
0.132235 0.107044 0.931940 0.099094 0.970374
0.130386 0.110901 0.930794 0.101668 0.971197
0.132364 0.115690 0.931317 0.105003 0.970102
0.128950 0.113937 0.929866 0.103691 0.971811
0.132784 0.120714 0.931049 0.108443 0.969695
0.129156 0.118583 0.929516 0.106858 0.971486
0.118023 0.081136 0.925952 0.080850 0.976399
0.123214 0.085550 0.928468 0.084054 0.974256
0.117916 0.088669 0.925476 0.085979 0.976431
0.123697 0.092142 0.928372 0.088573 0.974071
0.118479 0.094520 0.925457 0.089993 0.976192
0.123157 0.098215 0.927759 0.092705 0.974293
0.117066 0.100888 0.924316 0.094274 0.976706
0.123450 0.104428 0.927592 0.096962 0.974177
0.119077 0.107806 0.925017 0.099079 0.975900
0.124930 0.112109 0.927889 0.102263 0.973509
0.118073 0.115245 0.923994 0.104107 0.976226
0.124154 0.121560 0.926727 0.108682 0.973572
0.119370 0.122684 0.924229 0.109275 0.975617
0.123936 0.077155 0.929284 0.078362 0.973908
0.126869 0.083797 0.930453 0.082993 0.972677
0.119004 0.075954 0.926781 0.077372 0.976032
0.128045 0.107005 0.929891 0.098913 0.972297
0.111731 0.076744 0.922778 0.077632 0.978918
0.113244 0.085102 0.923105 0.083364 0.978249
0.106319 0.084383 0.919277 0.082588 0.980857
0.103774 0.074550 0.918554 0.075852 0.982096
0.116558 0.075879 0.925475 0.077231 0.977027
0.111929 0.093304 0.921884 0.088888 0.978674
0.105035 0.092174 0.918056 0.087826 0.981221
0.111281 0.101285 0.921064 0.094292 0.978893
0.105661 0.099366 0.918005 0.092748 0.980978
0.113368 0.107960 0.921856 0.098933 0.978093
0.108116 0.105453 0.919068 0.097010 0.980091
0.112429 0.115069 0.920954 0.103770 0.978476
0.107824 0.111644 0.918598 0.101234 0.980249
0.114637 0.122651 0.921754 0.109068 0.977588
0.107781 0.119701 0.918221 0.106787 0.980337
0.097337 0.078198 0.914719 0.078064 0.984468
0.098761 0.088183 0.914772 0.084874 0.983636
0.100522 0.095283 0.915332 0.089762 0.982865
0.099070 0.100628 0.914221 0.093352 0.983424
0.101727 0.107303 0.915393 0.098017 0.982503
0.102355 0.115005 0.915428 0.103350 0.982358
0.099071 0.123151 0.913342 0.108869 0.983737
0.104436 0.595604 0.890613 0.427409 0.984418
0.105687 0.604233 0.891223 0.433272 0.984107
0.100761 0.603537 0.888649 0.432640 0.986289
0.099220 0.596414 0.887924 0.427782 0.986805
0.104977 0.610095 0.890848 0.437185 0.984611
0.102121 0.608595 0.889350 0.436088 0.985838
0.102080 0.611933 0.889321 0.438321 0.985949
0.085952 0.106107 0.906611 0.096657 0.988381
0.094217 0.113305 0.910951 0.101892 0.985373
0.086352 0.115520 0.906465 0.103178 0.988324
0.094457 0.104837 0.911432 0.096076 0.985177
0.090697 0.120511 0.908764 0.106770 0.986821
0.083955 0.122695 0.904972 0.108083 0.989394
0.090693 0.128315 0.908652 0.112180 0.987067
0.084167 0.129479 0.905039 0.112792 0.989572
0.091990 0.134240 0.909333 0.116312 0.986790
0.086346 0.135436 0.906256 0.116964 0.989017
0.092318 0.139668 0.909531 0.120062 0.986896
0.085591 0.143336 0.905943 0.122373 0.989726
0.091139 0.146468 0.908980 0.124673 0.987700
0.085770 0.150437 0.906200 0.127215 0.990084
0.092087 0.153986 0.909623 0.129828 0.987704
0.085977 0.156431 0.906477 0.131294 0.990391
0.093091 0.160183 0.910266 0.134065 0.987619
0.088832 0.160220 0.908072 0.133954 0.989433
0.090060 0.594925 0.883241 0.426458 0.990916
0.095033 0.602497 0.885622 0.431751 0.988782
0.089205 0.603765 0.882466 0.432401 0.991284
0.095216 0.593024 0.885934 0.425351 0.988553
0.098038 0.611887 0.887129 0.438170 0.987673
0.091238 0.610929 0.883422 0.437292 0.990499
0.097943 0.621656 0.886970 0.444680 0.987871
0.092025 0.618711 0.883759 0.442528 0.990308
0.104508 0.616297 0.890564 0.441309 0.984936
0.098458 0.630319 0.887076 0.450456 0.987703
0.092711 0.627271 0.883985 0.448254 0.990101
0.104815 0.627278 0.890586 0.448631 0.984952
0.069100 0.108887 0.896882 0.098106 0.994471
0.072025 0.115120 0.898326 0.102504 0.993443
0.066745 0.115080 0.895299 0.102338 0.995299
0.073294 0.108256 0.899319 0.097770 0.993003
0.074026 0.121838 0.899351 0.107219 0.992915
0.068493 0.121848 0.896184 0.107087 0.994866
0.077255 0.104119 0.901777 0.095040 0.991613
0.078857 0.114672 0.902264 0.102366 0.991048
0.078366 0.122852 0.901817 0.108039 0.991422
0.075551 0.127144 0.900183 0.110940 0.992579
0.070332 0.129394 0.897232 0.112364 0.994572
0.075493 0.133558 0.900180 0.115371 0.992929
0.070206 0.137009 0.897278 0.117618 0.995078
0.079620 0.128133 0.902496 0.111736 0.991179
0.080804 0.133323 0.903172 0.115347 0.990991
0.073489 0.139459 0.899157 0.119385 0.994020
0.070655 0.141081 0.897628 0.120424 0.995202
0.072382 0.144982 0.898760 0.123127 0.994920
0.078979 0.139853 0.902242 0.119792 0.992040
0.073588 0.151241 0.899678 0.127395 0.995002
0.079200 0.148591 0.902612 0.125770 0.992570
0.081899 0.154877 0.904269 0.130111 0.991953
0.076726 0.157525 0.901628 0.131728 0.994277
0.083277 0.163473 0.905279 0.135951 0.992002
0.077328 0.166053 0.902299 0.137471 0.994745
0.085901 0.173763 0.906994 0.142931 0.991630
0.087952 0.180583 0.908249 0.147552 0.991240
0.082067 0.182168 0.905396 0.148368 0.994049
0.079813 0.173107 0.903882 0.142261 0.994262
0.086987 0.188171 0.908042 0.152550 0.992308
0.081178 0.190340 0.905303 0.153735 0.995215
0.091921 0.175468 0.910063 0.144301 0.989080
0.093664 0.182408 0.911140 0.148997 0.988781
0.093038 0.189721 0.911045 0.153829 0.989624
0.088996 0.194622 0.909244 0.156902 0.991909
0.083546 0.197146 0.906702 0.158336 0.994691
0.088288 0.201512 0.909090 0.161435 0.992775
0.084274 0.203839 0.907222 0.162800 0.994871
0.094535 0.196663 0.911970 0.158497 0.989445
0.093465 0.205347 0.911603 0.164214 0.990559
0.080522 0.596639 0.878365 0.427272 0.995310
0.084363 0.604001 0.879906 0.432388 0.993403
0.080237 0.603577 0.877847 0.431949 0.995325
0.085731 0.597529 0.880896 0.428058 0.992843
0.086781 0.609672 0.881008 0.436289 0.992344
0.081931 0.610306 0.878450 0.436552 0.994510
0.086013 0.616886 0.880455 0.441107 0.992758
0.080605 0.617137 0.877550 0.441086 0.995106
0.087774 0.624001 0.881302 0.445909 0.992108
0.081539 0.625525 0.877824 0.446722 0.994706
0.087564 0.632030 0.881003 0.451246 0.992219
0.082146 0.635840 0.877941 0.453593 0.994509
0.087166 0.642417 0.880569 0.458140 0.992477
0.082519 0.642652 0.878051 0.458141 0.994470
0.058006 0.110793 0.890531 0.099161 0.998532
0.057869 0.116166 0.890262 0.102888 0.998576
0.053462 0.114347 0.887936 0.101529 1.000340
0.054316 0.108825 0.888599 0.097711 0.999998
0.059389 0.119770 0.891047 0.105430 0.998091
0.055693 0.119747 0.889026 0.105329 0.999539
0.057346 0.125230 0.889931 0.109177 0.999157
0.063550 0.108274 0.893768 0.097543 0.996507
0.061780 0.115269 0.892471 0.102353 0.997094
0.063131 0.121067 0.893146 0.106416 0.996768
0.058340 0.130498 0.890532 0.112847 0.999089
0.063311 0.128468 0.893285 0.111553 0.997102
0.065137 0.135667 0.894451 0.116560 0.996924
0.059606 0.135032 0.891364 0.115992 0.998973
0.066884 0.142152 0.895637 0.121046 0.996803
0.060873 0.141274 0.892328 0.120281 0.999075
0.066916 0.147295 0.895913 0.124523 0.997310
0.062833 0.146245 0.893653 0.123696 0.998834
0.069317 0.150295 0.897349 0.126625 0.996643
0.063273 0.152057 0.894229 0.127619 0.999306
0.064272 0.159113 0.895200 0.132358 0.999680
0.069696 0.156877 0.897897 0.131059 0.997147
0.072736 0.164759 0.899874 0.136435 0.996604
0.067141 0.166247 0.897080 0.137220 0.999178
0.067932 0.172795 0.897825 0.141599 0.999483
0.070595 0.170896 0.899085 0.140447 0.998121
0.070130 0.177551 0.899200 0.144835 0.998996
0.071715 0.185506 0.900458 0.150138 0.999150
0.075973 0.179967 0.902268 0.146668 0.996614
0.074536 0.172244 0.901157 0.141489 0.996513
0.076889 0.187782 0.903118 0.151856 0.996992
0.072728 0.192350 0.901365 0.154682 0.999443
