0.875316 0.604593 1.143510 0.257512 0.607466
0.843103 0.605578 1.141590 0.270617 0.607534
0.827492 0.600211 1.141570 0.276857 0.609774
0.815205 0.607050 1.140180 0.282090 0.607259
0.804465 0.602154 1.140270 0.286377 0.609333
0.794922 0.603963 1.139500 0.290370 0.608766
0.789026 0.610751 1.139060 0.293024 0.606000
0.788685 0.604347 1.139160 0.292993 0.608690
0.782083 0.602668 1.139930 0.295636 0.609238
0.771115 0.601305 1.140960 0.300136 0.609564
0.759580 0.604199 1.141620 0.304990 0.608291
0.744017 0.607984 1.142480 0.311518 0.606914
0.729239 0.611151 1.143130 0.317698 0.606135
0.718672 0.607266 1.143200 0.321924 0.608043
0.720307 0.616239 1.143460 0.321454 0.604524
0.703568 0.609422 1.142620 0.328068 0.607932
0.688481 0.604462 1.141180 0.333879 0.610556
0.677351 0.612352 1.140450 0.338305 0.608107
0.666096 0.612703 1.139260 0.342526 0.608572
0.658206 0.620499 1.138970 0.345455 0.605841
0.657389 0.613875 1.138400 0.345708 0.608506
0.646239 0.614994 1.137400 0.349800 0.608524
0.626738 0.610686 1.134860 0.356659 0.610855
0.615016 0.619348 1.134400 0.360736 0.607608
0.595425 0.634597 1.133670 0.367479 0.601681
0.618947 0.603013 1.133190 0.359343 0.614153
0.611188 0.609238 1.132930 0.362061 0.611850
0.610619 0.599595 1.131920 0.362283 0.615750
0.596145 0.602656 1.130710 0.367407 0.614916
0.576704 0.606979 1.129330 0.374299 0.613530
0.558974 0.602758 1.127790 0.380713 0.615425
0.546039 0.607982 1.127880 0.385363 0.613239
0.531056 0.609856 1.128110 0.390833 0.612394
0.515249 0.611624 1.128950 0.396626 0.611536
0.503746 0.601125 1.128940 0.401053 0.615741
0.488211 0.604396 1.130930 0.406803 0.614240
0.479220 0.612758 1.132670 0.410023 0.610703
0.474300 0.601113 1.132500 0.412179 0.615159
0.865329 0.593305 1.144720 0.261251 0.611955
0.877226 0.594506 1.145320 0.256504 0.611220
0.835804 0.591626 1.143330 0.273151 0.613028
0.849277 0.588195 1.144870 0.267597 0.613997
0.871369 0.586494 1.146580 0.258657 0.614255
0.861322 0.581063 1.147270 0.262582 0.616363
0.824748 0.589869 1.143140 0.277617 0.613801
0.812597 0.593628 1.142020 0.282731 0.612451
0.796399 0.593740 1.141260 0.289410 0.612660
0.789487 0.599610 1.139840 0.292479 0.610581
0.785814 0.593586 1.141090 0.293792 0.612797
0.775934 0.591658 1.141890 0.297828 0.613353
0.762910 0.591433 1.142580 0.303242 0.613271
0.747219 0.591372 1.143190 0.309781 0.613292
0.731184 0.597439 1.143170 0.316539 0.611343
0.715308 0.591151 1.142940 0.322955 0.614312
0.699774 0.594461 1.141900 0.329223 0.613781
0.688752 0.588900 1.140760 0.333458 0.616443
0.671827 0.597735 1.139210 0.340191 0.614050
0.659362 0.607273 1.138300 0.345004 0.611082
0.660395 0.600086 1.138110 0.344543 0.613786
0.640865 0.599786 1.135630 0.351649 0.614817
0.652944 0.602947 1.137400 0.347359 0.613028
0.627399 0.600009 1.133950 0.356378 0.615106
0.053652 0.614358 1.139050 0.578552 0.611740
0.066824 0.625736 1.137220 0.572943 0.607558
0.073506 0.614556 1.139070 0.569880 0.610963
0.070673 0.603036 1.141000 0.571105 0.614838
0.028205 0.611870 1.139660 0.589428 0.613223
0.015787 0.604582 1.141230 0.594635 0.615850
0.619961 0.594159 1.132510 0.358980 0.617692
0.607387 0.588151 1.130610 0.363440 0.620467
0.591134 0.586882 1.128850 0.369250 0.621375
0.581898 0.595159 1.128700 0.372528 0.618243
0.569067 0.594273 1.127600 0.377175 0.618831
0.555164 0.591297 1.126510 0.382252 0.620133
0.544773 0.597288 1.126730 0.385969 0.617643
0.543335 0.588129 1.125880 0.386662 0.621397
0.534462 0.600837 1.127080 0.389743 0.616122
0.532616 0.591828 1.126240 0.390578 0.619827
0.520314 0.598135 1.127380 0.394996 0.617128
0.522061 0.586088 1.126200 0.394596 0.622100
0.508509 0.585733 1.127270 0.399543 0.622091
0.494164 0.588834 1.129110 0.404891 0.620503
0.480211 0.589070 1.130940 0.410206 0.620065
0.473023 0.591830 1.132070 0.412899 0.618705
0.886941 0.577680 1.150210 0.252479 0.616677
0.894362 0.585834 1.148830 0.249645 0.613641
0.882936 0.586838 1.147550 0.254169 0.613702
0.882519 0.567989 1.152520 0.254144 0.619967
0.898350 0.573799 1.152190 0.248005 0.617543
0.904314 0.592052 1.148200 0.245794 0.611179
0.873467 0.575980 1.149550 0.257753 0.617669
0.870805 0.564348 1.152740 0.258712 0.621518
0.850575 0.573884 1.148460 0.266772 0.619033
0.859981 0.567063 1.151130 0.262953 0.620943
0.839332 0.574746 1.147470 0.271283 0.618957
0.836531 0.582621 1.145230 0.272597 0.616366
0.828415 0.583848 1.144530 0.275927 0.616025
0.815027 0.581058 1.144700 0.281302 0.617064
0.825468 0.574408 1.146800 0.276887 0.619289
0.811774 0.570891 1.147140 0.282443 0.620570
0.801725 0.583997 1.143540 0.286882 0.616109
0.785499 0.581594 1.143810 0.293539 0.617007
0.798661 0.572602 1.146270 0.287869 0.620028
0.784763 0.568710 1.146890 0.293611 0.621336
0.768735 0.580694 1.144150 0.300546 0.617256
0.755041 0.580936 1.144320 0.306294 0.617144
0.773382 0.569275 1.146550 0.298370 0.621195
0.760150 0.569553 1.146330 0.303955 0.621127
0.745282 0.581117 1.144270 0.310373 0.617203
0.733044 0.580535 1.144080 0.315430 0.617711
0.746140 0.571710 1.145640 0.309839 0.620591
0.735745 0.568216 1.145590 0.314139 0.622127
0.718028 0.574038 1.143690 0.321463 0.620630
0.727431 0.569105 1.144830 0.317571 0.622108
0.702005 0.577203 1.142220 0.328058 0.620163
0.633209 0.567171 1.132950 0.353917 0.627631
0.624155 0.581278 1.132140 0.357401 0.622664
0.620914 0.568545 1.131170 0.358394 0.627621
0.610753 0.573522 1.130110 0.362175 0.626126
0.598906 0.576949 1.128980 0.366475 0.625126
0.586022 0.572709 1.127570 0.371182 0.627246
0.577609 0.584948 1.127460 0.374170 0.622500
0.573025 0.575255 1.126450 0.375883 0.626515
0.564701 0.583448 1.126370 0.378861 0.623365
0.562240 0.571682 1.125560 0.379904 0.628214
0.551184 0.580073 1.125550 0.383877 0.624802
0.534517 0.578988 1.125390 0.390064 0.625199
0.518228 0.573916 1.125850 0.396190 0.627160
0.508047 0.574270 1.126710 0.400026 0.626734
0.498275 0.573233 1.127920 0.403622 0.626898
0.486877 0.577185 1.129510 0.407911 0.624867
0.475405 0.573988 1.130950 0.412409 0.625707
0.469389 0.584998 1.132160 0.414516 0.621214
0.462682 0.574259 1.132600 0.417436 0.625051
0.888556 0.561308 1.154920 0.251805 0.621950
0.897190 0.559053 1.156140 0.248429 0.622437
0.876843 0.557720 1.155180 0.256349 0.623443
0.884830 0.551072 1.157760 0.253257 0.625295
0.898787 0.549004 1.159160 0.247863 0.625627
0.873427 0.550510 1.157180 0.257728 0.625761
0.849329 0.563985 1.151290 0.267180 0.622232
0.852071 0.555639 1.154120 0.266093 0.624684
0.863840 0.553226 1.155710 0.261452 0.625134
0.842073 0.566413 1.150040 0.270082 0.621633
0.839474 0.555743 1.153200 0.271108 0.624906
0.828895 0.563111 1.150260 0.275363 0.622861
0.826060 0.551944 1.153480 0.276552 0.626280
0.816392 0.564821 1.149050 0.280474 0.622486
0.813215 0.553810 1.152140 0.281756 0.625873
0.804111 0.562145 1.149280 0.285505 0.623372
0.797487 0.550087 1.152350 0.288247 0.627129
0.790440 0.560350 1.149260 0.291158 0.623977
0.783112 0.547707 1.152210 0.294215 0.628020
0.777951 0.559025 1.149150 0.296352 0.624475
0.773950 0.550925 1.150940 0.298030 0.627108
0.752429 0.559433 1.147990 0.307094 0.624746
0.764770 0.554843 1.149500 0.301859 0.626044
0.742198 0.561148 1.147060 0.311375 0.624414
0.731524 0.556706 1.146820 0.315739 0.626357
0.721337 0.563700 1.144890 0.319965 0.624303
0.701551 0.564038 1.142900 0.327964 0.625020
0.711444 0.561687 1.144200 0.323988 0.625422
0.062610 0.595688 1.142290 0.574613 0.617592
0.046611 0.593326 1.142970 0.581474 0.618891
0.063156 0.583105 1.144810 0.574551 0.621644
0.052373 0.567512 1.148510 0.579284 0.626972
0.073510 0.574291 1.146780 0.570273 0.624013
0.026690 0.588682 1.144270 0.589942 0.620765
0.024270 0.567551 1.149120 0.591111 0.627461
0.014779 0.582273 1.145910 0.595005 0.622906
0.013554 0.562305 1.150720 0.595608 0.629068
0.622638 0.557892 1.131540 0.357638 0.631675
0.631792 0.552991 1.133090 0.354179 0.633056
0.613247 0.562169 1.130260 0.361171 0.630447
0.600641 0.562817 1.128950 0.365914 0.630711
0.573816 0.560841 1.126230 0.375724 0.632372
0.587998 0.558265 1.127640 0.370517 0.632928
0.561188 0.562382 1.125200 0.380327 0.632025
0.547325 0.564205 1.124900 0.385479 0.631439
0.530290 0.565723 1.124970 0.391835 0.630690
0.520895 0.560207 1.125380 0.395460 0.632841
0.508016 0.561313 1.126710 0.400178 0.632066
0.497844 0.560727 1.127980 0.404077 0.631847
0.485581 0.560337 1.129670 0.408701 0.631449
0.467304 0.559202 1.131950 0.415979 0.631057
0.459048 0.558414 1.132730 0.419361 0.630991
0.455067 0.564003 1.133380 0.420759 0.628669
0.886836 0.540508 1.161150 0.252583 0.628533
0.898630 0.539084 1.162090 0.247990 0.628782
0.890725 0.532335 1.163760 0.251128 0.631039
0.901726 0.530493 1.164620 0.246854 0.631605
0.871194 0.542320 1.159660 0.258692 0.628263
0.875458 0.529699 1.163820 0.257167 0.632079
0.854347 0.548545 1.156530 0.265265 0.626750
0.845550 0.544374 1.157250 0.268802 0.628131
0.831625 0.544013 1.156350 0.274387 0.628515
0.818222 0.543137 1.155640 0.279806 0.629006
0.856895 0.541723 1.158920 0.264345 0.628696
0.861479 0.532664 1.162110 0.262666 0.631301
0.836609 0.534627 1.159700 0.272508 0.631159
0.848311 0.531268 1.161640 0.267902 0.631925
0.824240 0.534164 1.158820 0.277482 0.631559
0.811543 0.533261 1.158060 0.282644 0.632066
0.805344 0.541340 1.155270 0.285074 0.629727
0.780989 0.536621 1.154750 0.295154 0.631631
0.792012 0.533694 1.156350 0.290610 0.632341
0.770980 0.540814 1.153000 0.299274 0.630523
0.754770 0.550256 1.149820 0.306047 0.627813
0.755174 0.538444 1.152140 0.305837 0.631771
0.802716 0.533157 1.157390 0.286254 0.632250
0.745427 0.549086 1.149320 0.309935 0.628497
0.745073 0.538733 1.151130 0.310023 0.632033
0.725642 0.546257 1.147720 0.318027 0.630261
0.735525 0.539566 1.149950 0.313970 0.632122
0.702714 0.553253 1.144150 0.327349 0.628828
0.624051 0.548337 1.132200 0.356986 0.635190
0.629623 0.545235 1.133270 0.354806 0.636016
0.612257 0.547576 1.130940 0.361480 0.636009
0.596343 0.546574 1.129120 0.367425 0.637064
0.584139 0.546577 1.127600 0.371988 0.637683
0.573070 0.544390 1.126390 0.375943 0.638970
0.559380 0.551000 1.125300 0.381085 0.636726
0.546566 0.550845 1.124750 0.385872 0.636945
0.532576 0.550088 1.125070 0.391143 0.637268
0.516853 0.548643 1.126060 0.397118 0.637503
0.508450 0.548015 1.127050 0.400318 0.637395
0.498051 0.546725 1.128730 0.404104 0.637372
0.484867 0.542858 1.130810 0.409213 0.638134
0.475996 0.548218 1.131430 0.412685 0.635612
0.465403 0.542175 1.133440 0.416815 0.637326
0.457793 0.552530 1.133360 0.419898 0.633138
0.888992 0.521099 1.166820 0.251966 0.634755
0.903698 0.519418 1.167470 0.246182 0.635314
0.873645 0.519119 1.166830 0.258029 0.635463
0.880081 0.515823 1.168020 0.255551 0.636455
0.897784 0.508830 1.170020 0.248639 0.638880
0.883835 0.510804 1.169490 0.254113 0.638081
0.866101 0.514775 1.167700 0.261105 0.636833
0.858988 0.520808 1.165560 0.263815 0.635000
0.839271 0.527519 1.162130 0.271582 0.633191
0.840959 0.518683 1.164880 0.271037 0.635917
0.850678 0.513847 1.167110 0.267302 0.637170
0.859107 0.507534 1.169240 0.263997 0.639275
0.830723 0.525668 1.161930 0.275018 0.633962
0.825096 0.515215 1.164350 0.277444 0.637404
0.817555 0.524028 1.161190 0.280331 0.634795
0.811010 0.511876 1.163760 0.283124 0.638914
0.782728 0.530417 1.156370 0.294451 0.633623
0.775174 0.529069 1.156020 0.297557 0.634272
0.764055 0.526855 1.155440 0.302141 0.635333
0.803532 0.523650 1.160000 0.285996 0.635243
0.799864 0.511575 1.162640 0.287615 0.639351
0.781609 0.521362 1.158430 0.294949 0.636616
0.791838 0.517071 1.160470 0.290798 0.637757
0.770457 0.517919 1.158060 0.299536 0.638095
0.761503 0.515322 1.157630 0.303198 0.639263
0.743404 0.529106 1.152730 0.310624 0.635338
0.752186 0.519845 1.155560 0.307005 0.638100
0.725302 0.535835 1.149360 0.318070 0.633858
0.730824 0.522343 1.152380 0.315686 0.638158
0.057830 0.538484 1.155380 0.577188 0.636022
0.035692 0.548633 1.153460 0.586424 0.633113
0.072316 0.552273 1.151680 0.571048 0.631291
0.073480 0.563809 1.149050 0.570410 0.627499
0.075362 0.540352 1.154390 0.569845 0.635113
0.040469 0.535543 1.156760 0.584547 0.637051
0.019567 0.551639 1.153280 0.593138 0.632329
0.014067 0.543679 1.155720 0.595482 0.634577
0.025581 0.534016 1.158000 0.590719 0.637406
0.014783 0.524493 1.161330 0.595212 0.639858
0.624000 0.539110 1.133240 0.356852 0.638512
0.603208 0.535241 1.130920 0.364730 0.640928
0.613312 0.530430 1.132950 0.360798 0.642156
0.589824 0.529708 1.130000 0.369685 0.643618
0.579842 0.537394 1.127520 0.373324 0.641441
0.573636 0.536286 1.126780 0.375573 0.642192
0.563444 0.533865 1.126480 0.379493 0.643456
0.546082 0.538903 1.125460 0.386116 0.641844
0.532616 0.534887 1.125890 0.391301 0.643446
0.522574 0.536464 1.126350 0.395164 0.642598
0.510511 0.535056 1.127990 0.399619 0.642566
0.499023 0.529673 1.130600 0.403845 0.643796
0.491216 0.534842 1.130920 0.406830 0.641477
0.482955 0.529969 1.132760 0.409966 0.642724
0.475979 0.537403 1.132560 0.412725 0.639655
0.872916 0.512007 1.168800 0.258430 0.637715
0.896753 0.498383 1.172180 0.249046 0.642511
0.886855 0.501758 1.171670 0.253017 0.641195
0.903918 0.498090 1.171790 0.245963 0.642910
0.887689 0.490422 1.173230 0.252624 0.645547
0.874358 0.504155 1.170890 0.257971 0.640312
0.877454 0.496016 1.172580 0.256770 0.643280
0.845060 0.509081 1.167940 0.269597 0.638876
0.855057 0.496598 1.171490 0.265744 0.643203
0.866168 0.496755 1.172030 0.261296 0.643058
0.844587 0.500014 1.169940 0.269876 0.642153
0.832057 0.505460 1.167520 0.274789 0.640508
0.819606 0.505954 1.166150 0.279782 0.640654
0.831035 0.491385 1.170100 0.275235 0.645822
0.820879 0.497786 1.168000 0.279318 0.643596
0.802708 0.503558 1.164750 0.286529 0.642070
0.811057 0.499661 1.166490 0.283198 0.643220
0.783492 0.510145 1.161180 0.294238 0.640339
0.791436 0.501622 1.163740 0.290998 0.643186
0.775679 0.510825 1.160180 0.297408 0.640339
0.777755 0.500810 1.162300 0.296502 0.643876
0.755816 0.508096 1.158330 0.305453 0.641977
0.766193 0.504994 1.160130 0.301204 0.642733
0.741145 0.517303 1.154670 0.311456 0.639412
0.728567 0.510934 1.154100 0.316439 0.642156
0.734961 0.511191 1.154950 0.313875 0.641768
0.711168 0.519186 1.150390 0.323587 0.640063
0.718522 0.526863 1.150010 0.320730 0.637158
0.708262 0.529852 1.148190 0.324893 0.636597
0.718998 0.509815 1.153000 0.320262 0.642920
0.703521 0.519772 1.149290 0.326659 0.640203
0.695426 0.528100 1.146670 0.330011 0.637818
0.705864 0.508890 1.151480 0.325535 0.643757
0.744446 0.505831 1.157170 0.309979 0.643246
0.602767 0.524557 1.132410 0.364625 0.644747
0.586031 0.515272 1.132170 0.370856 0.648724
0.596268 0.514643 1.133590 0.366994 0.648362
0.575632 0.529616 1.127960 0.374829 0.644542
0.577112 0.519119 1.130230 0.374257 0.647956
0.559078 0.524646 1.127200 0.381007 0.647202
0.566417 0.522648 1.128280 0.378246 0.647487
0.550003 0.525310 1.126990 0.384549 0.647075
0.538405 0.527814 1.126630 0.389081 0.646255
0.526432 0.523498 1.128250 0.393655 0.647535
0.518492 0.528999 1.127470 0.396837 0.645423
0.515317 0.523330 1.129130 0.397890 0.647177
0.506823 0.520651 1.131080 0.400902 0.647444
0.496742 0.517213 1.133330 0.404591 0.647929
0.491015 0.525298 1.132450 0.406880 0.644859
0.899601 0.489322 1.173070 0.247792 0.646026
0.882123 0.481304 1.173890 0.254657 0.649216
0.892342 0.475747 1.173880 0.250438 0.651447
0.872020 0.486555 1.173380 0.258830 0.647100
0.859306 0.489796 1.172730 0.263982 0.645858
0.856816 0.479361 1.173240 0.264727 0.650223
0.846926 0.488563 1.172020 0.268886 0.646558
0.846230 0.480548 1.172810 0.269032 0.649869
0.824665 0.480009 1.170770 0.277588 0.650640
0.836651 0.479535 1.172010 0.272795 0.650524
0.812604 0.486410 1.168690 0.282430 0.648347
0.801750 0.493501 1.166510 0.286874 0.645846
0.782564 0.490912 1.164470 0.294458 0.647484
0.792731 0.486986 1.166290 0.290331 0.648703
0.801145 0.484970 1.167680 0.287011 0.649220
0.768128 0.488012 1.162930 0.300129 0.649026
0.755033 0.495371 1.160310 0.305564 0.646603
0.757445 0.486323 1.161890 0.304430 0.649937
0.730369 0.500677 1.156100 0.315539 0.645617
0.709073 0.496694 1.153980 0.324040 0.647804
0.718151 0.492954 1.155750 0.320328 0.648780
0.697258 0.495967 1.152660 0.328798 0.648441
0.741298 0.489506 1.159330 0.310974 0.649228
0.750901 0.485497 1.161170 0.307042 0.650423
0.726931 0.484651 1.158190 0.316672 0.651429
0.072503 0.530670 1.156950 0.571190 0.638275
0.064721 0.530059 1.157310 0.574502 0.638694
0.043564 0.524467 1.159950 0.583484 0.640039
0.026245 0.511413 1.165220 0.590533 0.643596
0.050125 0.511476 1.164090 0.580945 0.643711
0.042722 0.501575 1.168120 0.584151 0.646402
0.030864 0.490689 1.172760 0.588909 0.649344
0.050933 0.492975 1.171330 0.581130 0.648739
0.012616 0.510208 1.166020 0.596069 0.643747
0.016543 0.495778 1.170940 0.594524 0.647780
0.587371 0.504832 1.134930 0.370334 0.651774
0.576060 0.507898 1.133100 0.374620 0.651362
0.556163 0.518451 1.128570 0.382100 0.649331
0.564501 0.512560 1.130850 0.378947 0.650591
0.548375 0.517895 1.128520 0.385106 0.649744
0.549158 0.510233 1.131030 0.384744 0.651615
0.540135 0.518442 1.128670 0.388320 0.649436
0.532364 0.508020 1.132310 0.391042 0.652117
0.515787 0.511318 1.132470 0.397381 0.650791
0.504139 0.509851 1.134160 0.401715 0.650693
0.873386 0.471045 1.173830 0.257843 0.653477
0.855500 0.464412 1.173250 0.264772 0.656503
0.845305 0.472773 1.172880 0.269152 0.653177
0.827944 0.471422 1.171460 0.276012 0.654185
0.835821 0.468919 1.172180 0.272805 0.655063
0.814802 0.469418 1.169970 0.281099 0.655366
0.782416 0.478837 1.165860 0.294272 0.652269
0.797094 0.474639 1.167900 0.288305 0.653590
0.786542 0.471279 1.167020 0.292477 0.655237
0.768799 0.472402 1.164470 0.299477 0.655205
0.779094 0.468948 1.166090 0.295330 0.656377
0.754333 0.476286 1.162450 0.305402 0.653934
0.710925 0.487944 1.155680 0.323167 0.650761
0.703820 0.485095 1.155370 0.326018 0.651922
0.745276 0.479677 1.161140 0.309175 0.652783
0.744188 0.472958 1.161640 0.309449 0.655418
0.723142 0.472127 1.159500 0.317998 0.656110
0.735177 0.473805 1.160560 0.313098 0.655253
0.712164 0.477563 1.157510 0.322527 0.654359
0.701479 0.475794 1.156730 0.326855 0.655189
0.680014 0.481460 1.153490 0.335597 0.653702
0.691413 0.477787 1.155380 0.330966 0.654683
0.687128 0.490377 1.152450 0.332779 0.650644
0.667536 0.489856 1.149900 0.340441 0.651638
0.677934 0.494666 1.150330 0.336429 0.649602
0.667759 0.502874 1.146900 0.340307 0.647693
0.671699 0.483220 1.152090 0.338872 0.653427
0.642517 0.492345 1.145200 0.349698 0.652574
0.651946 0.499504 1.145050 0.346216 0.649779
0.641693 0.504598 1.142130 0.349959 0.648925
0.659136 0.491850 1.148060 0.343579 0.651583
0.659165 0.500160 1.146020 0.343475 0.649157
0.661404 0.478484 1.151750 0.342845 0.655371
0.640069 0.485405 1.146600 0.350658 0.654764
0.648171 0.481961 1.148810 0.347754 0.655173
0.866362 0.454261 1.173390 0.260062 0.660538
0.856428 0.455725 1.173060 0.264075 0.660138
0.848228 0.455383 1.172470 0.267284 0.660462
0.841903 0.462401 1.172440 0.270105 0.657677
0.839773 0.455299 1.171850 0.270669 0.660729
0.828051 0.457605 1.170870 0.275347 0.660011
0.813813 0.457832 1.169680 0.281083 0.660297
0.789575 0.455889 1.167260 0.290706 0.661626
0.786290 0.463061 1.167020 0.292264 0.658672
0.781215 0.452236 1.166020 0.293849 0.663268
0.800532 0.457859 1.168310 0.286340 0.660567
0.770580 0.459204 1.165000 0.298345 0.660567
0.757729 0.463649 1.163460 0.303668 0.658945
0.742380 0.462361 1.161990 0.309864 0.659648
0.726541 0.464873 1.160650 0.316469 0.658795
0.732735 0.463975 1.161240 0.313894 0.659077
0.714039 0.458564 1.160040 0.321433 0.661380
0.698109 0.463536 1.158300 0.328053 0.659583
0.679045 0.470266 1.155730 0.335929 0.657349
0.670503 0.472872 1.154300 0.339341 0.656696
0.651626 0.467077 1.153180 0.346589 0.659312
0.661191 0.466390 1.154660 0.342971 0.659072
0.637868 0.477948 1.148300 0.351546 0.657002
0.640787 0.466329 1.151840 0.350611 0.660194
0.682894 0.460828 1.157710 0.334270 0.660567
0.668159 0.459212 1.156840 0.340181 0.661273
0.897229 0.442004 1.174180 0.247408 0.665102
0.884929 0.454880 1.174020 0.252702 0.660005
0.883694 0.436774 1.173560 0.252611 0.667413
0.900122 0.460915 1.174180 0.246832 0.657412
0.874524 0.444480 1.173410 0.256520 0.664424
0.864225 0.441042 1.172490 0.260403 0.666033
0.854933 0.448254 1.172360 0.264363 0.663246
0.852283 0.436321 1.170980 0.264925 0.668165
0.841255 0.446502 1.171060 0.269653 0.664289
0.827460 0.440579 1.169110 0.274845 0.667020
0.813046 0.447062 1.168630 0.280882 0.664766
0.791397 0.449096 1.166910 0.289670 0.664405
0.783053 0.439805 1.165100 0.292646 0.668323
0.800830 0.446287 1.167530 0.285756 0.665393
0.769123 0.444190 1.164150 0.298437 0.666729
0.753524 0.448894 1.162970 0.304924 0.664987
0.736042 0.445049 1.161730 0.312063 0.666640
0.727879 0.455253 1.161250 0.315685 0.662575
0.726747 0.446197 1.161380 0.315964 0.666189
0.709005 0.443036 1.160800 0.323290 0.667375
0.719046 0.445508 1.161040 0.319136 0.666478
0.697768 0.445325 1.160390 0.327967 0.666363
0.654158 0.456522 1.156020 0.345566 0.662571
0.644630 0.457027 1.154800 0.349120 0.662815
0.686823 0.450417 1.159490 0.332516 0.664345
0.672459 0.445722 1.159480 0.338255 0.666018
0.655831 0.444475 1.158630 0.344745 0.666672
0.645200 0.448710 1.156820 0.348818 0.665589
0.616283 0.460482 1.151000 0.359555 0.663033
0.627613 0.467769 1.149820 0.355418 0.660489
0.616223 0.468372 1.148520 0.359599 0.660822
0.618935 0.452432 1.153610 0.358534 0.665349
0.632696 0.450291 1.155250 0.353442 0.665600
0.605712 0.461883 1.149740 0.363429 0.662955
0.606185 0.472831 1.146180 0.363293 0.659976
0.605832 0.452029 1.152900 0.363314 0.665780
0.572394 0.472100 1.144650 0.375703 0.660883
0.585209 0.475972 1.143800 0.371048 0.659712
0.572771 0.479267 1.142190 0.375652 0.659014
0.593641 0.466154 1.147530 0.367855 0.662136
0.595955 0.473625 1.145170 0.367039 0.660151
0.589356 0.453852 1.151430 0.369355 0.665545
0.577319 0.463506 1.147730 0.373836 0.663050
0.572659 0.453549 1.151040 0.375431 0.665768
0.562409 0.475738 1.143220 0.379446 0.659956
0.564630 0.467948 1.145960 0.378513 0.661943
0.551000 0.469855 1.145330 0.383526 0.661427
0.551631 0.479926 1.141760 0.383479 0.658955
0.561784 0.460331 1.148610 0.379477 0.663890
0.559156 0.450536 1.152030 0.380313 0.666462
0.546670 0.459364 1.149140 0.384984 0.663969
0.543614 0.448839 1.152960 0.385943 0.666528
0.538737 0.478272 1.142570 0.388177 0.659369
0.537009 0.468291 1.146230 0.388644 0.661735
0.522657 0.474092 1.144700 0.394040 0.660232
0.529802 0.458443 1.150080 0.391150 0.663869
0.530382 0.445920 1.154580 0.390744 0.666801
0.511529 0.471854 1.146070 0.398161 0.660645
0.510725 0.461223 1.150080 0.398256 0.662814
0.519845 0.450604 1.153480 0.394700 0.665355
0.892328 0.424355 1.173510 0.248904 0.672318
0.883775 0.427653 1.173170 0.252357 0.671137
0.877175 0.429342 1.172730 0.254980 0.670556
0.872843 0.435637 1.172800 0.256858 0.668087
0.865193 0.426160 1.171350 0.259547 0.672054
0.848972 0.423320 1.169220 0.265778 0.673449
0.838944 0.432390 1.169180 0.269993 0.670025
0.827364 0.427725 1.167440 0.274366 0.672168
0.817042 0.433608 1.167290 0.278714 0.670090
0.819719 0.425095 1.166360 0.277342 0.673377
0.804777 0.436966 1.166730 0.283778 0.669050
0.809196 0.424161 1.165340 0.281541 0.674015
0.794663 0.440650 1.166330 0.288002 0.667806
0.793335 0.430324 1.164860 0.288177 0.671951
0.782484 0.430167 1.163950 0.292626 0.672186
0.771861 0.429581 1.163060 0.296952 0.672591
0.757935 0.433860 1.162470 0.302796 0.671021
0.745335 0.434650 1.161820 0.308063 0.670761
0.734415 0.429659 1.161200 0.312584 0.672789
0.725448 0.437919 1.161270 0.316405 0.669505
0.724782 0.428827 1.161060 0.316646 0.673102
0.713887 0.429752 1.161110 0.321203 0.672676
0.702526 0.434908 1.161080 0.325913 0.670493
0.692224 0.429274 1.161560 0.330104 0.672546
0.682920 0.438254 1.160820 0.333957 0.668881
0.678140 0.425899 1.162230 0.335644 0.673668
0.669968 0.433273 1.161330 0.338989 0.670685
0.666486 0.424099 1.162630 0.340144 0.674224
0.661308 0.436463 1.160540 0.342435 0.669494
0.660074 0.428678 1.161870 0.342710 0.672454
0.640381 0.438220 1.158850 0.350353 0.669394
0.650764 0.431315 1.160970 0.346299 0.671616
0.618421 0.442191 1.156530 0.358563 0.668582
0.606584 0.442321 1.155890 0.362926 0.668719
0.591873 0.442541 1.155170 0.368322 0.668822
0.573769 0.443254 1.154500 0.374933 0.668642
0.623836 0.433481 1.159160 0.356408 0.671369
0.608405 0.433217 1.158610 0.362125 0.671579
0.593537 0.432874 1.158230 0.367591 0.671752
0.580288 0.434279 1.157470 0.372459 0.671365
0.555610 0.440305 1.155580 0.381506 0.669167
0.540584 0.438071 1.156820 0.386933 0.669227
0.529728 0.436755 1.157810 0.390882 0.669071
0.520420 0.440567 1.157020 0.394343 0.667680
0.890237 0.408896 1.172720 0.249452 0.678607
0.880296 0.419678 1.172400 0.253555 0.674419
0.880566 0.409286 1.171900 0.253279 0.678592
0.899259 0.411374 1.173460 0.245961 0.677422
0.870899 0.410609 1.170900 0.257054 0.678231
0.844992 0.413834 1.167730 0.267065 0.677334
0.836842 0.420334 1.167470 0.270395 0.674904
0.837486 0.410596 1.166500 0.269919 0.678759
0.856108 0.411291 1.169030 0.262761 0.678224
0.824174 0.414633 1.165510 0.275247 0.677466
0.807721 0.408877 1.163140 0.281795 0.680060
0.796941 0.418372 1.163530 0.286420 0.676552
0.783292 0.420298 1.162790 0.292062 0.676121
0.770742 0.416166 1.161540 0.297291 0.677892
0.760836 0.422047 1.161620 0.301482 0.675727
0.762015 0.412401 1.160730 0.300980 0.679467
0.750265 0.424850 1.161390 0.305929 0.674671
0.754227 0.415967 1.160800 0.304265 0.678137
0.742837 0.426481 1.161230 0.309056 0.674028
0.743301 0.417127 1.160680 0.308903 0.677735
0.727033 0.416069 1.160780 0.315808 0.678194
0.714555 0.415357 1.161140 0.321026 0.678433
0.705703 0.417143 1.161590 0.324649 0.677618
0.701768 0.426118 1.161420 0.326209 0.673977
0.696833 0.418604 1.162000 0.328205 0.676912
0.686497 0.415311 1.162940 0.332258 0.678041
0.670994 0.413126 1.164040 0.338209 0.678636
0.654048 0.418209 1.163550 0.344750 0.676508
0.636127 0.424036 1.161980 0.351631 0.674471
0.640166 0.413123 1.164610 0.349910 0.678308
0.620643 0.422468 1.161960 0.357409 0.675057
0.625155 0.412857 1.164660 0.355567 0.678236
0.611397 0.425807 1.160810 0.360900 0.673962
0.608945 0.417271 1.163230 0.361675 0.676677
0.598184 0.424043 1.161030 0.365764 0.674498
0.593113 0.413850 1.164130 0.367482 0.677552
0.578322 0.422907 1.161150 0.373045 0.674653
0.578691 0.411354 1.164890 0.372749 0.678029
0.566023 0.432010 1.158170 0.377653 0.671811
0.560384 0.423225 1.161140 0.379605 0.674171
0.563306 0.412905 1.164520 0.378427 0.677166
0.550525 0.429671 1.159270 0.383264 0.671974
0.548523 0.417917 1.163190 0.383893 0.675205
0.550302 0.408080 1.166340 0.383174 0.678060
0.880321 0.396618 1.171260 0.253263 0.683661
0.894022 0.397336 1.172570 0.247844 0.683125
0.898257 0.403306 1.173110 0.246223 0.680676
0.863175 0.399070 1.169250 0.259945 0.682983
0.846328 0.404830 1.167170 0.266416 0.680976
0.835960 0.400858 1.165510 0.270480 0.682703
0.853995 0.401424 1.168040 0.263459 0.682184
0.820856 0.396759 1.163170 0.276426 0.684574
0.810398 0.399942 1.162140 0.280599 0.683444
0.802219 0.397433 1.161230 0.283977 0.684608
0.791815 0.407279 1.161710 0.288362 0.681020
0.792835 0.397397 1.160570 0.287947 0.684799
0.779191 0.409007 1.161170 0.293706 0.680561
0.782612 0.396963 1.160030 0.292270 0.685211
0.769607 0.404601 1.160260 0.297772 0.682419
0.755868 0.404224 1.159900 0.303683 0.682723
0.741017 0.401944 1.159950 0.310088 0.683753
0.728880 0.398314 1.160560 0.315266 0.685265
0.718412 0.404825 1.161170 0.319536 0.682662
0.709714 0.408235 1.161610 0.323067 0.681241
0.711269 0.399705 1.161950 0.322505 0.684673
0.699435 0.404440 1.162840 0.327167 0.682630
0.681372 0.398984 1.165320 0.334141 0.684439
0.670056 0.403076 1.165670 0.338458 0.682527
0.660187 0.404976 1.165980 0.342190 0.681528
0.648508 0.406794 1.166020 0.346652 0.680629
0.637248 0.404512 1.166770 0.350891 0.681227
0.649999 0.393993 1.169030 0.345916 0.685141
0.633623 0.396877 1.169000 0.352134 0.683557
0.625249 0.403234 1.167370 0.355374 0.681333
0.609482 0.405711 1.166780 0.361290 0.680205
0.620963 0.395762 1.169740 0.356858 0.683454
0.605531 0.394351 1.170530 0.362556 0.683362
0.589401 0.402332 1.167920 0.368660 0.680766
0.572936 0.404537 1.167200 0.374776 0.679788
0.592102 0.391624 1.171570 0.367498 0.683739
0.575908 0.394067 1.170730 0.373539 0.682708
0.559920 0.400672 1.168600 0.379542 0.680476
0.547155 0.399962 1.168990 0.384285 0.680264
0.200233 0.398785 1.173290 0.521016 0.684842
0.214882 0.416135 1.172990 0.515164 0.677900
0.196793 0.419592 1.174100 0.522533 0.676335
0.210988 0.431426 1.173610 0.516805 0.671613
0.194540 0.435270 1.174860 0.523405 0.669884
0.224347 0.427555 1.172730 0.511410 0.673263
0.222033 0.435584 1.173040 0.512369 0.669957
0.223526 0.402514 1.172300 0.511518 0.683510
0.010746 0.396967 1.187320 0.596054 0.680723
0.007577 0.422432 1.188720 0.596085 0.672007
0.001082 0.421516 1.187640 0.598511 0.672446
0.016936 0.407201 1.189520 0.593328 0.677320
0.021927 0.394652 1.188160 0.592220 0.682299
0.019745 0.424131 1.190840 0.591570 0.671170
0.025652 0.411733 1.191110 0.589856 0.675738
0.891436 0.381939 1.171900 0.248778 0.689233
0.880462 0.382623 1.170880 0.253163 0.689136
0.867127 0.382339 1.169220 0.258382 0.689504
0.855916 0.380329 1.167490 0.262741 0.690445
0.850823 0.391707 1.167100 0.264681 0.686116
0.847731 0.377794 1.166110 0.265897 0.691574
0.836267 0.386444 1.164650 0.270320 0.688399
0.825603 0.379845 1.162720 0.274563 0.691103
0.816327 0.385554 1.161640 0.278207 0.689027
0.811419 0.393649 1.161580 0.280166 0.685944
0.807622 0.384536 1.160670 0.281842 0.689575
0.794703 0.386493 1.159790 0.287266 0.689073
0.782980 0.383231 1.158880 0.292340 0.690510
0.769259 0.389000 1.158960 0.298168 0.688503
0.753337 0.388374 1.159000 0.305093 0.688979
0.738984 0.386083 1.159830 0.311254 0.690037
0.729035 0.388622 1.160690 0.315357 0.689083
0.719617 0.390582 1.161720 0.319167 0.688280
0.708083 0.390768 1.163040 0.323839 0.688139
0.695914 0.386203 1.165190 0.328604 0.689733
0.685004 0.387751 1.166480 0.332741 0.688806
0.675792 0.383446 1.168600 0.336130 0.689890
0.667134 0.395340 1.167340 0.339539 0.685333
0.663130 0.386575 1.169600 0.340944 0.688236
0.656536 0.382489 1.171350 0.343330 0.689195
0.647486 0.380018 1.172900 0.346685 0.689443
0.633252 0.386521 1.172100 0.352116 0.686677
0.637619 0.373407 1.175560 0.350300 0.690911
0.617405 0.387248 1.172600 0.358028 0.685752
0.622219 0.376740 1.175750 0.356078 0.689018
0.603215 0.381629 1.174850 0.363209 0.686810
0.610999 0.371737 1.177920 0.360177 0.689825
0.585489 0.383567 1.174300 0.369862 0.685803
0.599656 0.368063 1.179380 0.364420 0.690504
0.591275 0.375134 1.177150 0.367619 0.688243
0.569365 0.381906 1.174640 0.375890 0.686086
0.580007 0.373493 1.177510 0.371883 0.688625
0.587374 0.365357 1.180140 0.369087 0.691124
0.577732 0.363182 1.180470 0.372804 0.691816
0.879466 0.370080 1.170550 0.253567 0.694040
0.891868 0.364467 1.171600 0.248598 0.696014
0.868150 0.368925 1.169240 0.258090 0.694632
0.857609 0.368967 1.167650 0.262183 0.694806
0.848053 0.369065 1.166030 0.265870 0.694904
0.837653 0.368909 1.164460 0.269968 0.695118
0.826649 0.368830 1.162640 0.274278 0.695316
0.816470 0.369775 1.161330 0.278397 0.695160
0.802997 0.371462 1.159780 0.283966 0.694760
0.790511 0.371298 1.158830 0.289275 0.695053
0.777456 0.371913 1.158320 0.294942 0.695058
0.763232 0.373287 1.158390 0.301111 0.694760
0.750675 0.375199 1.158900 0.306525 0.694193
0.740783 0.369813 1.160020 0.310824 0.696377
0.732860 0.370118 1.160980 0.314119 0.696291
0.728809 0.378475 1.161200 0.315616 0.693064
0.727008 0.368730 1.162000 0.316502 0.696822
0.712448 0.372979 1.164110 0.322187 0.695016
0.699564 0.375332 1.165990 0.327178 0.693807
0.692686 0.376268 1.167070 0.329763 0.693243
0.686716 0.381226 1.167250 0.332016 0.691210
0.684910 0.372335 1.169080 0.332683 0.694241
0.673524 0.367511 1.171920 0.336896 0.695296
0.664416 0.376534 1.171690 0.340299 0.691631
0.660613 0.363064 1.174910 0.341685 0.695945
0.655864 0.374104 1.173400 0.343445 0.691822
0.648957 0.367957 1.175650 0.345986 0.693392
0.639334 0.360842 1.178380 0.349537 0.695077
0.630118 0.366851 1.178030 0.353025 0.692417
0.620096 0.365791 1.179210 0.356775 0.692109
0.609836 0.362887 1.180690 0.360560 0.692398
0.627792 0.355653 1.180900 0.353902 0.696030
0.617129 0.357441 1.181660 0.357788 0.694574
0.608884 0.353168 1.183200 0.360905 0.695634
0.602230 0.358441 1.182230 0.363462 0.693499
0.598993 0.349725 1.184260 0.364730 0.696537
0.593706 0.357346 1.182550 0.366723 0.693729
0.591540 0.349382 1.184390 0.367630 0.696518
0.570339 0.355487 1.182040 0.375718 0.694618
0.582311 0.352058 1.183330 0.371137 0.695671
0.185104 0.382481 1.173690 0.527182 0.691280
0.203066 0.375567 1.172760 0.519694 0.694190
0.217089 0.387489 1.172260 0.513986 0.689520
0.222195 0.371644 1.171760 0.511648 0.695903
0.172662 0.372265 1.174250 0.532283 0.695271
0.168010 0.385024 1.174780 0.534261 0.690073
0.179903 0.395612 1.174270 0.529396 0.685911
0.165343 0.400308 1.175540 0.535328 0.683838
0.018573 0.371673 1.183270 0.595064 0.691033
0.023510 0.383016 1.185870 0.592446 0.686854
0.028390 0.371768 1.183270 0.591270 0.691573
0.023673 0.362600 1.181060 0.593616 0.695112
0.883961 0.355765 1.170840 0.251883 0.699479
0.894109 0.349442 1.171550 0.247833 0.701828
0.868317 0.355847 1.169190 0.258163 0.699642
0.849219 0.360588 1.166370 0.265602 0.698108
0.857184 0.357843 1.167670 0.262553 0.699014
0.841597 0.351401 1.165510 0.268859 0.701647
0.827920 0.355327 1.163280 0.274156 0.700427
0.808228 0.358856 1.160340 0.282010 0.699511
0.815678 0.351134 1.161640 0.279163 0.702277
0.798123 0.357643 1.159440 0.286300 0.700193
0.785744 0.357262 1.158720 0.291631 0.700615
0.771930 0.357303 1.158520 0.297623 0.700865
0.754907 0.357986 1.159220 0.305008 0.700871
0.742902 0.357795 1.160310 0.310146 0.701025
0.734477 0.362670 1.161200 0.313546 0.699160
0.725621 0.358678 1.162960 0.317183 0.700605
0.715852 0.353875 1.165140 0.321115 0.702203
0.705751 0.358376 1.166760 0.324898 0.700217
0.696406 0.366716 1.167760 0.328339 0.696856
0.695789 0.351564 1.169580 0.328760 0.702238
0.687290 0.350250 1.171660 0.331817 0.702188
0.684127 0.358391 1.171330 0.332923 0.699153
0.681887 0.347236 1.173030 0.333932 0.702947
0.671217 0.348939 1.174840 0.337961 0.701678
0.658566 0.348410 1.177380 0.342537 0.700882
0.649744 0.354592 1.178080 0.345710 0.698012
0.649745 0.340534 1.179660 0.345960 0.703122
0.638377 0.345357 1.180970 0.350131 0.700504
0.626564 0.342819 1.183020 0.354407 0.700551
0.617679 0.347811 1.183460 0.357610 0.698121
0.617004 0.335479 1.184650 0.358065 0.702959
0.606335 0.341955 1.184960 0.361976 0.699862
0.590950 0.338682 1.185490 0.367874 0.700847
0.572667 0.347741 1.183890 0.374922 0.697366
0.574155 0.338581 1.184920 0.374381 0.701029
0.880531 0.340310 1.170480 0.253476 0.705433
0.893350 0.334257 1.171350 0.248309 0.707685
0.865486 0.339688 1.169080 0.259623 0.705773
0.854563 0.347869 1.167520 0.263819 0.702797
0.835338 0.336361 1.165330 0.271761 0.707348
0.846430 0.338644 1.166750 0.267291 0.706342
0.855971 0.332545 1.168170 0.263612 0.708528
0.821913 0.338307 1.163350 0.277064 0.706918
0.805237 0.345344 1.160690 0.283629 0.704727
0.812515 0.338992 1.162000 0.280812 0.706922
0.793729 0.344010 1.159860 0.288514 0.705516
0.781336 0.342853 1.159420 0.293856 0.706258
0.767328 0.341128 1.159520 0.299997 0.707188
0.753481 0.340540 1.160320 0.306005 0.707616
0.746041 0.348739 1.160480 0.309011 0.704497
0.736229 0.351137 1.161730 0.313027 0.703549
0.725526 0.343575 1.164150 0.317505 0.706248
0.716259 0.343943 1.165860 0.321182 0.705827
0.708094 0.346320 1.167330 0.324248 0.704678
0.700376 0.336990 1.169620 0.327439 0.707714
0.689113 0.341236 1.171840 0.331469 0.705575
0.679069 0.334268 1.174240 0.335507 0.707481
0.670014 0.334879 1.176090 0.338748 0.706633
0.660461 0.333295 1.178000 0.342356 0.706545
0.648846 0.328208 1.180200 0.346647 0.707635
0.641300 0.331860 1.181380 0.349313 0.705789
0.629562 0.330107 1.183150 0.353642 0.705762
0.616275 0.322564 1.184690 0.358547 0.708125
0.602538 0.327770 1.185760 0.363537 0.705521
0.591083 0.327153 1.186280 0.367842 0.705639
0.581115 0.326467 1.185830 0.371611 0.705882
0.885169 0.325732 1.170810 0.251762 0.710992
0.895152 0.319618 1.171290 0.247664 0.713299
0.868730 0.322960 1.169620 0.258538 0.712073
0.845605 0.324047 1.167310 0.267910 0.711808
0.836497 0.324784 1.166220 0.271541 0.711649
0.855996 0.322342 1.168520 0.263732 0.712377
0.826761 0.320838 1.165330 0.275525 0.713281
0.806222 0.334129 1.161700 0.283521 0.708911
0.811660 0.325952 1.163190 0.281526 0.711739
0.799620 0.335304 1.160980 0.286235 0.708661
0.801214 0.326812 1.162030 0.285780 0.711749
0.776884 0.330048 1.160410 0.296091 0.711210
0.790592 0.329306 1.161050 0.290212 0.711118
0.768847 0.330263 1.160240 0.299566 0.711329
0.760929 0.330126 1.160580 0.303006 0.711502
0.749413 0.327687 1.161710 0.308012 0.712471
0.740120 0.337499 1.162150 0.311718 0.708731
0.738999 0.323782 1.163270 0.312436 0.713816
0.727651 0.327215 1.164870 0.317056 0.712336
0.718861 0.323696 1.166600 0.320613 0.713341
0.714287 0.333389 1.167000 0.322211 0.709667
0.711754 0.318963 1.168130 0.323536 0.714772
0.703601 0.324964 1.169500 0.326549 0.712225
0.691161 0.323845 1.172000 0.331358 0.711985
0.679390 0.318681 1.174250 0.335919 0.713116
0.668809 0.322262 1.176390 0.339732 0.711143
0.660174 0.321886 1.178120 0.342824 0.710838
0.653313 0.321461 1.179330 0.345290 0.710468
0.639375 0.314694 1.181120 0.350608 0.712163
0.625766 0.310625 1.182770 0.355288 0.713289
0.625555 0.317788 1.183450 0.355274 0.710433
0.616765 0.311166 1.183770 0.358548 0.712756
0.603988 0.314599 1.184960 0.363140 0.711015
0.590897 0.318818 1.185760 0.367929 0.709095
0.577247 0.314589 1.184880 0.372941 0.710843
0.520386 0.314940 1.178350 0.394341 0.711937
0.513868 0.324336 1.177730 0.397000 0.708271
0.507829 0.313953 1.176210 0.398905 0.712485
0.882862 0.311684 1.170620 0.252800 0.716353
0.893219 0.304099 1.171060 0.248552 0.719266
0.868840 0.303423 1.169880 0.258608 0.719522
0.836984 0.317110 1.166760 0.271456 0.714500
0.854389 0.309913 1.168730 0.264483 0.717073
0.842515 0.310600 1.167680 0.269295 0.716904
0.821908 0.306631 1.166020 0.277624 0.718677
0.832374 0.305665 1.167010 0.273392 0.718865
0.814042 0.312305 1.164810 0.280786 0.716732
0.797404 0.311469 1.163590 0.287641 0.717436
0.781761 0.317530 1.162000 0.294140 0.715673
0.783693 0.307836 1.163250 0.293372 0.719195
0.768046 0.320598 1.161420 0.300016 0.714907
0.771845 0.306292 1.163220 0.298397 0.720028
0.756217 0.320227 1.161850 0.305136 0.715213
0.757641 0.309129 1.163080 0.304504 0.719241
0.744925 0.313176 1.163520 0.310010 0.717837
0.731852 0.313238 1.165040 0.315536 0.717575
0.720947 0.314664 1.166650 0.319939 0.716696
0.711163 0.305059 1.168600 0.323936 0.719844
0.699771 0.311420 1.170500 0.328381 0.716966
0.690967 0.311735 1.172090 0.331732 0.716421
0.684440 0.311332 1.173220 0.334230 0.716135
0.671333 0.302356 1.175070 0.339390 0.718575
0.657454 0.300327 1.177140 0.344398 0.718651
0.657062 0.311440 1.178100 0.344274 0.714413
0.647325 0.300543 1.178740 0.348061 0.717999
0.636771 0.301091 1.180210 0.351694 0.717428
0.622604 0.299113 1.181510 0.356751 0.717593
0.606301 0.294913 1.182000 0.362399 0.718938
0.605183 0.302899 1.183340 0.362769 0.715662
0.590372 0.307233 1.184300 0.368095 0.713801
0.590771 0.293499 1.182000 0.367832 0.719233
0.575190 0.302198 1.183090 0.373492 0.715824
0.573314 0.291912 1.181270 0.374010 0.719922
0.533708 0.294714 1.178680 0.388792 0.719650
0.529914 0.305484 1.179120 0.390496 0.715524
0.523118 0.294041 1.177640 0.392852 0.720197
0.512644 0.300962 1.176710 0.396989 0.717634
0.880904 0.294352 1.170540 0.253677 0.723012
0.895117 0.288127 1.170970 0.247795 0.725434
0.868908 0.292532 1.170030 0.258582 0.723704
0.857404 0.290900 1.169510 0.263293 0.724355
0.842983 0.297267 1.168380 0.269138 0.721970
0.823576 0.297978 1.166880 0.276966 0.721901
0.830674 0.290849 1.167930 0.274115 0.724533
0.811235 0.297612 1.166080 0.282002 0.722226
0.797110 0.293948 1.165640 0.287806 0.723920
0.782917 0.295011 1.164890 0.293685 0.723871
0.768697 0.294272 1.164730 0.299683 0.724480
0.760063 0.298676 1.164250 0.303400 0.723018
0.746063 0.294869 1.165270 0.309377 0.724462
0.734822 0.301533 1.165500 0.314241 0.721894
0.722498 0.299082 1.167110 0.319415 0.722469
0.710195 0.291511 1.168940 0.324333 0.724826
0.698769 0.294238 1.170570 0.328940 0.723235
0.688964 0.290931 1.171920 0.332746 0.723979
0.687951 0.301186 1.172370 0.333067 0.720107
0.679720 0.287396 1.173030 0.336395 0.724741
0.667354 0.284680 1.174420 0.341094 0.725075
0.652989 0.287531 1.176590 0.346299 0.723245
0.640579 0.283032 1.177590 0.350565 0.724709
0.637307 0.290921 1.178960 0.351682 0.721395
0.632777 0.281659 1.178260 0.353281 0.725020
0.624605 0.286275 1.179570 0.356076 0.722884
0.607475 0.284934 1.180290 0.362034 0.722954
0.592280 0.284183 1.180410 0.367282 0.723134
0.580852 0.283632 1.180150 0.371285 0.723263
0.564178 0.283751 1.179530 0.377162 0.723275
0.554766 0.287679 1.179470 0.380625 0.721840
0.552401 0.281767 1.178610 0.381450 0.724259
0.544563 0.289039 1.179010 0.384504 0.721589
0.542361 0.277059 1.177840 0.385223 0.726458
0.528926 0.283284 1.177650 0.390537 0.724361
0.513045 0.284929 1.176690 0.396851 0.724025
0.499296 0.305384 1.174660 0.401966 0.716001
0.496215 0.289048 1.174940 0.403371 0.722516
0.485580 0.292499 1.173150 0.407208 0.721280
0.490152 0.300313 1.173340 0.405366 0.718108
0.480325 0.301954 1.171740 0.408941 0.717556
0.485101 0.285555 1.173860 0.407602 0.724017
0.451445 0.296280 1.167880 0.419495 0.720423
0.455369 0.305212 1.167490 0.417754 0.716774
0.446878 0.308707 1.166220 0.420846 0.715562
0.462728 0.286808 1.170760 0.415822 0.723825
0.476254 0.288400 1.172420 0.410836 0.722986
0.465639 0.302440 1.169370 0.414183 0.717606
0.452769 0.283668 1.169720 0.419544 0.725296
0.558723 0.296637 1.181150 0.379354 0.718225
0.543903 0.301278 1.180380 0.385049 0.716781
0.883021 0.277802 1.170680 0.252798 0.729450
0.894903 0.272448 1.170870 0.247890 0.731538
0.869376 0.282869 1.170210 0.258385 0.727466
0.857568 0.275615 1.169960 0.263158 0.730305
0.841494 0.277245 1.169290 0.269689 0.729696
0.820135 0.289615 1.167400 0.278373 0.725071
0.811524 0.284114 1.167550 0.281877 0.727274
0.822477 0.277425 1.168550 0.277404 0.729731
0.809776 0.274229 1.168400 0.282524 0.731113
0.802638 0.286815 1.166810 0.285509 0.726429
0.781485 0.283586 1.166230 0.294188 0.728137
0.791117 0.280758 1.166880 0.290154 0.728972
0.802688 0.278812 1.167700 0.285439 0.729452
0.771662 0.283430 1.166110 0.298302 0.728383
0.758486 0.288067 1.165610 0.303968 0.726885
0.748900 0.281991 1.166510 0.307974 0.729163
0.737504 0.277570 1.167210 0.312801 0.730751
0.730075 0.288147 1.166910 0.316082 0.726725
0.725150 0.274927 1.167970 0.317991 0.731515
0.715366 0.280020 1.168510 0.322177 0.729308
0.700581 0.279229 1.170110 0.328192 0.728929
0.689218 0.281948 1.171580 0.332719 0.727357
0.679783 0.275522 1.172410 0.336339 0.729298
0.671874 0.276815 1.173350 0.339459 0.728404
0.658336 0.269880 1.174260 0.344364 0.730584
0.636914 0.272710 1.176660 0.351900 0.728767
0.619678 0.269725 1.177560 0.357821 0.729592
0.621975 0.277656 1.178520 0.357009 0.726354
0.609757 0.274189 1.178650 0.361276 0.727506
0.606784 0.266024 1.177610 0.362339 0.730875
0.593926 0.275381 1.179040 0.366767 0.726754
0.589157 0.263003 1.177550 0.368517 0.732013
0.575545 0.273617 1.178580 0.373177 0.727430
0.571551 0.263835 1.177590 0.374697 0.731679
0.557788 0.271503 1.177980 0.379551 0.728452
0.543553 0.264417 1.177420 0.384997 0.731660
0.532166 0.270566 1.177400 0.389376 0.729363
0.518546 0.269665 1.177330 0.394819 0.730040
0.501622 0.271701 1.176840 0.401623 0.729381
0.483129 0.274338 1.175260 0.408802 0.728295
0.470059 0.277584 1.173210 0.413570 0.727191
0.468319 0.265741 1.175170 0.414828 0.731499
0.446969 0.274710 1.170350 0.422126 0.728772
0.458521 0.273342 1.172380 0.418036 0.728934
0.018691 0.278629 1.161450 0.594743 0.730438
0.025951 0.293048 1.163660 0.592270 0.724407
0.018931 0.299222 1.165160 0.595450 0.721647
0.025333 0.306715 1.166520 0.593047 0.718507
0.023609 0.283642 1.161940 0.592890 0.728264
0.025779 0.277014 1.160880 0.591655 0.731098
0.884787 0.260349 1.170700 0.251989 0.736318
0.898708 0.260716 1.170720 0.246257 0.736155
0.869114 0.267508 1.170440 0.258425 0.733476
0.852207 0.260871 1.170150 0.265228 0.736096
0.840273 0.262935 1.169900 0.270095 0.735312
0.829948 0.263398 1.169620 0.274281 0.735159
0.813647 0.261559 1.169260 0.280800 0.736043
0.780054 0.276865 1.166970 0.294704 0.730670
0.799500 0.268310 1.168370 0.286632 0.733559
0.783959 0.265845 1.168020 0.292954 0.734815
0.772411 0.272403 1.167310 0.297863 0.732486
0.759373 0.274895 1.167040 0.303400 0.731722
0.768210 0.261010 1.168110 0.299472 0.736927
0.752864 0.262482 1.168000 0.306022 0.736484
0.747122 0.272707 1.167400 0.308604 0.732602
0.739861 0.263100 1.168040 0.311584 0.736214
0.727611 0.263678 1.168260 0.316827 0.735831
0.715163 0.263456 1.168780 0.322105 0.735524
0.701184 0.263610 1.169770 0.327908 0.734848
0.686390 0.267064 1.171310 0.333818 0.732889
0.675237 0.257464 1.171840 0.338001 0.736220
0.672565 0.266979 1.172670 0.339079 0.732260
0.664207 0.258369 1.172810 0.342075 0.735483
0.655090 0.258439 1.173530 0.345373 0.735216
0.642011 0.254975 1.174360 0.350007 0.736325
0.622680 0.260658 1.176270 0.356813 0.733469
0.606681 0.254921 1.176440 0.362447 0.735630
0.593588 0.251744 1.176560 0.367104 0.736905
0.579245 0.253732 1.176930 0.372163 0.736027
0.558890 0.254155 1.177210 0.379479 0.735874
0.543790 0.254414 1.177350 0.385195 0.735831
0.530867 0.256301 1.177640 0.390086 0.735161
0.517747 0.257403 1.178030 0.395346 0.734891
0.509515 0.262041 1.177860 0.398640 0.733096
0.501598 0.259930 1.178210 0.401907 0.733863
0.491148 0.260935 1.177890 0.406131 0.733370
0.465394 0.255007 1.176900 0.416500 0.735334
0.476897 0.256623 1.177690 0.411956 0.734812
0.451607 0.267121 1.172540 0.420905 0.731330
0.454577 0.258621 1.174620 0.420297 0.734276
0.508479 0.251452 1.178850 0.399272 0.737210
0.497192 0.252893 1.179070 0.403850 0.736525
0.486995 0.248979 1.179300 0.408162 0.737866
0.893438 0.245849 1.170430 0.248352 0.742067
0.881862 0.247739 1.170590 0.253081 0.741326
0.868212 0.248151 1.170430 0.258637 0.741149
0.851831 0.245441 1.170260 0.265240 0.742262
0.838140 0.250532 1.170080 0.270824 0.740239
0.824181 0.251628 1.169900 0.276442 0.739915
0.814039 0.246670 1.169770 0.280429 0.742007
0.797358 0.249835 1.169180 0.287251 0.740905
0.780531 0.252773 1.168710 0.294232 0.739981
0.771491 0.247381 1.168720 0.297958 0.742200
0.759291 0.248820 1.168530 0.303109 0.741715
0.745426 0.249818 1.168450 0.309061 0.741350
0.730321 0.247716 1.168500 0.315540 0.741963
0.717995 0.251475 1.168730 0.320810 0.740183
0.702976 0.246020 1.169290 0.327115 0.741697
0.684546 0.249369 1.170630 0.334375 0.739749
0.668263 0.248345 1.171810 0.340456 0.739720
0.659465 0.240586 1.171950 0.343594 0.742748
0.656065 0.250138 1.172860 0.344940 0.738687
0.647128 0.239926 1.172840 0.348070 0.742775
0.634984 0.241255 1.173800 0.352437 0.741976
0.622848 0.247055 1.175020 0.356777 0.739243
0.604821 0.240797 1.175500 0.363223 0.741680
0.588653 0.244368 1.176230 0.368969 0.740067
0.575261 0.241982 1.176480 0.373822 0.741098
0.561354 0.238437 1.176910 0.379028 0.742547
0.543050 0.240924 1.177670 0.385743 0.741444
0.530719 0.245135 1.178090 0.390417 0.739727
0.521287 0.247436 1.178490 0.394070 0.738802
0.467689 0.247663 1.178320 0.415908 0.738079
0.458228 0.246806 1.177220 0.419549 0.738496
0.512115 0.238040 1.179340 0.398005 0.742490
0.497050 0.240764 1.179790 0.404165 0.741267
0.483793 0.237593 1.179990 0.409627 0.742237
0.475155 0.242761 1.179300 0.413070 0.740068
0.462770 0.237117 1.178660 0.417983 0.742251
0.013760 0.248775 1.157930 0.595826 0.742506
0.021208 0.265463 1.159520 0.593215 0.735774
0.024602 0.253371 1.158060 0.591261 0.740763
0.911099 0.233943 1.169760 0.241010 0.746705
0.906379 0.249837 1.170370 0.243016 0.740390
0.902772 0.233385 1.169870 0.244436 0.746995
0.911442 0.252001 1.170360 0.240915 0.739477
0.891940 0.231421 1.169950 0.248856 0.747816
0.879793 0.235631 1.170200 0.253860 0.746128
0.868498 0.234273 1.170160 0.258404 0.746714
