0.304202 0.456603 1.415530 -0.076099 0.943146
0.307510 0.475418 1.415590 -0.075163 0.949224
0.319506 0.459441 1.415660 -0.071236 0.944154
0.329071 0.476090 1.415850 -0.068272 0.949575
0.336700 0.458480 1.415820 -0.065713 0.943959
0.345264 0.472373 1.415970 -0.063058 0.948490
0.355738 0.455317 1.416110 -0.059572 0.943074
0.360910 0.474938 1.416250 -0.058048 0.949424
0.377496 0.457138 1.416650 -0.052572 0.943801
0.380595 0.478232 1.416690 -0.051753 0.950632
0.395166 0.462631 1.416980 -0.046927 0.945674
0.399566 0.476107 1.417020 -0.045641 0.950079
0.408983 0.465788 1.417200 -0.042503 0.946768
0.415398 0.476515 1.417380 -0.040561 0.950310
0.425428 0.464468 1.417520 -0.037212 0.946436
0.429067 0.477479 1.417610 -0.036173 0.950703
0.441936 0.458780 1.417780 -0.031870 0.944666
0.444519 0.472005 1.417740 -0.031101 0.948937
0.463160 0.459405 1.417890 -0.025045 0.945004
0.463508 0.473999 1.417900 -0.025003 0.949692
0.478901 0.468282 1.417900 -0.020040 0.947969
0.479557 0.459434 1.417900 -0.019768 0.945126
0.014413 0.510859 1.416630 -0.170104 0.958417
0.013875 0.500165 1.415880 -0.170146 0.955053
0.021429 0.512225 1.416740 -0.167864 0.958931
0.008424 0.500557 1.415900 -0.171910 0.955105
0.029560 0.501215 1.416010 -0.165087 0.955570
0.033332 0.517853 1.417140 -0.164037 0.960841
0.045038 0.496206 1.415750 -0.160060 0.954125
0.051349 0.513049 1.416810 -0.158203 0.959506
0.060485 0.497705 1.415910 -0.155041 0.954756
0.070388 0.510673 1.416630 -0.151948 0.958940
0.077615 0.497311 1.415890 -0.149442 0.954757
0.084414 0.511036 1.416620 -0.147346 0.959160
0.095313 0.498605 1.415910 -0.143734 0.955299
0.101298 0.515364 1.416820 -0.141920 0.960656
0.117314 0.499072 1.415930 -0.136660 0.955597
0.117213 0.516615 1.416820 -0.136810 0.961172
0.137739 0.500965 1.415970 -0.130102 0.956346
0.132235 0.516126 1.416710 -0.131973 0.961132
0.154254 0.495270 1.415690 -0.124748 0.954643
0.149284 0.512025 1.416410 -0.126459 0.959955
0.174859 0.496587 1.415640 -0.118125 0.955209
0.166864 0.513915 1.416360 -0.120809 0.960688
0.192921 0.496519 1.415530 -0.112332 0.955321
0.186777 0.513467 1.416170 -0.114404 0.960697
0.209691 0.497055 1.415520 -0.106993 0.955603
0.202067 0.510631 1.415950 -0.109481 0.959904
0.227043 0.496662 1.415560 -0.101401 0.955602
0.219111 0.515716 1.416090 -0.104100 0.961652
0.244532 0.495055 1.415570 -0.095779 0.955205
0.239225 0.512220 1.415970 -0.097588 0.960677
0.256174 0.494081 1.415550 -0.091945 0.954960
0.256469 0.506464 1.415840 -0.091923 0.958937
0.269849 0.493142 1.415560 -0.087485 0.954735
0.274428 0.514848 1.416160 -0.086144 0.961724
0.286563 0.499864 1.415780 -0.082147 0.956991
0.295240 0.513973 1.416340 -0.079454 0.961559
0.302381 0.496141 1.415880 -0.077044 0.955889
0.313020 0.511994 1.416630 -0.073725 0.961007
0.320952 0.494360 1.416170 -0.070974 0.955391
0.330528 0.511505 1.417070 -0.068041 0.960918
0.344589 0.494106 1.416590 -0.063456 0.955451
0.341471 0.509557 1.417290 -0.064520 0.960317
0.350936 0.511786 1.417570 -0.061571 0.961113
0.360763 0.503738 1.417260 -0.058339 0.958628
0.364334 0.490173 1.416630 -0.057071 0.954340
0.377698 0.509718 1.417830 -0.052958 0.960649
0.370133 0.513770 1.417920 -0.055427 0.961886
0.378208 0.499631 1.417330 -0.052712 0.957459
0.386707 0.512839 1.418150 -0.050116 0.961720
0.397607 0.502396 1.417880 -0.046510 0.958474
0.392128 0.488671 1.417150 -0.048133 0.954062
0.406620 0.488843 1.417510 -0.043484 0.954211
0.412778 0.501004 1.418130 -0.041623 0.958137
0.359710 0.514382 1.417840 -0.058773 0.961994
0.676970 0.508469 1.423530 0.043294 0.961918
0.674708 0.502991 1.423450 0.042585 0.960149
0.683312 0.500665 1.423430 0.045455 0.959324
0.687412 0.511217 1.423660 0.046455 0.963409
0.674027 0.516314 1.423610 0.042096 0.964911
0.685468 0.522906 1.423770 0.045707 0.967148
0.697578 0.504789 1.423590 0.050028 0.960707
0.703513 0.518094 1.423900 0.051561 0.965784
0.707411 0.507210 1.423780 0.053179 0.961522
0.718797 0.508642 1.423860 0.056838 0.962025
0.727578 0.523311 1.424130 0.059247 0.967709
0.738576 0.507186 1.423840 0.063195 0.961677
0.749594 0.521860 1.424160 0.066324 0.967101
0.759520 0.509312 1.423870 0.069926 0.962467
0.767117 0.521437 1.424160 0.071963 0.966911
0.776046 0.513236 1.423950 0.075230 0.963791
0.777420 0.521356 1.424140 0.075278 0.966818
0.791450 0.508044 1.423800 0.080214 0.962204
0.786562 0.522232 1.424090 0.078569 0.966737
0.802887 0.519544 1.423940 0.083837 0.965962
0.810483 0.515409 1.423810 0.086299 0.964669
0.810322 0.518352 1.423880 0.086410 0.966392
0.811845 0.501397 1.423690 0.086658 0.960448
0.816977 0.517363 1.423940 0.088394 0.965269
0.827948 0.519911 1.424230 0.091541 0.967422
0.830105 0.510341 1.424030 0.092470 0.963439
0.848977 0.504967 1.424040 0.098544 0.961823
0.844276 0.523595 1.424450 0.096953 0.967769
0.867111 0.506542 1.424230 0.104329 0.962454
0.861255 0.517998 1.424480 0.102392 0.966091
0.881304 0.497857 1.424040 0.108961 0.959770
0.882227 0.520372 1.424590 0.109092 0.967002
0.898854 0.507694 1.424450 0.114541 0.963032
0.902287 0.522312 1.424740 0.115534 0.967759
0.915497 0.502300 1.424430 0.119935 0.961412
0.912978 0.515805 1.424720 0.119028 0.965731
0.930696 0.499126 1.424480 0.124844 0.960473
0.930107 0.515101 1.424920 0.124542 0.965612
0.948219 0.503565 1.425110 0.130443 0.961929
0.947330 0.521514 1.425550 0.130038 0.967710
0.966591 0.497390 1.425940 0.136299 0.959942
0.966645 0.518872 1.426640 0.136164 0.966893
0.978611 0.504170 1.427320 0.139943 0.962150
0.984299 0.518067 1.428220 0.141621 0.966593
0.993526 0.499318 1.428780 0.143694 0.961262
0.991977 0.518633 1.429100 0.143938 0.966586
0.999418 0.499648 1.429630 0.145386 0.961412
0.998319 0.515732 1.429520 0.144912 0.966579
0.213320 0.544129 1.417360 -0.106118 0.970677
0.202422 0.528809 1.416720 -0.109511 0.965706
0.180023 0.531254 1.417050 -0.116685 0.966311
0.170380 0.546985 1.417980 -0.119886 0.971230
0.219082 0.532831 1.416770 -0.104232 0.967118
0.226633 0.543426 1.417230 -0.101877 0.970551
0.233624 0.529874 1.416600 -0.099531 0.966285
0.243643 0.545173 1.417260 -0.096421 0.971240
0.254010 0.526777 1.416480 -0.092814 0.965432
0.261260 0.542918 1.417110 -0.090566 0.970628
0.270757 0.532461 1.416710 -0.087440 0.967342
0.277990 0.545341 1.417300 -0.085200 0.971495
0.286498 0.530378 1.416800 -0.082363 0.966762
0.293699 0.542863 1.417370 -0.080133 0.970791
0.306751 0.532314 1.417240 -0.075882 0.967477
0.302400 0.546340 1.417650 -0.077359 0.971940
0.314175 0.550432 1.418050 -0.073606 0.973299
0.326694 0.538256 1.417990 -0.069497 0.969445
0.321726 0.523988 1.417330 -0.071016 0.964872
0.331997 0.525301 1.417730 -0.067648 0.965318
0.327783 0.553021 1.418450 -0.069255 0.974190
0.343547 0.550076 1.418700 -0.064115 0.973299
0.340334 0.532599 1.418190 -0.065009 0.967672
0.358427 0.529851 1.418410 -0.059312 0.966929
0.361337 0.550735 1.419050 -0.058538 0.973642
0.380660 0.527192 1.418640 -0.052143 0.966221
0.377461 0.549650 1.419230 -0.053344 0.973400
0.400008 0.525561 1.418870 -0.045962 0.965883
0.397506 0.543720 1.419340 -0.046853 0.971629
0.495615 0.527867 1.420040 -0.015033 0.967112
0.516286 0.525945 1.420310 -0.008334 0.966590
0.509360 0.543060 1.420690 -0.010950 0.972355
0.494087 0.540720 1.420400 -0.015839 0.971488
0.537890 0.522849 1.420700 -0.001376 0.965702
0.530983 0.546192 1.421190 -0.003751 0.973154
0.558729 0.524938 1.421390 0.004976 0.966537
0.551321 0.542127 1.421700 0.002794 0.971933
0.576666 0.525785 1.421980 0.010712 0.966976
0.567341 0.539299 1.422160 0.007551 0.971210
0.581597 0.543431 1.422810 0.012058 0.972659
0.589843 0.531544 1.422670 0.014852 0.968929
0.587600 0.521797 1.422080 0.014273 0.965817
0.593188 0.541051 1.423230 0.015784 0.971989
0.598500 0.521772 1.422330 0.017772 0.965924
0.602638 0.535172 1.423070 0.018911 0.970230
0.600952 0.547218 1.423450 0.018197 0.974067
0.628332 0.539569 1.423220 0.027157 0.971923
0.614649 0.545367 1.423330 0.022655 0.973642
0.618293 0.525293 1.422830 0.024092 0.967231
0.641876 0.543144 1.423320 0.031476 0.973217
0.638586 0.528548 1.423260 0.030574 0.968486
0.632833 0.517992 1.423030 0.028841 0.965033
0.641757 0.519611 1.423300 0.031684 0.965643
0.652694 0.533655 1.423420 0.035058 0.970273
0.657673 0.545372 1.423440 0.036534 0.974098
0.654697 0.519143 1.423450 0.035849 0.965624
0.670405 0.532041 1.423620 0.040770 0.969934
0.670103 0.543448 1.423590 0.040550 0.973607
0.524240 0.028180 1.414740 -0.002616 0.806647
0.503101 0.025438 1.414610 -0.009402 0.805633
0.521841 0.016629 1.414870 -0.003319 0.802917
0.554861 0.024081 1.415120 0.007258 0.805524
0.540272 0.021231 1.414990 0.002583 0.804514
0.556597 0.015711 1.415150 0.007869 0.802840
0.588894 0.025182 1.415250 0.018204 0.806093
0.572044 0.022655 1.415220 0.012797 0.805173
0.590846 0.015832 1.415270 0.018891 0.803096
0.607027 0.022821 1.415290 0.024055 0.805448
0.110789 0.039843 1.410120 -0.135656 0.807930
0.107452 0.072393 1.410340 -0.136935 0.818383
0.150089 0.033480 1.410900 -0.122994 0.806109
0.137111 0.059004 1.410830 -0.127323 0.814247
0.175545 0.067648 1.411740 -0.115032 0.817249
0.159919 0.056745 1.411300 -0.119983 0.813651
0.176930 0.046909 1.411600 -0.114458 0.810584
0.926273 0.085857 1.422430 0.126275 0.827003
0.929190 0.097146 1.423170 0.127137 0.830577
0.926269 0.107002 1.423500 0.126139 0.833715
0.942103 0.090894 1.422860 0.131330 0.828694
0.941821 0.077443 1.421970 0.131333 0.824461
0.941481 0.103349 1.423450 0.131045 0.832649
0.957306 0.081787 1.422200 0.136262 0.825973
0.956940 0.096809 1.423050 0.136001 0.830728
0.954101 0.109200 1.423530 0.134950 0.834654
0.976971 0.104145 1.422800 0.142349 0.833353
0.967972 0.107939 1.423180 0.139415 0.834440
0.973267 0.089264 1.422310 0.141314 0.828551
0.981399 0.087082 1.422030 0.143945 0.827963
0.981162 0.103154 1.422590 0.143696 0.833101
0.922671 0.116283 1.423620 0.124937 0.836681
0.911459 0.118759 1.423470 0.121333 0.837432
0.940125 0.119484 1.423690 0.130512 0.837824
0.959890 0.120244 1.423600 0.136670 0.838280
0.977763 0.119667 1.423120 0.142405 0.838346
0.969392 0.119968 1.423410 0.139724 0.838320
0.983682 0.119733 1.422930 0.144298 0.838455
0.493294 0.129970 1.414810 -0.013197 0.839214
0.505428 0.123862 1.414880 -0.009255 0.837321
0.508250 0.143608 1.415110 -0.008471 0.843690
0.489522 0.141681 1.414900 -0.014484 0.842959
0.525927 0.126116 1.415130 -0.002675 0.838167
0.527967 0.146698 1.415400 -0.002150 0.844799
0.546114 0.127946 1.415350 0.003807 0.838876
0.540828 0.141020 1.415470 0.002024 0.843049
0.560033 0.120378 1.415370 0.008333 0.836525
0.560614 0.142467 1.415680 0.008380 0.843633
0.579309 0.126961 1.415600 0.014494 0.838760
0.577955 0.142858 1.415840 0.013957 0.843864
0.598137 0.123241 1.415790 0.020573 0.837674
0.595082 0.144108 1.416220 0.019450 0.844354
0.612686 0.131121 1.416290 0.025192 0.840278
0.613519 0.146768 1.416790 0.025350 0.845306
0.629723 0.125180 1.416560 0.030702 0.838458
0.626312 0.141809 1.417010 0.029486 0.843772
0.649735 0.124960 1.417060 0.037125 0.838496
0.641147 0.139437 1.417330 0.034262 0.843080
0.656632 0.141764 1.417800 0.039213 0.843903
0.708810 0.122419 1.418230 0.056113 0.837994
0.706547 0.139509 1.418650 0.055268 0.843451
0.670989 0.147031 1.418290 0.043785 0.845662
0.720877 0.124826 1.418830 0.059931 0.838860
0.722411 0.139002 1.419360 0.060327 0.843335
0.733859 0.124887 1.419600 0.064076 0.838925
0.739567 0.142403 1.420360 0.065770 0.844490
0.748686 0.117355 1.420220 0.068915 0.836500
0.752326 0.133399 1.420810 0.069881 0.841698
0.766898 0.118987 1.420950 0.074727 0.837079
0.770524 0.139134 1.421670 0.075651 0.843621
0.787210 0.126705 1.421800 0.081189 0.839618
0.784749 0.143868 1.422240 0.080179 0.845189
0.806815 0.127634 1.422330 0.087473 0.840008
0.797832 0.141770 1.422550 0.084488 0.844493
0.813277 0.143497 1.423020 0.089430 0.845117
0.821587 0.132370 1.422820 0.092202 0.841538
0.819409 0.117274 1.422030 0.091758 0.836577
0.822612 0.141144 1.423230 0.092435 0.844387
0.838910 0.139201 1.423070 0.097923 0.843660
0.830650 0.139777 1.423150 0.095126 0.843891
0.836180 0.127991 1.422650 0.097098 0.840063
0.857664 0.119852 1.422570 0.104043 0.837545
0.849691 0.140681 1.423080 0.101386 0.844190
0.866277 0.137727 1.423160 0.106736 0.843303
0.875100 0.126784 1.423110 0.109602 0.839846
0.875174 0.115220 1.422760 0.109699 0.836141
0.878013 0.136731 1.423360 0.110512 0.843026
0.887082 0.118900 1.423110 0.113500 0.837377
0.886909 0.130346 1.423370 0.113377 0.841049
0.885870 0.139408 1.423450 0.113030 0.843915
0.900058 0.125161 1.423380 0.117643 0.839445
0.910884 0.127251 1.423480 0.121118 0.840161
0.895183 0.135558 1.423450 0.116013 0.842768
0.487872 0.179938 1.415380 -0.015259 0.855262
0.507650 0.172229 1.415510 -0.008849 0.852898
0.506842 0.194191 1.415830 -0.009250 0.859957
0.487555 0.199456 1.415600 -0.015485 0.861539
0.525249 0.178184 1.415870 -0.003229 0.854916
0.529988 0.198812 1.416310 -0.001841 0.861572
0.541639 0.181876 1.416230 0.002014 0.856194
0.548551 0.194550 1.416590 0.004151 0.860305
0.561741 0.178099 1.416470 0.008502 0.855096
0.564398 0.201680 1.417060 0.009194 0.862681
0.583302 0.176899 1.416800 0.015440 0.854824
0.576689 0.190812 1.417050 0.013217 0.859259
0.600852 0.178109 1.417280 0.021063 0.855301
0.590878 0.191174 1.417360 0.017772 0.859451
0.603550 0.192162 1.417730 0.021829 0.859829
0.614936 0.185703 1.417960 0.025518 0.857805
0.611731 0.174630 1.417560 0.024569 0.854230
0.623895 0.172788 1.417960 0.028472 0.853689
0.613846 0.203698 1.418350 0.025047 0.863576
0.682282 0.176923 1.419910 0.047149 0.855297
0.689660 0.194102 1.420810 0.049368 0.860823
0.702888 0.179388 1.420540 0.053741 0.856199
0.703259 0.194277 1.421220 0.053725 0.860946
0.717091 0.177104 1.420740 0.058322 0.855555
0.718160 0.194025 1.421510 0.058514 0.860954
0.732075 0.178126 1.421190 0.063120 0.855956
0.736692 0.195719 1.421920 0.064455 0.861614
0.751889 0.174583 1.421630 0.069498 0.854903
0.748276 0.189654 1.421940 0.068227 0.859746
0.770605 0.172852 1.422110 0.075510 0.854418
0.766380 0.192307 1.422320 0.074024 0.860719
0.785860 0.169361 1.422460 0.080423 0.853358
0.786707 0.184612 1.422570 0.080601 0.858346
0.803876 0.171557 1.422910 0.086194 0.854245
0.806177 0.192132 1.423030 0.086805 0.860910
0.818582 0.192064 1.423280 0.090790 0.860964
0.820204 0.182821 1.423310 0.091368 0.857999
0.819151 0.170152 1.423310 0.091098 0.853830
0.826320 0.192113 1.423430 0.093276 0.861027
0.830139 0.173055 1.423520 0.094618 0.854804
0.834581 0.185628 1.423540 0.095990 0.858907
0.004490 0.205022 1.409570 -0.170869 0.860419
0.012026 0.203369 1.410190 -0.168534 0.859905
0.011554 0.222446 1.410700 -0.168859 0.866015
0.003178 0.222894 1.410020 -0.171469 0.866139
0.028777 0.221378 1.411770 -0.163406 0.865712
0.021577 0.207961 1.411230 -0.165636 0.861375
0.027080 0.210292 1.411760 -0.163877 0.862093
0.026492 0.206458 1.411720 -0.164009 0.860852
0.043489 0.217329 1.412060 -0.158647 0.864529
0.032813 0.205945 1.411650 -0.161970 0.860783
0.046039 0.206511 1.411860 -0.157657 0.861083
0.052660 0.224798 1.412370 -0.155773 0.867007
0.056346 0.214459 1.412210 -0.154395 0.863702
0.054403 0.201477 1.411880 -0.154929 0.859523
0.059585 0.224434 1.412480 -0.153420 0.866923
0.066372 0.204944 1.412200 -0.151097 0.860706
0.069687 0.221459 1.412570 -0.150141 0.866031
0.079555 0.208969 1.412510 -0.146887 0.862073
0.094766 0.200987 1.412610 -0.141921 0.859604
0.088636 0.222037 1.412840 -0.144039 0.866333
0.113856 0.199497 1.412870 -0.135773 0.859242
0.112046 0.220909 1.413170 -0.136507 0.866114
0.131113 0.206122 1.413270 -0.130279 0.861478
0.128473 0.221505 1.413450 -0.131232 0.866408
0.148403 0.207904 1.413550 -0.124732 0.862157
0.141223 0.221573 1.413640 -0.127133 0.866508
0.162714 0.204469 1.413650 -0.120114 0.861151
0.157700 0.220398 1.413790 -0.121830 0.866238
0.179425 0.202661 1.413720 -0.114730 0.860689
0.173640 0.219321 1.413840 -0.116706 0.866007
0.198514 0.199788 1.413790 -0.108575 0.859906
0.190836 0.219092 1.413870 -0.111180 0.866060
0.216773 0.204864 1.413940 -0.102667 0.861622
0.209609 0.219814 1.413980 -0.105066 0.866389
0.228756 0.198862 1.413980 -0.098772 0.859766
0.232430 0.219758 1.414140 -0.097721 0.866513
0.249320 0.199879 1.414110 -0.092156 0.860220
0.253560 0.220832 1.414260 -0.090923 0.866989
0.265855 0.199282 1.414170 -0.086830 0.860131
0.267519 0.212297 1.414240 -0.086377 0.864330
0.278757 0.199903 1.414180 -0.082682 0.860412
0.286463 0.218912 1.414300 -0.080322 0.866578
0.298627 0.198627 1.414170 -0.076279 0.860128
0.306512 0.217848 1.414330 -0.073863 0.866362
0.316079 0.203891 1.414250 -0.070696 0.861933
0.324022 0.217492 1.414380 -0.068225 0.866359
0.333420 0.201627 1.414310 -0.065101 0.861312
0.336042 0.216344 1.414420 -0.064350 0.866064
0.350263 0.195706 1.414350 -0.059643 0.859511
0.350071 0.214565 1.414460 -0.059824 0.865579
0.368516 0.200933 1.414490 -0.053802 0.861306
0.368214 0.220120 1.414560 -0.054019 0.867479
0.387807 0.193659 1.414580 -0.047549 0.859084
0.388213 0.216032 1.414660 -0.047558 0.866287
0.404555 0.202234 1.414720 -0.042212 0.861946
0.404712 0.215422 1.414770 -0.042245 0.866192
0.418619 0.194699 1.414810 -0.037630 0.859598
0.420212 0.212942 1.414920 -0.037239 0.865484
0.436294 0.195285 1.414990 -0.031948 0.859892
0.443634 0.217034 1.415230 -0.029732 0.866943
0.453538 0.200033 1.415200 -0.026430 0.861523
0.461310 0.211031 1.415370 -0.023998 0.865108
0.470479 0.194711 1.415350 -0.020947 0.859911
0.476137 0.213427 1.415590 -0.019245 0.865966
0.494099 0.214269 1.415860 -0.013474 0.866342
0.597920 0.201962 1.417840 0.019954 0.862945
0.510967 0.264099 1.416980 -0.008398 0.882474
0.524280 0.263953 1.417230 -0.004119 0.882505
0.537465 0.268800 1.417590 0.000086 0.884129
0.561031 0.255400 1.417840 0.007757 0.879938
0.576633 0.260538 1.418350 0.012727 0.881671
0.593605 0.267388 1.418900 0.018127 0.883962
0.682255 0.260108 1.421780 0.046582 0.881992
0.671317 0.265599 1.421510 0.043020 0.883749
0.697270 0.261865 1.422170 0.051392 0.882626
0.714428 0.261749 1.422470 0.056908 0.882668
0.732134 0.261944 1.422750 0.062599 0.882813
0.756198 0.260693 1.423130 0.070341 0.882514
0.775227 0.261558 1.423320 0.076462 0.882892
0.772536 0.251179 1.423400 0.075637 0.879526
0.785848 0.254844 1.423460 0.079909 0.880779
0.786564 0.266902 1.423430 0.080082 0.884670
0.798622 0.260037 1.423540 0.083995 0.882518
0.809888 0.252245 1.423580 0.087657 0.880061
0.813000 0.265207 1.423740 0.088593 0.884251
0.824131 0.253599 1.423740 0.092233 0.880569
0.824297 0.263312 1.423860 0.092236 0.883695
0.835484 0.262763 1.423960 0.095839 0.883573
0.855550 0.260842 1.424060 0.102306 0.883055
0.875109 0.246501 1.423850 0.108671 0.878540
0.876773 0.257953 1.424080 0.109151 0.882227
0.896285 0.256991 1.424230 0.115437 0.882019
0.910156 0.258986 1.424350 0.119890 0.882731
0.507679 0.322593 1.417610 -0.009843 0.901274
0.495485 0.315445 1.417300 -0.013713 0.898902
0.511905 0.310249 1.417730 -0.008415 0.897326
0.500937 0.298465 1.417390 -0.011859 0.893469
0.511880 0.299934 1.417700 -0.008360 0.894004
0.523282 0.300549 1.417970 -0.004703 0.894268
0.516741 0.318333 1.417890 -0.006914 0.899956
0.532293 0.317239 1.418380 -0.001924 0.899690
0.561038 0.317042 1.419290 0.007284 0.899780
0.582477 0.301230 1.419620 0.014274 0.894822
0.579348 0.319964 1.420070 0.013112 0.900808
0.602601 0.297048 1.420210 0.020738 0.893541
0.600529 0.315711 1.421050 0.019876 0.899520
0.615163 0.314050 1.422120 0.024456 0.898921
0.618692 0.302526 1.421260 0.025796 0.895383
0.621423 0.312961 1.422390 0.026458 0.898599
0.618930 0.316268 1.422680 0.025547 0.899739
0.633739 0.315069 1.422250 0.030517 0.899444
0.633501 0.299501 1.421360 0.030582 0.894512
0.622750 0.316747 1.422680 0.026781 0.899851
0.650542 0.298427 1.421610 0.036121 0.894192
0.654793 0.317018 1.422380 0.037278 0.900223
0.667847 0.298594 1.421960 0.041679 0.894351
0.669326 0.313343 1.422450 0.042036 0.899084
0.684207 0.300517 1.422530 0.046904 0.895055
0.684288 0.320395 1.422980 0.046785 0.901434
0.694426 0.314970 1.423180 0.050071 0.899747
0.704509 0.304964 1.423240 0.053378 0.896588
0.698685 0.291213 1.422770 0.051610 0.892142
0.704530 0.319440 1.423520 0.053282 0.901239
0.709987 0.292697 1.423120 0.055225 0.892669
0.721676 0.315663 1.423650 0.058827 0.900129
0.717578 0.299825 1.423400 0.057611 0.895011
0.734901 0.308481 1.423530 0.063227 0.897788
0.729448 0.298966 1.423390 0.061527 0.894697
0.740676 0.300009 1.423350 0.065135 0.895100
0.735494 0.316236 1.423660 0.063274 0.900349
0.754199 0.310511 1.423520 0.069427 0.898558
0.744678 0.312065 1.423540 0.066353 0.898999
0.752538 0.298944 1.423360 0.068973 0.894813
0.764858 0.295530 1.423450 0.072954 0.893771
0.764124 0.309824 1.423630 0.072646 0.898365
0.777453 0.300596 1.423690 0.076973 0.895462
0.777451 0.315550 1.423830 0.076905 0.900269
0.793113 0.300689 1.423820 0.082012 0.895570
0.787102 0.311536 1.423870 0.080021 0.899030
0.798667 0.312741 1.423900 0.083737 0.899477
0.807800 0.304641 1.423950 0.086718 0.896914
0.806121 0.312053 1.423890 0.086140 0.899292
0.803425 0.289911 1.423860 0.085385 0.892151
0.810374 0.311917 1.423960 0.087513 0.899268
0.819062 0.311775 1.424160 0.090303 0.899264
0.824150 0.293421 1.424150 0.092033 0.893380
0.841343 0.294699 1.424380 0.097556 0.893874
0.840517 0.312241 1.424460 0.097201 0.899518
0.856276 0.292758 1.424440 0.102372 0.893325
0.863944 0.312047 1.424590 0.104741 0.899572
0.882229 0.312745 1.424590 0.110623 0.899891
0.899766 0.313265 1.424560 0.116265 0.900149
0.015793 0.364527 1.413530 -0.168424 0.911692
0.005897 0.359603 1.413330 -0.171566 0.910034
0.033757 0.360998 1.413720 -0.162621 0.910679
0.050797 0.361217 1.413990 -0.157142 0.910857
0.067394 0.361808 1.414170 -0.151808 0.911152
0.084555 0.360392 1.414270 -0.146279 0.910808
0.101343 0.359494 1.414310 -0.140874 0.910630
0.112666 0.359725 1.414350 -0.137233 0.910778
0.123783 0.359689 1.414390 -0.133655 0.910839
0.142421 0.359618 1.414470 -0.127655 0.910939
0.166305 0.359001 1.414620 -0.119983 0.910898
0.188171 0.359550 1.414760 -0.112956 0.911218
0.204365 0.362167 1.414850 -0.107757 0.912168
0.220534 0.354776 1.414890 -0.102505 0.909894
0.237916 0.352513 1.415000 -0.096795 0.909266
0.252528 0.356161 1.415190 -0.092117 0.910529
0.266676 0.360055 1.415430 -0.087594 0.911866
0.285922 0.357494 1.415680 -0.081391 0.911156
0.310116 0.356185 1.415940 -0.073596 0.910880
0.329064 0.355686 1.416010 -0.067495 0.910842
0.341036 0.355338 1.416040 -0.063639 0.910807
0.354824 0.352421 1.416100 -0.059172 0.909944
0.376372 0.356203 1.416350 -0.052272 0.911290
0.393743 0.351824 1.416490 -0.046667 0.909985
0.410729 0.356006 1.416530 -0.041225 0.911441
0.429765 0.352477 1.416550 -0.035075 0.910429
0.443171 0.360255 1.416760 -0.030812 0.913013
0.461654 0.355144 1.417040 -0.024828 0.911468
0.478087 0.361866 1.417500 -0.019597 0.913725
0.478300 0.346085 1.417190 -0.019416 0.908657
0.895824 0.396229 1.424550 0.114251 0.927375
0.912982 0.396234 1.424740 0.119769 0.927529
0.936039 0.396320 1.425040 0.127183 0.927723
0.951648 0.398777 1.425340 0.132200 0.928508
0.962814 0.392560 1.425640 0.135859 0.926651
0.975787 0.395567 1.426190 0.140008 0.927579
0.986194 0.396274 1.426710 0.143247 0.927583
0.502047 0.367406 1.418080 -0.011936 0.915643
0.000582 0.433958 1.412490 -0.173783 0.933890
0.004487 0.424241 1.412680 -0.172488 0.930783
0.003642 0.434560 1.412510 -0.172801 0.934097
0.008673 0.430443 1.412590 -0.171145 0.932825
0.014677 0.420668 1.412840 -0.169162 0.929720
0.015686 0.430829 1.412750 -0.168896 0.932995
0.030485 0.430528 1.413340 -0.164135 0.933024
0.047386 0.429768 1.413890 -0.158676 0.932898
0.062786 0.427521 1.414210 -0.153716 0.932273
0.084015 0.432466 1.414470 -0.146927 0.934001
0.101595 0.433746 1.414580 -0.141282 0.934528
0.118454 0.427894 1.414620 -0.135820 0.932755
0.133471 0.428802 1.414670 -0.130995 0.933146
0.150573 0.428356 1.414730 -0.125490 0.933115
0.167136 0.428771 1.414810 -0.120162 0.933358
0.179960 0.428747 1.414890 -0.116035 0.933435
0.197676 0.427564 1.415030 -0.110342 0.933169
0.219924 0.426806 1.415160 -0.103211 0.933073
0.242663 0.427400 1.415280 -0.095895 0.933429
0.258903 0.429125 1.415380 -0.090682 0.934100
0.269745 0.422756 1.415530 -0.087091 0.932066
0.287442 0.422876 1.415810 -0.081299 0.932198
0.305139 0.428943 1.415950 -0.075668 0.934252
0.325499 0.425769 1.416110 -0.069104 0.933362
0.342382 0.424789 1.416180 -0.063664 0.933159
0.358890 0.424563 1.416430 -0.058353 0.933200
0.377210 0.427524 1.416920 -0.052497 0.934274
0.392670 0.423291 1.417420 -0.047518 0.933012
0.404461 0.427895 1.417830 -0.043757 0.934524
0.408098 0.416529 1.417660 -0.042486 0.930864
0.412240 0.426417 1.417930 -0.041222 0.934064
0.425015 0.422088 1.417960 -0.037082 0.932754
0.514868 0.421763 1.419180 -0.008177 0.933179
0.494999 0.420279 1.418680 -0.014549 0.932598
0.532361 0.421928 1.419830 -0.002585 0.933315
0.549489 0.421010 1.420640 0.002895 0.933083
0.571732 0.420544 1.422020 0.009923 0.933024
0.583937 0.427481 1.422480 0.013807 0.935289
0.581349 0.420399 1.422750 0.012932 0.933001
0.584884 0.420258 1.422970 0.014049 0.932976
0.601409 0.420221 1.422960 0.019423 0.933018
0.588819 0.420240 1.423010 0.015371 0.932963
0.620546 0.424905 1.422920 0.025567 0.934591
0.636330 0.417733 1.423090 0.030672 0.932341
0.658286 0.422052 1.423140 0.037693 0.933526
0.656806 0.433920 1.423080 0.037266 0.937352
0.672469 0.426066 1.423090 0.042131 0.935205
0.685678 0.423456 1.423100 0.046410 0.934513
0.704092 0.417533 1.423250 0.052379 0.932891
0.721113 0.417978 1.423400 0.057852 0.933155
0.725717 0.428060 1.423380 0.059263 0.936432
0.745125 0.427208 1.423520 0.065648 0.936196
0.733172 0.421181 1.423490 0.061708 0.934275
0.741425 0.414384 1.423690 0.064489 0.932062
0.760339 0.428563 1.423690 0.070564 0.936702
0.750772 0.439507 1.423320 0.067421 0.940171
0.753800 0.414777 1.423830 0.068539 0.932229
0.763860 0.441967 1.423480 0.071623 0.941031
0.773575 0.432869 1.423810 0.074796 0.938170
0.774788 0.415217 1.424020 0.075288 0.932500
0.791518 0.416922 1.424160 0.080660 0.933157
0.792322 0.433027 1.423920 0.080821 0.938340
0.804027 0.416693 1.424200 0.084677 0.933171
0.811559 0.428861 1.424080 0.086993 0.937152
0.821170 0.416049 1.424220 0.090131 0.933118
0.828486 0.435425 1.423960 0.092367 0.939394
0.840095 0.415688 1.424240 0.096224 0.933119
0.850466 0.431962 1.424120 0.099461 0.938420
0.862867 0.414926 1.424330 0.103558 0.933021
0.864146 0.430985 1.424240 0.103869 0.938195
0.878897 0.414105 1.424460 0.108722 0.932892
0.879511 0.430267 1.424340 0.108818 0.938062
0.894161 0.412235 1.424590 0.113642 0.932359
0.900954 0.430541 1.424490 0.115716 0.938289
0.911080 0.416937 1.424750 0.119026 0.934074
0.919245 0.430535 1.424560 0.121602 0.938438
0.532474 0.464775 1.418560 -0.002690 0.947085
0.671585 0.467396 1.422890 0.041828 0.948603
0.707662 0.461748 1.422960 0.053455 0.946890
0.341938 0.520105 1.417780 -0.064431 0.963679
0.378206 0.515280 1.418130 -0.052846 0.962418
0.398163 0.513562 1.418430 -0.046444 0.962030
0.501203 0.506281 1.419320 -0.013036 0.960221
0.522388 0.507183 1.419690 -0.006232 0.960629
0.536897 0.504779 1.419870 -0.001546 0.959883
0.552137 0.507406 1.420420 0.003104 0.960888
0.567762 0.511169 1.421040 0.008060 0.962239
0.586426 0.507309 1.421360 0.014098 0.961197
0.606264 0.509492 1.421950 0.020437 0.962060
0.624998 0.503727 1.422380 0.026506 0.960388
0.640982 0.510377 1.423130 0.031538 0.962664
0.637202 0.501800 1.422800 0.030414 0.959779
0.644326 0.501145 1.423040 0.032700 0.959632
0.651544 0.506829 1.423330 0.035036 0.961423
0.665002 0.504799 1.423420 0.039455 0.960700
0.429347 0.540629 1.419540 -0.036655 0.970959
0.410418 0.515330 1.418650 -0.042518 0.962695
0.426317 0.509622 1.418640 -0.037348 0.960993
0.472598 0.534426 1.419920 -0.022692 0.969305
0.447970 0.512850 1.419000 -0.030412 0.962184
0.465521 0.513927 1.419270 -0.024777 0.962674
0.479817 0.512160 1.419310 -0.020016 0.962006
0.494857 0.555015 1.420700 -0.015713 0.976085
0.517142 0.563039 1.421210 -0.008619 0.978831
0.536353 0.564127 1.421620 -0.002456 0.979299
0.547730 0.558144 1.421850 0.001552 0.977067
0.567342 0.559361 1.422460 0.007831 0.977539
0.584072 0.558272 1.423080 0.013175 0.977108
0.591419 0.549321 1.423330 0.015130 0.974630
0.595184 0.560350 1.423380 0.016750 0.977719
0.607050 0.555862 1.423500 0.020051 0.976923
0.629725 0.555741 1.423320 0.027384 0.977154
0.615933 0.560038 1.423410 0.022846 0.978394
0.646867 0.556207 1.423360 0.032893 0.977509
0.656634 0.555548 1.423430 0.036042 0.977404
0.667088 0.554589 1.423610 0.039464 0.977160
0.678713 0.547544 1.423760 0.043271 0.975017
0.677801 0.556543 1.423810 0.042885 0.977900
0.677164 0.539470 1.423690 0.042863 0.972403
0.692641 0.556719 1.424060 0.047650 0.978109
0.688718 0.536514 1.423870 0.046611 0.971559
0.711677 0.540413 1.424170 0.053953 0.973046
0.712778 0.558787 1.424310 0.054104 0.978978
0.727511 0.538644 1.424290 0.059064 0.972639
0.729325 0.553434 1.424420 0.059493 0.977415
0.742469 0.539395 1.424380 0.063869 0.973035
0.746005 0.555935 1.424550 0.064833 0.978391
0.761584 0.535313 1.424370 0.070030 0.971758
0.757151 0.549813 1.424550 0.068483 0.976537
0.777858 0.530232 1.424290 0.075268 0.970123
0.776311 0.549821 1.424600 0.074650 0.976637
0.796524 0.534364 1.424340 0.081234 0.971771
0.800179 0.556990 1.424830 0.082264 0.979216
0.815023 0.542914 1.424600 0.087145 0.974801
0.817308 0.557225 1.424900 0.087775 0.979414
0.833007 0.534543 1.424560 0.092971 0.972185
0.830731 0.552399 1.424840 0.092131 0.977961
0.848055 0.534158 1.424710 0.097834 0.972185
0.849595 0.548442 1.424860 0.098224 0.976791
0.864299 0.550304 1.424930 0.102970 0.977598
0.878313 0.556789 1.424970 0.107614 0.978678
0.894740 0.551348 1.424940 0.112925 0.977042
0.911492 0.552441 1.425080 0.118292 0.977512
0.934966 0.552023 1.425570 0.125834 0.977522
0.951152 0.553169 1.426180 0.131003 0.977963
0.965402 0.554690 1.426890 0.135526 0.978533
0.981085 0.546383 1.427950 0.140517 0.975858
0.992353 0.560739 1.428480 0.144052 0.980529
0.990360 0.551471 1.428640 0.143412 0.977514
0.994982 0.545541 1.429200 0.144823 0.975629
0.539080 0.583332 1.421890 -0.001737 0.985519
0.502304 0.581278 1.421230 -0.013539 0.984583
0.527445 0.576699 1.421600 -0.005421 0.983299
0.512833 0.576508 1.421330 -0.010115 0.983129
0.500438 0.571743 1.421070 -0.014060 0.981503
0.572457 0.581620 1.422520 0.008999 0.985215
0.552266 0.573423 1.422090 0.002576 0.982428
0.570589 0.574430 1.422540 0.008448 0.982888
0.611072 0.586597 1.423040 0.021484 0.986193
0.587793 0.574008 1.422970 0.014469 0.982149
0.606104 0.579401 1.423170 0.019943 0.983841
0.620406 0.575637 1.423270 0.024575 0.982748
0.077210 0.029825 1.409400 -0.146382 0.804511
0.120506 0.023511 1.410190 -0.132432 0.802731
0.152973 0.015620 1.410820 -0.121955 0.800379
0.664554 0.082017 1.417150 0.042120 0.824774
0.719511 0.078622 1.417840 0.059863 0.824011
0.750314 0.073697 1.418210 0.069817 0.822575
0.787592 0.075929 1.418600 0.081799 0.823494
0.799159 0.077276 1.418950 0.085504 0.823940
0.493816 0.158401 1.415150 -0.013208 0.848362
0.508069 0.159369 1.415300 -0.008629 0.848758
0.520474 0.160574 1.415500 -0.004648 0.849217
0.542659 0.161188 1.415830 0.002482 0.849542
0.560480 0.160052 1.416030 0.008221 0.849281
0.576168 0.158286 1.416190 0.013278 0.848805
0.592925 0.163767 1.416650 0.018626 0.850665
0.608731 0.162236 1.417100 0.023700 0.850241
0.623612 0.156610 1.417460 0.028503 0.848500
0.636499 0.152430 1.417730 0.032663 0.847217
0.648274 0.150372 1.417970 0.036456 0.846614
0.713053 0.159502 1.419830 0.057183 0.849928
0.693881 0.163604 1.419540 0.050992 0.851123
0.735853 0.158111 1.420610 0.064483 0.849518
0.756408 0.154465 1.421390 0.071065 0.848411
0.776442 0.156489 1.422140 0.077457 0.849185
0.791983 0.156511 1.422580 0.082492 0.849254
0.804252 0.154554 1.422900 0.086475 0.848633
0.815075 0.159074 1.423210 0.089924 0.850137
0.825745 0.150555 1.423370 0.093408 0.847425
0.838093 0.148516 1.423320 0.097615 0.846644
0.877419 0.147842 1.423370 0.110280 0.846599
0.892896 0.145843 1.423430 0.115269 0.846011
0.676889 0.159943 1.419000 0.045562 0.849842
0.513977 0.216348 1.416240 -0.007100 0.867124
0.529112 0.214764 1.416510 -0.002227 0.866699
0.546039 0.214670 1.416860 0.003211 0.866764
0.562906 0.216507 1.417310 0.008612 0.867440
0.572777 0.213168 1.417530 0.011800 0.866418
0.582318 0.218492 1.417860 0.014828 0.868176
0.599169 0.217715 1.418240 0.020247 0.868008
0.678197 0.210992 1.420900 0.045572 0.866186
0.656235 0.211156 1.420060 0.038552 0.866148
0.702625 0.211620 1.421780 0.053383 0.866494
0.718245 0.218660 1.422540 0.058327 0.868813
0.717645 0.208533 1.422130 0.058221 0.865577
0.730865 0.210607 1.422380 0.062454 0.866334
0.759987 0.220972 1.423000 0.071737 0.869861
0.750936 0.206481 1.422460 0.068945 0.865160
0.767716 0.209100 1.422720 0.074318 0.866112
0.775297 0.217528 1.423060 0.076690 0.868865
0.785892 0.203823 1.422850 0.080205 0.864546
0.792960 0.219268 1.423300 0.082357 0.869551
0.806201 0.206551 1.423210 0.086713 0.865558
0.810611 0.215492 1.423400 0.088064 0.868463
0.822550 0.208454 1.423410 0.091958 0.866285
0.822883 0.218366 1.423500 0.091992 0.869476
0.839460 0.213787 1.423520 0.097360 0.868124
0.857250 0.216378 1.423600 0.103067 0.869084
0.855402 0.202389 1.423530 0.102572 0.864569
0.868251 0.209846 1.423600 0.106654 0.867060
0.631164 0.233164 1.419530 0.030398 0.873117
0.635463 0.263954 1.420160 0.031558 0.883066
0.614470 0.265843 1.419520 0.024822 0.883570
0.653279 0.261234 1.420770 0.037275 0.882286
0.926018 0.260113 1.424440 0.124651 0.883655
0.948243 0.253685 1.424530 0.131898 0.881939
0.966966 0.258176 1.424640 0.138382 0.882590
0.977687 0.259441 1.424710 0.141825 0.883057
0.982755 0.259437 1.424810 0.143434 0.883103
0.530128 0.274670 1.417620 -0.002317 0.885974
0.517682 0.324607 1.417920 -0.006649 0.901981
0.617997 0.323092 1.422390 0.025324 0.901926
0.665127 0.327032 1.422840 0.040552 0.903468
0.754454 0.321206 1.423700 0.069443 0.901997
0.808002 0.319612 1.424040 0.086712 0.901723
0.855012 0.330034 1.424630 0.101775 0.905317
0.872563 0.328945 1.424640 0.107430 0.905055
0.889529 0.329287 1.424590 0.112889 0.905252
0.516112 0.397654 1.419210 -0.007654 0.925425
0.584390 0.413572 1.422770 0.013974 0.930811
0.618760 0.411579 1.423250 0.025037 0.930308
0.675336 0.411811 1.423270 0.043166 0.930852
0.689662 0.410176 1.423310 0.047784 0.930426
0.926875 0.414030 1.424880 0.124128 0.933247
0.937305 0.429478 1.424690 0.127420 0.938216
0.944938 0.413054 1.425130 0.129944 0.933097
0.954912 0.428258 1.425080 0.133083 0.937972
0.964065 0.410203 1.425710 0.136030 0.932342
0.971777 0.429389 1.425930 0.138436 0.938453
0.982753 0.413886 1.426750 0.141926 0.933666
0.986477 0.433069 1.427260 0.142944 0.939759
0.994238 0.435379 1.428230 0.145222 0.940575
0.992295 0.425465 1.427830 0.144775 0.937414
0.990197 0.411069 1.427240 0.144285 0.932794
0.996841 0.438610 1.428650 0.145934 0.941624
0.652468 0.496288 1.423080 0.035440 0.957951
0.672900 0.495338 1.423360 0.042126 0.957566
0.710989 0.496411 1.423480 0.054372 0.958085
0.726145 0.498002 1.423610 0.059241 0.958665
0.736782 0.493803 1.423470 0.062687 0.957376
0.752064 0.495256 1.423470 0.067598 0.957921
0.775035 0.496255 1.423480 0.074989 0.958325
0.262001 0.561434 1.418010 -0.090446 0.976524
0.248110 0.583327 1.419070 -0.095242 0.983401
0.294740 0.558353 1.418040 -0.079900 0.975738
0.286287 0.582840 1.419000 -0.082770 0.983504
0.325362 0.570268 1.418900 -0.070147 0.979707
0.364725 0.569083 1.419430 -0.057582 0.979560
0.402441 0.568273 1.419820 -0.045444 0.979553
0.436973 0.574852 1.420250 -0.034388 0.981925
0.471176 0.566955 1.420550 -0.023427 0.979742
0.196564 0.049426 1.412050 -0.108168 0.811505
0.190204 0.063458 1.412050 -0.110300 0.815983
0.203617 0.063257 1.412350 -0.105991 0.815994
0.208656 0.052490 1.412340 -0.104304 0.812559
0.206343 0.040971 1.412130 -0.104971 0.808842
0.216678 0.063116 1.412570 -0.101793 0.816025
0.219570 0.046871 1.412430 -0.100758 0.810817
0.228217 0.059997 1.412690 -0.098062 0.815091
0.233373 0.049398 1.412660 -0.096336 0.811712
0.247511 0.042000 1.412750 -0.091741 0.809418
0.241948 0.061570 1.412840 -0.093655 0.815681
0.262820 0.043613 1.412920 -0.086827 0.810031
0.263128 0.061585 1.412970 -0.086839 0.815817
0.276499 0.043782 1.412970 -0.082425 0.810170
0.286328 0.061651 1.413070 -0.079373 0.815982
0.296961 0.042216 1.413030 -0.075830 0.809793
0.305600 0.060756 1.413170 -0.073166 0.815813
0.313046 0.046052 1.413120 -0.070677 0.811127
0.320508 0.056925 1.413280 -0.068345 0.814671
0.329980 0.040693 1.413300 -0.065197 0.809507
0.335025 0.060264 1.413520 -0.063698 0.815829
0.351891 0.046019 1.413620 -0.058184 0.811346
0.349249 0.064528 1.413740 -0.059151 0.817283
0.373302 0.043949 1.413820 -0.051284 0.810809
0.364664 0.061869 1.413840 -0.054174 0.816522
0.391961 0.042914 1.413930 -0.045272 0.810587
0.385267 0.063001 1.413960 -0.047551 0.817013
0.408801 0.041853 1.414010 -0.039846 0.810346
0.404171 0.058429 1.414000 -0.041439 0.815657
0.425382 0.041283 1.414110 -0.034507 0.810263
0.418467 0.054754 1.414050 -0.036815 0.814561
0.442758 0.039908 1.414210 -0.028907 0.809925
0.436028 0.059571 1.414170 -0.031194 0.816215
0.457675 0.035923 1.414280 -0.024083 0.808731
0.456434 0.052346 1.414240 -0.024582 0.814014
0.472217 0.039999 1.414320 -0.019428 0.810136
0.475237 0.060642 1.414360 -0.018582 0.816796
0.492167 0.043365 1.414420 -0.013028 0.811338
0.493069 0.061775 1.414450 -0.012850 0.817269
0.512509 0.040494 1.414550 -0.006465 0.810537
0.505813 0.055203 1.414500 -0.008708 0.815231
0.525713 0.040336 1.414670 -0.002215 0.810568
0.525752 0.057481 1.414710 -0.002308 0.816084
0.542330 0.038779 1.414910 0.003136 0.810174
0.545482 0.058787 1.414890 0.004032 0.816623
0.561661 0.034267 1.415110 0.009383 0.808845
0.562294 0.051988 1.415020 0.009477 0.814552
0.576769 0.037220 1.415160 0.014227 0.809890
0.579963 0.051998 1.415100 0.015163 0.814666
0.595670 0.040234 1.415220 0.020291 0.810979
0.591253 0.058600 1.415150 0.018755 0.816862
0.613912 0.035084 1.415340 0.026194 0.809437
0.611794 0.055552 1.415360 0.025382 0.816011
0.630594 0.038754 1.415510 0.031538 0.810723
0.628611 0.053592 1.415590 0.030802 0.815485
0.648740 0.034445 1.415680 0.037402 0.809448
0.644114 0.051847 1.415860 0.035796 0.815019
0.663811 0.041096 1.416010 0.042205 0.811673
0.909437 0.035526 1.418570 0.121243 0.811142
0.932167 0.015435 1.416970 0.128724 0.805060
0.937163 0.038831 1.419000 0.130139 0.812357
0.956529 0.035324 1.418690 0.136400 0.811438
0.950873 0.013679 1.416850 0.134758 0.804662
0.158857 0.078717 1.411480 -0.120465 0.820714
0.135736 0.080181 1.411000 -0.127900 0.821052
0.175504 0.079352 1.411850 -0.115119 0.821014
0.187661 0.079164 1.412130 -0.111215 0.821022
0.198684 0.073805 1.412330 -0.107642 0.819360
0.200650 0.084295 1.412440 -0.107075 0.822747
0.210266 0.076928 1.412560 -0.103939 0.820432
0.229726 0.078809 1.412820 -0.097695 0.821154
0.249110 0.076472 1.412970 -0.091443 0.820520
0.261703 0.082466 1.413070 -0.087428 0.822527
0.277728 0.079915 1.413130 -0.082255 0.821805
0.298418 0.081193 1.413310 -0.075606 0.822343
0.320252 0.075406 1.413500 -0.068546 0.820612
0.339523 0.077496 1.413760 -0.062362 0.821397
0.356075 0.078276 1.413900 -0.057040 0.821748
0.373046 0.078579 1.413990 -0.051581 0.821948
0.387937 0.081294 1.414060 -0.046805 0.822912
0.402538 0.076893 1.414080 -0.042078 0.821585
0.419427 0.070663 1.414120 -0.036604 0.819684
0.435005 0.078893 1.414230 -0.031642 0.822425
0.455879 0.076000 1.414320 -0.024906 0.821621
0.472309 0.076283 1.414420 -0.019620 0.821812
0.485914 0.076352 1.414490 -0.015242 0.821917
0.507905 0.075694 1.414650 -0.008162 0.821838
0.527400 0.077945 1.414820 -0.001903 0.822680
0.542046 0.074023 1.414900 0.002834 0.821506
0.556540 0.069581 1.414970 0.007525 0.820164
0.574896 0.070007 1.415070 0.013430 0.820414
0.595129 0.074028 1.415220 0.019916 0.821831
0.612425 0.077716 1.415460 0.025456 0.823121
0.628683 0.066771 1.415700 0.030745 0.819689
0.648775 0.072138 1.416340 0.037151 0.821529
0.010825 0.156002 1.408470 -0.168432 0.844746
0.022111 0.139635 1.408870 -0.164742 0.839532
0.026295 0.157267 1.409420 -0.163549 0.845216
0.016207 0.132577 1.408560 -0.166595 0.837224
0.040445 0.136423 1.409650 -0.158875 0.838591
0.039775 0.154092 1.410040 -0.159223 0.844259
0.059343 0.138801 1.410490 -0.152847 0.839442
0.052158 0.153558 1.410610 -0.155276 0.844138
0.070424 0.152685 1.411410 -0.149407 0.843933
0.074980 0.132686 1.410820 -0.147791 0.837558
0.080881 0.146568 1.411640 -0.146024 0.842006
0.077709 0.152406 1.411900 -0.147114 0.843828
0.094310 0.152437 1.411950 -0.141736 0.843988
0.089944 0.136593 1.411330 -0.143015 0.838892
0.082394 0.152350 1.411990 -0.145584 0.843846
0.110020 0.134004 1.411590 -0.136544 0.838184
0.107923 0.149121 1.412030 -0.137335 0.843013
0.118907 0.150009 1.412270 -0.133813 0.843362
0.130120 0.139700 1.412190 -0.130129 0.840124
0.129949 0.126758 1.411740 -0.130083 0.835982
0.134050 0.153120 1.412660 -0.128968 0.844448
0.147150 0.130475 1.412140 -0.124580 0.837277
0.143717 0.143603 1.412550 -0.125789 0.841456
0.150309 0.154280 1.412870 -0.123746 0.844926
0.159300 0.142115 1.412590 -0.120755 0.841086
0.163049 0.131011 1.412270 -0.119468 0.837554
0.162603 0.152770 1.412890 -0.119778 0.844532
0.170738 0.136941 1.412440 -0.117034 0.839508
0.177484 0.147921 1.412770 -0.114944 0.843076
0.177157 0.135900 1.412440 -0.114957 0.839215
0.195198 0.141138 1.412720 -0.109181 0.841002
0.184126 0.130984 1.412430 -0.112682 0.837678
0.195124 0.129111 1.412490 -0.109121 0.837139
0.197616 0.157431 1.413120 -0.108519 0.846248
0.204387 0.134164 1.412700 -0.106177 0.838819
0.212844 0.148525 1.413100 -0.103558 0.843484
0.217684 0.130405 1.412930 -0.101883 0.837686
0.234297 0.133868 1.413250 -0.096565 0.838897
0.228336 0.145143 1.413300 -0.098556 0.842488
0.250485 0.129638 1.413430 -0.091332 0.837631
0.244369 0.147953 1.413590 -0.093418 0.843485
0.265649 0.131290 1.413630 -0.086465 0.838252
0.266304 0.148323 1.413830 -0.086362 0.843735
0.282119 0.130606 1.413710 -0.081164 0.838138
0.282134 0.148319 1.413890 -0.081267 0.843832
0.304617 0.130894 1.413780 -0.073925 0.838371
0.295464 0.148108 1.413870 -0.076979 0.843853
0.322822 0.131328 1.413830 -0.068068 0.838624
0.313836 0.147853 1.413860 -0.071065 0.843887
0.338113 0.133159 1.413920 -0.063159 0.839307
0.330702 0.147424 1.413910 -0.065634 0.843854
0.355400 0.127285 1.414030 -0.057556 0.837517
0.347355 0.147148 1.414020 -0.060268 0.843864
0.376838 0.128116 1.414140 -0.050662 0.837914
0.368628 0.149284 1.414180 -0.053436 0.844681
0.392362 0.124919 1.414190 -0.045646 0.836979
0.391531 0.143031 1.414270 -0.046027 0.842808
0.405951 0.129022 1.414250 -0.041298 0.838382
0.411148 0.145024 1.414370 -0.039726 0.843566
0.419571 0.132022 1.414320 -0.036933 0.839430
0.426295 0.142894 1.414440 -0.034838 0.842972
0.436224 0.126870 1.414400 -0.031543 0.837873
0.443166 0.148365 1.414640 -0.029444 0.844837
0.454215 0.131734 1.414530 -0.025783 0.839547
0.463506 0.146575 1.414750 -0.022886 0.844377
0.474387 0.128589 1.414660 -0.019272 0.838656
0.478896 0.147427 1.414870 -0.017939 0.844744
0.012161 0.174290 1.409060 -0.168182 0.850614
0.003132 0.169668 1.408230 -0.170959 0.849110
0.001891 0.163167 1.407940 -0.171282 0.847024
0.003449 0.184964 1.408760 -0.171024 0.854006
0.008482 0.191454 1.409420 -0.169497 0.856098
0.024789 0.172771 1.409840 -0.164162 0.850175
0.023782 0.191092 1.410540 -0.164684 0.856017
0.041169 0.171954 1.410610 -0.158927 0.849991
0.042830 0.193840 1.411390 -0.158582 0.857005
0.062454 0.169774 1.411410 -0.152110 0.849389
0.059557 0.188366 1.411680 -0.153172 0.855347
0.078891 0.170677 1.411960 -0.146774 0.849742
0.072602 0.182282 1.411930 -0.148923 0.853446
0.085330 0.186211 1.412260 -0.144876 0.854825
0.092744 0.177929 1.412280 -0.142418 0.852174
0.089444 0.165860 1.412130 -0.143397 0.848270
0.094942 0.188109 1.412430 -0.141780 0.855462
0.100916 0.169155 1.412310 -0.139730 0.849404
0.105336 0.184925 1.412570 -0.138415 0.854503
0.113167 0.172539 1.412570 -0.135814 0.850567
0.123469 0.164499 1.412660 -0.132450 0.848042
0.125225 0.183624 1.412890 -0.132013 0.854205
0.140607 0.168623 1.412980 -0.126968 0.849474
0.148373 0.189425 1.413300 -0.124621 0.856218
0.163963 0.168993 1.413190 -0.119464 0.849755
0.167129 0.189614 1.413510 -0.118589 0.856403
0.185930 0.168428 1.413300 -0.112391 0.849732
0.181622 0.184906 1.413550 -0.113901 0.854997
0.200973 0.172205 1.413460 -0.107541 0.851014
0.195761 0.182034 1.413600 -0.109330 0.854175
0.214627 0.168345 1.413480 -0.103118 0.849864
0.212460 0.186877 1.413750 -0.103938 0.855808
0.233211 0.162897 1.413630 -0.097104 0.848225
0.231106 0.182951 1.413850 -0.097913 0.854662
0.254200 0.165080 1.413910 -0.090365 0.849052
0.246991 0.179324 1.413970 -0.092776 0.853591
0.267665 0.165861 1.414020 -0.086037 0.849386
0.266648 0.182958 1.414090 -0.086472 0.854882
0.283599 0.165664 1.413990 -0.080905 0.849423
0.285537 0.185562 1.414090 -0.080408 0.855840
0.305411 0.165121 1.413950 -0.073885 0.849391
0.298202 0.179923 1.414040 -0.076298 0.854107
0.324009 0.164265 1.413970 -0.067894 0.849232
0.316582 0.184653 1.414100 -0.070413 0.855746
0.338830 0.160682 1.414030 -0.063102 0.848171
0.339382 0.179213 1.414170 -0.063041 0.854137
0.353827 0.164824 1.414160 -0.058295 0.849592
0.359457 0.182469 1.414320 -0.056602 0.855310
0.371153 0.170395 1.414330 -0.052755 0.851490
0.374374 0.184915 1.414450 -0.051817 0.856189
0.387094 0.163495 1.414390 -0.047582 0.849366
0.385004 0.178395 1.414490 -0.048348 0.854148
0.403193 0.159191 1.414450 -0.042374 0.848079
0.404518 0.179805 1.414620 -0.042076 0.854720
0.423814 0.162804 1.414640 -0.035762 0.849366
0.424415 0.182274 1.414810 -0.035690 0.855634
0.442904 0.166624 1.414860 -0.029644 0.850709
0.436465 0.177759 1.414900 -0.031785 0.854253
0.457873 0.163393 1.414930 -0.024807 0.849760
0.453010 0.181970 1.415090 -0.026488 0.855707
0.475256 0.162030 1.415050 -0.019205 0.849425
0.469515 0.176432 1.415180 -0.021143 0.854024
0.025768 0.202548 1.411450 -0.164191 0.859614
0.076593 0.195417 1.412220 -0.147750 0.857701
0.004994 0.240649 1.410740 -0.171099 0.871827
0.012456 0.242871 1.411340 -0.168780 0.872565
0.020684 0.235036 1.411630 -0.166078 0.870073
0.033486 0.241174 1.412330 -0.162088 0.872104
0.043441 0.230514 1.412340 -0.158790 0.868762
0.045168 0.240880 1.412630 -0.158338 0.872102
0.057460 0.236583 1.412700 -0.154194 0.870811
0.077268 0.239039 1.412970 -0.147812 0.871727
0.097985 0.240977 1.413250 -0.141162 0.872480
0.112849 0.237920 1.413440 -0.136367 0.871588
0.129325 0.238245 1.413670 -0.131070 0.871797
0.151636 0.236874 1.413900 -0.123888 0.871498
0.166656 0.233141 1.413940 -0.119041 0.870402
0.181314 0.235993 1.413970 -0.114360 0.871428
0.199034 0.236979 1.414010 -0.108578 0.871847
0.218643 0.239009 1.414160 -0.102281 0.872622
0.233029 0.237408 1.414260 -0.097639 0.872196
0.247691 0.238500 1.414350 -0.092927 0.872638
0.269759 0.232960 1.414390 -0.085786 0.870993
0.284814 0.234769 1.414430 -0.080952 0.871669
0.297272 0.234371 1.414450 -0.076941 0.871620
0.315146 0.233927 1.414470 -0.071186 0.871590
0.335456 0.231849 1.414510 -0.064636 0.871050
0.356637 0.235960 1.414590 -0.057844 0.872505
0.376264 0.233718 1.414670 -0.051514 0.871905
0.389074 0.232099 1.414740 -0.047381 0.871463
0.403908 0.230397 1.414900 -0.042599 0.871006
0.426870 0.235458 1.415260 -0.035247 0.872770
0.444681 0.235533 1.415500 -0.029520 0.872901
0.461559 0.229322 1.415620 -0.024042 0.870995
0.481733 0.230916 1.415890 -0.017564 0.871629
0.005517 0.292182 1.411860 -0.171367 0.888368
0.007973 0.290972 1.412080 -0.170604 0.887986
0.012643 0.288593 1.412310 -0.169111 0.887248
0.024894 0.288375 1.412760 -0.165175 0.887244
0.046133 0.294306 1.413420 -0.158203 0.889299
0.067038 0.291959 1.413710 -0.151466 0.888673
0.080059 0.291197 1.413810 -0.147271 0.888512
0.096561 0.290373 1.413860 -0.141954 0.888357
0.113189 0.289031 1.413950 -0.136601 0.888032
0.127554 0.286668 1.414050 -0.131962 0.887365
0.146329 0.289336 1.414180 -0.125940 0.888346
0.166421 0.293539 1.414320 -0.119510 0.889833
0.184844 0.292526 1.414440 -0.113575 0.889625
0.196263 0.285154 1.414460 -0.109856 0.887331
0.215776 0.287150 1.414570 -0.103508 0.888093
0.238635 0.286930 1.414670 -0.096147 0.888165
0.255394 0.283755 1.414700 -0.090735 0.887248
0.271204 0.290121 1.414780 -0.085688 0.889396
0.286207 0.288546 1.414840 -0.080849 0.888984
