0.094430 0.310561 0.728215 0.471889 0.573981
0.659900 0.272834 0.703114 0.702149 0.572657
0.634631 0.284163 0.709278 0.692488 0.574073
0.642437 0.253763 0.698874 0.694782 0.566649
0.614768 0.265009 0.704360 0.683798 0.568752
0.624038 0.246033 0.697902 0.687155 0.563821
0.612499 0.289336 0.712095 0.683318 0.574981
0.673248 0.247934 0.693659 0.706709 0.567212
0.675652 0.268557 0.699631 0.708148 0.572834
0.748555 0.214423 0.673334 0.735366 0.563668
0.734669 0.206495 0.673275 0.729891 0.560115
0.753015 0.198841 0.669039 0.737165 0.558867
0.698966 0.240540 0.687699 0.716418 0.567520
0.689787 0.215169 0.681709 0.712472 0.559441
0.717619 0.222347 0.679834 0.723294 0.563787
0.684592 0.231950 0.687315 0.710791 0.563714
0.707202 0.258267 0.691257 0.719717 0.573428
0.691255 0.263846 0.695637 0.713841 0.573270
0.743313 0.230940 0.678164 0.733313 0.568546
0.724725 0.252311 0.686596 0.726221 0.573543
0.762489 0.221414 0.673183 0.740891 0.566893
0.778844 0.201183 0.666476 0.747588 0.561196
0.806062 0.220954 0.668107 0.758380 0.569383
0.797987 0.199408 0.664028 0.755332 0.561636
0.786434 0.237195 0.673971 0.750314 0.573716
0.764949 0.247001 0.678985 0.741702 0.575421
0.836757 0.203103 0.661504 0.771129 0.564651
0.817298 0.192771 0.660877 0.763384 0.560167
0.842739 0.187766 0.657948 0.773864 0.559376
0.838640 0.225315 0.666305 0.771550 0.572444
0.853159 0.206103 0.661121 0.777825 0.566258
0.863126 0.190168 0.657300 0.782220 0.560822
0.864444 0.222601 0.664006 0.782153 0.572452
0.875064 0.205871 0.659990 0.786839 0.566777
0.882968 0.179840 0.654446 0.790673 0.557516
0.883798 0.227385 0.664095 0.790061 0.574708
0.890940 0.206387 0.659499 0.793390 0.567341
0.894638 0.183956 0.654894 0.795464 0.559315
0.896338 0.233013 0.664756 0.795137 0.577048
0.243014 0.318039 0.733662 0.533386 0.576300
0.255932 0.312611 0.731044 0.538593 0.575928
0.254725 0.321451 0.733682 0.538160 0.578277
0.247529 0.308189 0.730551 0.535197 0.573834
0.265931 0.323112 0.732946 0.542571 0.580058
0.281926 0.304597 0.725964 0.548551 0.576524
0.275801 0.293904 0.723528 0.546022 0.572733
0.286261 0.297094 0.723328 0.550071 0.574757
0.268974 0.307440 0.728185 0.543632 0.575902
0.279182 0.316241 0.729545 0.547636 0.579651
0.286550 0.311309 0.727337 0.550371 0.579060
0.304436 0.300811 0.722407 0.556981 0.577839
0.292588 0.285533 0.719305 0.552265 0.571944
0.306430 0.289345 0.719021 0.557599 0.574396
0.293628 0.306202 0.725072 0.552983 0.578371
0.318377 0.295857 0.719871 0.562309 0.577390
0.252593 0.331622 0.736711 0.537288 0.580961
0.235018 0.333056 0.738374 0.530043 0.580045
0.247312 0.343304 0.740447 0.535103 0.583833
0.255382 0.341325 0.739227 0.538406 0.583966
0.276490 0.335246 0.735143 0.546631 0.584828
0.276150 0.324579 0.732211 0.546515 0.581714
0.263614 0.340307 0.738007 0.541636 0.584670
0.290769 0.320228 0.729336 0.552021 0.582277
0.283943 0.327219 0.732066 0.549497 0.583497
0.303438 0.311074 0.725338 0.556709 0.580953
0.301848 0.320592 0.728195 0.556179 0.583699
0.328276 0.309402 0.722915 0.566301 0.582403
0.330265 0.297464 0.719471 0.566971 0.578682
0.314017 0.316105 0.725801 0.560814 0.583511
0.341034 0.301973 0.720248 0.571286 0.580589
0.340091 0.312477 0.723192 0.571001 0.583916
0.006159 0.300948 0.718709 0.435549 0.573910
0.012800 0.308658 0.720873 0.438243 0.576115
0.008699 0.323357 0.723848 0.436329 0.580694
0.018111 0.328040 0.725528 0.440202 0.581968
0.037152 0.329713 0.727385 0.448112 0.581942
0.062471 0.334164 0.730523 0.458543 0.582489
0.083165 0.325400 0.730624 0.467135 0.578919
0.086105 0.350386 0.736028 0.468103 0.586850
0.099377 0.330594 0.733340 0.473787 0.579959
0.096895 0.342460 0.735726 0.472552 0.583719
0.577097 0.312382 0.718727 0.668452 0.582562
0.599770 0.303632 0.716600 0.678111 0.579059
0.598457 0.322466 0.722067 0.677848 0.584323
0.582154 0.326344 0.722880 0.670768 0.586172
0.619222 0.307784 0.717577 0.686607 0.579850
0.618532 0.324360 0.722662 0.686550 0.584233
0.653709 0.294838 0.710787 0.700407 0.577814
0.640190 0.308134 0.716580 0.695366 0.580306
0.677613 0.291168 0.705798 0.709245 0.579392
0.675457 0.321691 0.714733 0.709030 0.587703
0.657172 0.318798 0.717487 0.702263 0.584650
0.643145 0.320727 0.720284 0.696982 0.583636
0.632501 0.321565 0.721384 0.692490 0.583503
0.710667 0.281897 0.696846 0.721160 0.580859
0.748479 0.256524 0.683711 0.735228 0.577106
0.742788 0.283717 0.691373 0.732953 0.585118
0.727661 0.296277 0.696967 0.727180 0.587490
0.804889 0.242288 0.673064 0.757589 0.576620
0.783247 0.265042 0.681039 0.748756 0.582660
0.765018 0.272116 0.685149 0.741533 0.583518
0.805822 0.263527 0.678109 0.757756 0.583692
0.716314 0.305843 0.701538 0.723047 0.588949
0.698845 0.313935 0.707380 0.716962 0.588856
0.821202 0.247379 0.672685 0.764111 0.579237
0.867920 0.245936 0.668848 0.783165 0.580776
0.846471 0.261463 0.673765 0.774146 0.585299
0.826981 0.270935 0.677698 0.766170 0.587470
0.890836 0.249036 0.668371 0.792578 0.582625
0.899792 0.250197 0.668259 0.796272 0.583324
0.097891 0.348597 0.737017 0.472905 0.585703
0.103463 0.343980 0.736633 0.475277 0.583988
0.116642 0.358312 0.740574 0.480508 0.588337
0.104926 0.359925 0.739597 0.475695 0.589360
0.117052 0.340775 0.737071 0.480959 0.582580
0.126653 0.360416 0.741903 0.484641 0.588718
0.133153 0.345121 0.739593 0.487442 0.583295
0.138000 0.356348 0.742358 0.489292 0.586868
0.149288 0.344361 0.740689 0.494142 0.582568
0.247397 0.353384 0.743029 0.535019 0.586985
0.233374 0.350123 0.742929 0.529228 0.585213
0.255835 0.349140 0.741269 0.538512 0.586336
0.272665 0.346733 0.738827 0.545128 0.587600
0.275619 0.355777 0.741170 0.546278 0.590457
0.264933 0.355926 0.742130 0.542037 0.589373
0.291176 0.329846 0.731970 0.552203 0.585199
0.297938 0.331486 0.731662 0.554750 0.586554
0.291010 0.339225 0.734642 0.552137 0.587902
0.282124 0.348385 0.738307 0.548785 0.589245
0.300736 0.339456 0.733602 0.555766 0.589279
0.326793 0.321626 0.726427 0.565804 0.586199
0.324027 0.331309 0.729390 0.564795 0.589022
0.310621 0.337315 0.732131 0.559619 0.589679
0.336993 0.320248 0.725573 0.569854 0.586226
0.336520 0.330186 0.728528 0.569772 0.589246
0.347522 0.318961 0.724840 0.574059 0.586106
0.352659 0.311122 0.722438 0.576046 0.583788
0.349321 0.327625 0.727433 0.574876 0.588702
0.362206 0.321536 0.725444 0.580001 0.587050
0.366648 0.311683 0.722347 0.581694 0.584212
0.364251 0.333429 0.729103 0.580988 0.590456
0.378069 0.318013 0.724153 0.586404 0.586079
0.378399 0.307511 0.720899 0.586389 0.583054
0.378173 0.328590 0.727538 0.586583 0.588979
0.392463 0.313271 0.722509 0.592174 0.584712
0.389944 0.323756 0.725901 0.591315 0.587572
0.394663 0.333846 0.729150 0.593399 0.590208
0.405711 0.324148 0.725850 0.597753 0.587608
0.409476 0.309806 0.721104 0.599012 0.583773
0.408710 0.334475 0.729241 0.599160 0.590237
0.425209 0.320354 0.724143 0.605611 0.586707
0.422699 0.308014 0.720170 0.604359 0.583366
0.418630 0.331886 0.728164 0.603157 0.589617
0.137440 0.367673 0.744089 0.488962 0.590975
0.147817 0.360760 0.743852 0.493331 0.588200
0.151260 0.353688 0.743039 0.494728 0.585497
0.159675 0.355353 0.743588 0.498266 0.586112
0.157103 0.368074 0.745437 0.497087 0.590878
0.177022 0.354287 0.743949 0.505534 0.585705
0.169049 0.367319 0.745710 0.502080 0.590600
0.191161 0.356238 0.744530 0.511426 0.586490
0.184007 0.367601 0.745952 0.508312 0.590828
0.204993 0.352870 0.743976 0.517265 0.585426
0.200909 0.367840 0.746018 0.515347 0.591106
0.220566 0.352960 0.743995 0.523855 0.585676
0.214365 0.362127 0.745425 0.521057 0.589075
0.227898 0.354460 0.744320 0.526932 0.586336
0.227921 0.362537 0.745389 0.526681 0.589486
0.243508 0.364268 0.745361 0.533164 0.590662
0.254185 0.359095 0.743853 0.537691 0.589405
0.471590 0.326614 0.724224 0.624471 0.589201
0.459446 0.330791 0.726263 0.619673 0.590018
0.464374 0.315827 0.721157 0.621356 0.586018
0.446086 0.322257 0.724053 0.614115 0.587475
0.451967 0.310560 0.719980 0.616240 0.584381
0.448561 0.333849 0.727797 0.615366 0.590554
0.479161 0.317550 0.720969 0.627364 0.586753
0.484626 0.326626 0.723535 0.629727 0.589431
0.493443 0.316676 0.720073 0.633154 0.586575
0.499043 0.327385 0.723095 0.635589 0.589772
0.507343 0.319523 0.720427 0.638878 0.587414
0.513406 0.328263 0.722823 0.641491 0.589983
0.523259 0.318963 0.719933 0.645463 0.586994
0.524974 0.329694 0.722894 0.646321 0.590260
0.537996 0.318560 0.719679 0.651706 0.586450
0.533791 0.326890 0.721970 0.650010 0.589169
0.110546 0.377397 0.742965 0.477772 0.595323
0.117892 0.369901 0.742571 0.480886 0.592350
0.102749 0.374474 0.741742 0.474601 0.594564
0.273408 0.368469 0.745126 0.545380 0.593731
0.292281 0.353616 0.738782 0.552638 0.592035
0.283695 0.360475 0.741809 0.549393 0.592678
0.301190 0.347488 0.735963 0.555969 0.591581
0.300703 0.358390 0.739464 0.555841 0.594383
0.293131 0.365833 0.742612 0.553035 0.595207
0.325094 0.342184 0.732509 0.565264 0.592374
0.336203 0.340566 0.731620 0.569719 0.592372
0.322082 0.351503 0.735674 0.564162 0.594676
0.310093 0.354695 0.737514 0.559470 0.594450
0.335228 0.351057 0.734945 0.569415 0.595302
0.351304 0.339057 0.730908 0.575809 0.592132
0.365686 0.342494 0.731853 0.581690 0.593086
0.349005 0.350070 0.734306 0.574992 0.595320
0.360543 0.348357 0.733624 0.579667 0.594866
0.379549 0.340517 0.731260 0.587308 0.592291
0.393784 0.343929 0.732320 0.593191 0.592995
0.372679 0.350234 0.734177 0.584640 0.595257
0.386344 0.351211 0.734474 0.590249 0.595274
0.405998 0.342611 0.731852 0.598186 0.592482
0.417652 0.340069 0.730865 0.602934 0.591767
0.400483 0.352149 0.734741 0.596069 0.595304
0.418495 0.352337 0.734633 0.603489 0.595223
0.434850 0.339168 0.730058 0.609927 0.591743
0.435326 0.354858 0.735192 0.610429 0.595827
0.453313 0.341788 0.730257 0.617467 0.592701
0.448274 0.353016 0.734274 0.615690 0.595418
0.118683 0.380444 0.744231 0.481059 0.596159
0.129575 0.380072 0.745091 0.485561 0.595773
0.147309 0.377712 0.746079 0.492936 0.594631
0.161717 0.379728 0.747024 0.498906 0.595368
0.174896 0.382327 0.747463 0.504371 0.596549
0.191964 0.382560 0.747389 0.511456 0.596943
0.203860 0.379578 0.747172 0.516427 0.595900
0.216641 0.377529 0.747079 0.521745 0.595259
0.235218 0.378052 0.747448 0.529458 0.595719
0.246078 0.374490 0.747096 0.534037 0.594540
0.257474 0.371379 0.746356 0.538800 0.593800
0.268634 0.378705 0.748182 0.543408 0.596450
0.273583 0.376335 0.747662 0.545468 0.595737
0.273634 0.380588 0.748805 0.545452 0.597102
0.284047 0.370847 0.745067 0.549588 0.595370
0.278404 0.377852 0.747658 0.547342 0.596689
0.467875 0.333623 0.726713 0.623111 0.591012
0.465486 0.340622 0.729225 0.622336 0.592734
0.476589 0.336808 0.727288 0.626697 0.592073
0.484729 0.345924 0.729897 0.630178 0.594636
0.474115 0.348667 0.731514 0.626001 0.594963
0.462568 0.352108 0.733370 0.621461 0.595430
0.491116 0.336583 0.726396 0.632533 0.592306
0.497709 0.346577 0.729394 0.635420 0.594988
0.507067 0.338347 0.726193 0.639037 0.592903
0.508084 0.347314 0.729083 0.639662 0.595295
0.520086 0.336250 0.725012 0.644395 0.592256
0.521508 0.348234 0.728799 0.645175 0.595453
0.534071 0.337071 0.724890 0.650244 0.592164
0.540388 0.349170 0.728298 0.653104 0.595493
0.011511 0.345659 0.728790 0.437189 0.587683
0.021895 0.354450 0.731417 0.441366 0.590211
0.012575 0.368136 0.733393 0.437314 0.594964
0.017342 0.374361 0.735024 0.439183 0.596883
0.042783 0.357995 0.733844 0.449990 0.590709
0.049703 0.374693 0.737695 0.452587 0.596014
0.039590 0.374695 0.736952 0.448403 0.596290
0.028407 0.371206 0.735343 0.443822 0.595466
0.079193 0.373483 0.739494 0.464872 0.594925
0.063663 0.366307 0.737068 0.458543 0.592899
0.093051 0.374759 0.740841 0.470604 0.594994
0.021692 0.383008 0.737037 0.440852 0.599652
0.031677 0.383933 0.738038 0.444961 0.599647
0.023446 0.393887 0.739217 0.441418 0.603300
0.033191 0.394853 0.740223 0.445419 0.603331
0.043652 0.388264 0.739815 0.449829 0.600766
0.057372 0.386415 0.740414 0.455551 0.599828
0.071025 0.386039 0.741161 0.461269 0.599477
0.083786 0.387035 0.742110 0.466563 0.599588
0.093218 0.391034 0.743498 0.470397 0.600764
0.102865 0.384888 0.743344 0.474509 0.598276
0.305963 0.369047 0.742781 0.558073 0.597304
0.320024 0.363855 0.740074 0.563505 0.597406
0.319522 0.377213 0.745131 0.563588 0.599902
0.332764 0.361525 0.738649 0.568542 0.597722
0.329780 0.370756 0.742193 0.567508 0.599418
0.347899 0.362443 0.738498 0.574668 0.598430
0.340525 0.371548 0.742078 0.571822 0.600088
0.364132 0.358692 0.736888 0.581243 0.597702
0.361397 0.369724 0.740696 0.580246 0.600388
0.351562 0.375450 0.743133 0.576338 0.601276
0.378619 0.358633 0.736725 0.587185 0.597568
0.378489 0.370370 0.740587 0.587267 0.600607
0.390702 0.360867 0.737378 0.592175 0.597995
0.394710 0.369173 0.739958 0.593932 0.600241
0.404712 0.361956 0.737645 0.597960 0.598105
0.406372 0.371739 0.740740 0.598774 0.600719
0.416081 0.364728 0.738481 0.602690 0.598690
0.420097 0.374239 0.741595 0.604486 0.601032
0.428340 0.363924 0.738214 0.607745 0.598277
0.433114 0.373132 0.741278 0.609858 0.600469
0.443113 0.366118 0.738840 0.613872 0.598606
0.442306 0.380694 0.743922 0.613802 0.601826
0.453406 0.374875 0.741759 0.618299 0.600406
0.101454 0.396524 0.745166 0.473680 0.602501
0.115828 0.393443 0.745934 0.479646 0.600991
0.130307 0.395305 0.747314 0.485607 0.601418
0.141505 0.392406 0.747610 0.490318 0.600238
0.155162 0.393329 0.748353 0.496016 0.600598
0.165488 0.389965 0.748260 0.500363 0.599394
0.164135 0.399555 0.749177 0.499673 0.603148
0.181826 0.396645 0.748543 0.507095 0.602425
0.171280 0.395322 0.748718 0.502716 0.601622
0.193837 0.395778 0.748301 0.512116 0.602322
0.206603 0.391410 0.748102 0.517455 0.600767
0.216947 0.389368 0.748120 0.521778 0.600041
0.225473 0.389458 0.748431 0.525309 0.600158
0.237694 0.394642 0.749643 0.530360 0.602118
0.247602 0.383128 0.748479 0.534564 0.597813
0.250188 0.394243 0.750389 0.535548 0.601914
0.027080 0.404622 0.741571 0.442758 0.606848
0.018556 0.405398 0.740982 0.439235 0.607368
0.039128 0.405166 0.742735 0.447682 0.606645
0.051189 0.398977 0.742436 0.452764 0.604234
0.063505 0.401030 0.743624 0.457831 0.604710
0.078262 0.397886 0.743766 0.464065 0.603455
0.086667 0.395653 0.743789 0.467617 0.602584
0.365654 0.382045 0.745104 0.582177 0.602976
0.380651 0.383074 0.744994 0.588323 0.603548
0.394720 0.379711 0.743554 0.594062 0.602780
0.408813 0.380234 0.743622 0.599883 0.602713
0.417457 0.384300 0.745080 0.603504 0.603369
0.428856 0.382917 0.744666 0.608216 0.602715
0.050762 0.412963 0.745290 0.452318 0.608928
0.061796 0.412994 0.746071 0.456869 0.608716
0.072841 0.409432 0.745896 0.461540 0.607405
0.088930 0.404936 0.745891 0.468295 0.605672
0.104244 0.407694 0.747527 0.474551 0.606335
0.116416 0.411492 0.749102 0.479489 0.607466
0.126458 0.405594 0.748696 0.483801 0.605228
0.125875 0.416244 0.750514 0.483341 0.609055
0.137290 0.403831 0.749029 0.488353 0.604501
0.133578 0.412736 0.750265 0.486633 0.607764
0.147325 0.402769 0.749279 0.492576 0.604127
0.143604 0.413328 0.750670 0.490829 0.608024
0.156938 0.410184 0.750344 0.496489 0.607062
0.172239 0.409160 0.749872 0.502919 0.607105
0.182079 0.408131 0.749286 0.507026 0.607003
0.190973 0.405449 0.748963 0.510788 0.606134
0.200570 0.402624 0.748773 0.514861 0.605171
0.210942 0.405737 0.749341 0.519173 0.606496
0.218186 0.397290 0.748839 0.522267 0.603240
0.220960 0.406682 0.749877 0.523392 0.606888
0.226761 0.399456 0.749463 0.525838 0.604062
0.230816 0.408783 0.750868 0.527493 0.607596
0.247717 0.409747 0.752523 0.534440 0.607710
0.015378 0.391493 0.738097 0.438124 0.602732
0.021597 0.414219 0.742930 0.440352 0.610255
0.029351 0.414369 0.743684 0.443539 0.610057
0.024039 0.424663 0.745172 0.441164 0.613685
0.036741 0.422492 0.746006 0.446413 0.612530
0.047197 0.427169 0.747979 0.450567 0.613743
0.056690 0.421927 0.747695 0.454561 0.611746
0.053454 0.429908 0.749089 0.453064 0.614500
0.066189 0.418799 0.747585 0.458564 0.610582
0.063280 0.429896 0.749661 0.457147 0.614408
0.077369 0.419505 0.748336 0.463181 0.610721
0.078901 0.433641 0.751435 0.463526 0.615493
0.093234 0.420709 0.749563 0.469702 0.610948
0.091886 0.432735 0.752184 0.468870 0.614974
0.107207 0.418996 0.750014 0.475521 0.610216
0.102787 0.429064 0.751999 0.473451 0.613644
0.118540 0.426761 0.752184 0.480067 0.612792
0.135167 0.424010 0.752160 0.487103 0.611854
0.150012 0.425567 0.752455 0.493339 0.612656
0.165637 0.427191 0.752213 0.499877 0.613707
0.180208 0.414127 0.749874 0.506155 0.609294
0.180748 0.423623 0.751087 0.506270 0.612878
0.188901 0.416227 0.749953 0.509798 0.610324
0.190294 0.425003 0.750946 0.510268 0.613682
0.201342 0.412855 0.749736 0.515086 0.609206
0.199465 0.424349 0.750980 0.514160 0.613557
0.216782 0.421088 0.751392 0.521497 0.612350
0.235396 0.421634 0.752915 0.529288 0.612350
0.244791 0.422075 0.753887 0.533175 0.612295
0.253135 0.424606 0.755157 0.536594 0.613010
0.260839 0.417130 0.754927 0.539801 0.610093
0.259144 0.408257 0.753379 0.539142 0.606907
0.269417 0.407735 0.754096 0.543414 0.606553
0.262211 0.427019 0.756487 0.540307 0.613600
0.275121 0.426668 0.757764 0.545665 0.613116
0.280158 0.411643 0.755737 0.547796 0.607658
0.291677 0.416477 0.757538 0.552542 0.609093
0.287796 0.426730 0.759184 0.550830 0.612672
0.297106 0.428157 0.760302 0.554669 0.612895
0.306074 0.420444 0.759459 0.558441 0.610018
0.305502 0.410781 0.756935 0.558247 0.606993
0.307616 0.429661 0.761451 0.558964 0.613143
0.029411 0.438066 0.748162 0.443106 0.618059
0.039667 0.434566 0.748640 0.447336 0.616493
0.018938 0.435820 0.746696 0.438828 0.617637
0.037568 0.442708 0.749825 0.446320 0.619401
0.048460 0.440401 0.750405 0.450844 0.618351
0.064096 0.445607 0.752530 0.457192 0.619919
0.075867 0.445827 0.753608 0.461996 0.619725
0.087644 0.444099 0.754180 0.466881 0.618941
0.097807 0.438210 0.753745 0.471190 0.616744
0.108624 0.438576 0.754283 0.475697 0.616832
0.100404 0.448361 0.755717 0.472111 0.620360
0.113516 0.449736 0.756400 0.477589 0.620850
0.121303 0.440930 0.755043 0.480999 0.617725
0.130680 0.435344 0.754089 0.485046 0.615862
0.122980 0.449229 0.756516 0.481585 0.620723
0.134651 0.448034 0.756138 0.486523 0.620537
0.142297 0.436654 0.754272 0.489925 0.616527
0.168105 0.441693 0.754023 0.500668 0.619187
0.155330 0.440595 0.754462 0.495339 0.618345
0.145962 0.445186 0.755523 0.491334 0.619733
0.178927 0.437977 0.753105 0.505272 0.618145
0.192998 0.434523 0.752330 0.511271 0.617233
0.206199 0.433311 0.752328 0.516887 0.616948
0.215598 0.437436 0.753337 0.520805 0.618452
0.228512 0.435746 0.754096 0.526257 0.617667
0.236717 0.442940 0.755812 0.529592 0.620128
0.243686 0.433171 0.755254 0.532600 0.616393
0.246250 0.447357 0.757445 0.533488 0.621447
0.260691 0.440064 0.758043 0.539582 0.618392
0.272182 0.440108 0.759340 0.544310 0.618033
0.281466 0.445668 0.760981 0.548130 0.619791
0.289294 0.435939 0.760649 0.551392 0.615959
0.293854 0.448080 0.762553 0.553176 0.620363
0.303654 0.440398 0.762578 0.557281 0.617240
0.016083 0.420216 0.743551 0.437991 0.612464
0.021316 0.447266 0.748896 0.439587 0.621531
0.033388 0.455866 0.751399 0.444391 0.624233
0.019170 0.458234 0.750396 0.438464 0.625506
0.050773 0.456719 0.753133 0.451503 0.624159
0.062371 0.460581 0.754724 0.456203 0.625335
0.070543 0.453652 0.754467 0.459664 0.622631
0.079749 0.454685 0.755409 0.463428 0.622838
0.072642 0.463711 0.756094 0.460349 0.626292
0.082903 0.465091 0.757076 0.464552 0.626665
0.091488 0.458369 0.756699 0.468245 0.624094
0.106893 0.463716 0.758034 0.474587 0.626098
0.124154 0.460919 0.757958 0.481895 0.625183
0.139042 0.462870 0.758038 0.488124 0.626209
0.165262 0.451909 0.755568 0.499310 0.622871
0.150782 0.455153 0.756642 0.493188 0.623602
0.164399 0.464317 0.757302 0.498735 0.627453
0.177865 0.449873 0.754797 0.504632 0.622507
0.191267 0.448013 0.754326 0.510320 0.622123
0.176867 0.460810 0.756421 0.504035 0.626496
0.188219 0.458133 0.755849 0.508874 0.625767
0.205222 0.444421 0.753939 0.516300 0.620996
0.220031 0.448609 0.755303 0.522501 0.622443
0.204557 0.459832 0.756379 0.515758 0.626514
0.220568 0.460786 0.757259 0.522511 0.626797
0.229997 0.445421 0.755507 0.526763 0.621179
0.233704 0.455556 0.757445 0.528122 0.624705
0.245964 0.459489 0.759158 0.533163 0.625822
0.255429 0.455984 0.759552 0.537176 0.624316
0.266556 0.459559 0.761094 0.541776 0.625346
0.271975 0.448985 0.760389 0.544146 0.621290
0.279469 0.460511 0.762418 0.547112 0.625407
0.291553 0.459873 0.763504 0.552108 0.624893
0.306124 0.458312 0.764747 0.558135 0.624016
0.319744 0.448289 0.764743 0.563856 0.620001
0.316163 0.458811 0.765750 0.562235 0.624031
0.324437 0.462578 0.766586 0.565657 0.625429
0.333235 0.452145 0.765983 0.569420 0.621366
0.330957 0.444471 0.764945 0.568521 0.618431
0.338411 0.463257 0.767261 0.571496 0.625665
0.340398 0.442746 0.764880 0.572494 0.617847
0.346062 0.452172 0.766391 0.574792 0.621391
0.354725 0.442390 0.764984 0.578459 0.617806
0.359516 0.452621 0.766717 0.580432 0.621582
0.371562 0.443267 0.765192 0.585473 0.618198
0.373041 0.455614 0.767356 0.586087 0.622745
0.387043 0.449395 0.766388 0.591893 0.620419
0.386094 0.439938 0.764440 0.591422 0.616997
0.350303 0.461181 0.767490 0.576506 0.624859
0.361005 0.463725 0.768043 0.580989 0.625859
0.372097 0.466120 0.768627 0.585620 0.626797
0.385880 0.462616 0.768400 0.591413 0.625491
0.402343 0.442089 0.764595 0.598118 0.617829
0.400685 0.455200 0.767228 0.597538 0.622694
0.413231 0.451650 0.766124 0.602669 0.621443
0.420028 0.443378 0.764117 0.605354 0.618434
0.034148 0.473649 0.754043 0.444334 0.630679
0.043823 0.468772 0.754266 0.448425 0.628663
0.023556 0.473091 0.752928 0.439988 0.630733
0.054125 0.467963 0.755057 0.452674 0.628191
0.042340 0.479984 0.755645 0.447593 0.632840
0.051082 0.476773 0.755988 0.451247 0.631497
0.064215 0.476031 0.756959 0.456676 0.631033
0.078161 0.473491 0.757735 0.462460 0.629899
0.093717 0.476668 0.758993 0.468861 0.631044
0.107281 0.475708 0.759458 0.474541 0.630694
0.119164 0.479092 0.759924 0.479465 0.632132
0.134900 0.477723 0.759749 0.486109 0.631827
0.152201 0.474531 0.759017 0.493441 0.630974
0.166828 0.474809 0.758647 0.499581 0.631440
0.175233 0.470296 0.757820 0.503192 0.629963
0.189529 0.472081 0.758035 0.509197 0.630841
0.204049 0.474317 0.758670 0.515306 0.631740
0.215085 0.471108 0.758647 0.520014 0.630526
0.227475 0.469983 0.759266 0.525230 0.629947
0.240442 0.473477 0.760871 0.530590 0.630935
0.252816 0.467397 0.760927 0.535888 0.628508
0.252278 0.478416 0.762565 0.535434 0.632507
0.259461 0.464164 0.761025 0.538742 0.627172
0.262655 0.474050 0.762682 0.539835 0.630759
0.275962 0.473995 0.763655 0.545409 0.630525
0.290293 0.475422 0.764913 0.551366 0.630858
0.300441 0.470300 0.765300 0.555633 0.628740
0.310874 0.473476 0.766467 0.559896 0.629809
0.315261 0.465640 0.766295 0.561788 0.626690
0.319978 0.473367 0.767173 0.563670 0.629678
0.330940 0.475830 0.767840 0.568227 0.630605
0.348976 0.476335 0.768542 0.575792 0.630791
0.364154 0.474167 0.769027 0.582182 0.629949
0.377087 0.477543 0.769620 0.587574 0.631349
0.390811 0.473605 0.769574 0.593330 0.629905
0.886174 0.366625 0.696372 0.789603 0.623118
0.870507 0.360243 0.696269 0.783341 0.619950
0.886300 0.343913 0.690618 0.789596 0.615514
0.877957 0.369695 0.698063 0.786338 0.623517
0.897092 0.370369 0.696113 0.794011 0.625012
0.899560 0.348323 0.690698 0.794962 0.617770
0.648581 0.479045 0.743400 0.696287 0.645117
0.647833 0.465370 0.742789 0.696624 0.639400
0.657077 0.471069 0.742524 0.700125 0.642355
0.248897 0.522796 0.768663 0.533236 0.649063
0.264779 0.513905 0.768559 0.539948 0.645533
0.266452 0.525831 0.769993 0.540477 0.650174
0.254578 0.507577 0.767202 0.535806 0.643166
0.278228 0.509748 0.768492 0.545644 0.643971
0.275754 0.520795 0.769788 0.544431 0.648231
0.292437 0.506104 0.768449 0.551663 0.642607
0.290210 0.523601 0.770263 0.550439 0.649422
0.306730 0.505881 0.768907 0.557658 0.642532
0.305579 0.519717 0.770125 0.556936 0.647963
0.319224 0.504517 0.769212 0.562907 0.641988
0.316764 0.515944 0.770054 0.561677 0.646527
0.330675 0.502026 0.769358 0.567738 0.641002
0.330632 0.517175 0.770234 0.567455 0.647077
0.344936 0.507160 0.769880 0.573606 0.643090
0.344881 0.522729 0.770353 0.573253 0.649501
0.359077 0.502621 0.769983 0.579556 0.641363
0.359840 0.518230 0.770052 0.579509 0.647781
0.375629 0.504549 0.770059 0.586382 0.642341
0.374412 0.521771 0.769519 0.585336 0.649547
0.395092 0.503928 0.769775 0.594349 0.642575
0.388975 0.520474 0.768832 0.591256 0.649289
0.427466 0.518396 0.765607 0.606360 0.649490
0.435591 0.507408 0.765427 0.610080 0.645114
0.439215 0.518968 0.763853 0.610787 0.650041
0.447948 0.514477 0.762725 0.614279 0.648397
0.446851 0.499561 0.763636 0.614547 0.642174
0.437524 0.498075 0.765711 0.611362 0.641312
0.406088 0.503722 0.769362 0.598831 0.642808
0.405664 0.515300 0.768313 0.598112 0.647584
0.418433 0.504990 0.767952 0.603641 0.643630
0.417059 0.517037 0.767142 0.602484 0.648675
0.429535 0.495820 0.767119 0.608414 0.640129
0.659961 0.485849 0.742664 0.700533 0.648735
0.667932 0.469446 0.741511 0.704557 0.642389
0.672283 0.480917 0.741443 0.705720 0.647472
0.683156 0.469992 0.740215 0.710613 0.643534
0.681013 0.484794 0.740605 0.708980 0.649641
0.697724 0.468387 0.739207 0.716568 0.643574
0.693354 0.481401 0.739623 0.714122 0.648878
0.707307 0.460738 0.738380 0.720810 0.640750
0.709321 0.476309 0.738827 0.720900 0.647443
0.720234 0.463484 0.738241 0.726004 0.642346
0.725331 0.476965 0.738790 0.727508 0.648210
0.737704 0.463102 0.738479 0.733251 0.642549
0.737037 0.479604 0.739306 0.732253 0.649522
0.754461 0.465993 0.739367 0.740040 0.643995
0.749001 0.477170 0.739874 0.737277 0.648690
0.768391 0.460683 0.738402 0.745985 0.642173
0.763769 0.475989 0.740094 0.743474 0.648461
0.778872 0.463091 0.738348 0.750238 0.643564
0.782108 0.474256 0.739005 0.751104 0.648413
0.793711 0.464897 0.736026 0.755649 0.645576
0.785153 0.462235 0.737279 0.752661 0.643723
0.790551 0.453006 0.734293 0.754625 0.640941
0.794313 0.474164 0.737577 0.755891 0.649143
0.849443 0.444277 0.719682 0.774719 0.645380
0.842366 0.433541 0.718813 0.772286 0.641013
0.855887 0.431961 0.716188 0.777380 0.641851
0.867269 0.447591 0.717379 0.781523 0.648220
0.867668 0.433855 0.714579 0.781874 0.643639
0.855306 0.454502 0.720595 0.776764 0.649442
0.814175 0.461980 0.730839 0.762366 0.647047
0.804552 0.451599 0.730818 0.759105 0.642268
0.817434 0.452467 0.727978 0.763256 0.644321
0.825074 0.449450 0.725521 0.765776 0.644371
0.833078 0.441884 0.722311 0.768668 0.642832
0.832027 0.453927 0.724973 0.768149 0.646736
0.823886 0.458296 0.727715 0.765433 0.647142
0.820505 0.468526 0.730647 0.764543 0.650092
0.813058 0.470102 0.732783 0.762206 0.649635
0.804879 0.471243 0.734867 0.759465 0.649096
0.843286 0.456417 0.723204 0.772228 0.648799
0.263813 0.539907 0.771022 0.539218 0.655761
0.248904 0.540320 0.770308 0.532982 0.655917
0.278911 0.534675 0.771146 0.545555 0.653760
0.293204 0.540472 0.771686 0.551485 0.656170
0.305792 0.535465 0.771231 0.556816 0.654281
0.319599 0.529081 0.770836 0.562662 0.651836
0.335113 0.534014 0.770690 0.569001 0.654037
0.352115 0.535933 0.769924 0.575916 0.655080
0.366556 0.531440 0.769351 0.581852 0.653481
0.380089 0.534520 0.768210 0.587120 0.654995
0.390556 0.530960 0.767745 0.591403 0.653747
0.401062 0.532427 0.766553 0.595407 0.654548
0.413696 0.525324 0.766390 0.600702 0.651999
0.414309 0.535408 0.764763 0.600278 0.656138
0.420465 0.522540 0.766082 0.603484 0.651061
0.424221 0.530437 0.764414 0.604344 0.654348
0.436571 0.528645 0.763065 0.609153 0.653934
0.446993 0.525980 0.761900 0.613245 0.653107
0.671369 0.495556 0.741661 0.704537 0.653560
0.661559 0.499105 0.742752 0.700419 0.654354
0.686918 0.497233 0.740127 0.710657 0.655237
0.702694 0.493204 0.739096 0.717284 0.654308
0.718166 0.491129 0.738839 0.723798 0.653989
0.730595 0.489034 0.739128 0.729095 0.653404
0.743986 0.492517 0.739918 0.734536 0.655098
0.757394 0.487799 0.740535 0.740322 0.653277
0.771757 0.491061 0.740752 0.746220 0.654987
0.786072 0.490549 0.740153 0.752178 0.655297
0.797697 0.483807 0.738087 0.756924 0.653277
0.862270 0.460691 0.720606 0.779437 0.652207
0.832501 0.466060 0.727345 0.768476 0.650747
0.835904 0.477603 0.728868 0.769926 0.655086
0.824732 0.477926 0.731426 0.766085 0.653860
0.813812 0.477083 0.733875 0.762558 0.652206
0.807129 0.481305 0.736160 0.760418 0.653074
0.853506 0.464721 0.722873 0.776071 0.652688
0.844391 0.471015 0.725837 0.772767 0.653799
0.861659 0.471385 0.722825 0.779258 0.655752
0.891419 0.457792 0.715924 0.791000 0.653741
0.879333 0.432407 0.712559 0.786473 0.644204
0.873512 0.466700 0.720113 0.783827 0.655261
0.903390 0.438798 0.710632 0.796016 0.648268
0.895120 0.423456 0.708511 0.792844 0.642516
0.903628 0.411161 0.704831 0.796400 0.639088
0.906591 0.464907 0.715521 0.797038 0.657327
0.539413 0.515761 0.754038 0.650536 0.652758
0.529424 0.518105 0.754415 0.646335 0.653238
0.534255 0.507182 0.753769 0.648710 0.648946
0.514855 0.512343 0.754522 0.640508 0.650159
0.517179 0.493869 0.754164 0.642198 0.642606
0.537170 0.494260 0.753391 0.650450 0.643752
0.518995 0.522224 0.754875 0.641926 0.654470
0.294445 0.549003 0.772223 0.551888 0.659633
0.285000 0.550764 0.772187 0.547922 0.660245
0.275527 0.544270 0.771855 0.544030 0.657575
0.271849 0.551872 0.772036 0.542376 0.660639
0.303381 0.550168 0.771992 0.555590 0.660239
0.321602 0.548377 0.771213 0.563160 0.659785
0.341005 0.548339 0.770205 0.571103 0.660103
0.384458 0.542655 0.766879 0.588464 0.658488
0.390263 0.537424 0.766972 0.590968 0.656410
0.393545 0.546607 0.765364 0.591727 0.660319
0.352403 0.548491 0.769393 0.575674 0.660382
0.366331 0.547381 0.768194 0.581236 0.660163
0.377664 0.543848 0.767456 0.585792 0.658876
0.410489 0.547844 0.763255 0.598080 0.661217
0.422055 0.541344 0.762978 0.602849 0.658775
0.434924 0.541683 0.761605 0.607759 0.659288
0.446184 0.536025 0.760925 0.612401 0.657253
0.447531 0.546286 0.759878 0.612472 0.661618
0.452550 0.532032 0.760512 0.615048 0.655776
0.459216 0.540314 0.759282 0.617315 0.659491
0.664129 0.512375 0.743059 0.700760 0.660047
0.678198 0.509857 0.741342 0.706481 0.659957
0.687293 0.509559 0.740356 0.710149 0.660382
0.696952 0.508124 0.739726 0.714205 0.660290
0.712067 0.506211 0.739176 0.720572 0.660082
0.730508 0.505613 0.739546 0.728321 0.660311
0.746487 0.507513 0.740306 0.734989 0.661272
0.759500 0.502331 0.740852 0.740643 0.659370
0.772893 0.504945 0.741266 0.746183 0.660707
0.782126 0.500739 0.740945 0.750194 0.659308
0.797819 0.501524 0.739518 0.756485 0.660473
0.830783 0.487391 0.731806 0.768442 0.657917
0.814194 0.490348 0.735751 0.762769 0.657280
0.810543 0.501333 0.737922 0.761456 0.661262
0.826953 0.496496 0.734187 0.767349 0.660914
0.819790 0.503244 0.736530 0.764840 0.662816
0.853172 0.475296 0.725035 0.776105 0.656226
0.846283 0.486255 0.728488 0.773897 0.659250
0.836830 0.495379 0.732003 0.770756 0.661560
0.868109 0.478066 0.723140 0.781846 0.658657
0.860021 0.483105 0.725426 0.778845 0.659556
0.878283 0.481782 0.722318 0.785819 0.660915
0.883440 0.470449 0.719377 0.787730 0.657445
0.888512 0.475687 0.719690 0.789709 0.659703
0.295301 0.555457 0.772351 0.552142 0.662286
0.290801 0.565777 0.772340 0.550074 0.666468
0.276871 0.563532 0.772283 0.544292 0.665387
0.310876 0.560511 0.771819 0.558505 0.664627
0.301378 0.561492 0.772212 0.554552 0.664872
0.322015 0.567019 0.771020 0.562919 0.667508
0.334590 0.560086 0.770296 0.568200 0.664882
0.374201 0.559671 0.766177 0.583764 0.665473
0.380410 0.550160 0.766421 0.586547 0.661558
0.387803 0.559038 0.764456 0.588945 0.665422
0.399769 0.556041 0.763246 0.593572 0.664392
0.352248 0.562502 0.768563 0.575190 0.666242
0.364564 0.559428 0.767434 0.580087 0.665213
0.407450 0.559138 0.761849 0.596326 0.665898
0.417346 0.561164 0.760804 0.600062 0.667041
0.426262 0.551684 0.761171 0.603928 0.663248
0.429870 0.562398 0.759871 0.604971 0.667963
0.441239 0.556961 0.759789 0.609645 0.666023
0.456716 0.555401 0.759065 0.615903 0.665867
0.673999 0.521091 0.742536 0.704272 0.664303
0.666682 0.526618 0.743959 0.701134 0.666010
0.688524 0.523304 0.741637 0.710139 0.666045
0.705767 0.519810 0.740236 0.717408 0.665448
0.719995 0.519122 0.740015 0.723413 0.665566
0.731852 0.521323 0.740487 0.728344 0.666687
0.743262 0.518882 0.740765 0.733214 0.665852
0.757211 0.517192 0.741267 0.739164 0.665322
0.768800 0.513931 0.741482 0.744144 0.664241
0.782876 0.513955 0.741338 0.750029 0.664750
0.798650 0.518758 0.740631 0.756323 0.667488
0.810601 0.510739 0.738752 0.761280 0.665077
0.834204 0.507163 0.734363 0.770005 0.665794
0.822503 0.514358 0.737288 0.765657 0.667573
0.846385 0.500794 0.731184 0.774262 0.664580
0.868511 0.487086 0.724873 0.782146 0.661836
0.863533 0.498553 0.727882 0.780502 0.665461
0.853630 0.509504 0.731474 0.777042 0.668668
0.844855 0.509080 0.732847 0.773831 0.667662
0.880538 0.491299 0.723851 0.786779 0.664551
0.873910 0.492066 0.725002 0.784275 0.664159
0.890139 0.489705 0.722206 0.790468 0.664821
0.895034 0.476755 0.719095 0.792324 0.660647
0.910795 0.481273 0.718257 0.798696 0.663431
0.903170 0.481705 0.719124 0.795598 0.663016
0.305001 0.574854 0.771759 0.555753 0.670444
0.322484 0.584450 0.770500 0.562632 0.674729
0.336703 0.574309 0.769624 0.568653 0.670843
0.361101 0.576726 0.766639 0.578120 0.672370
0.366874 0.567955 0.766418 0.580657 0.668817
0.369890 0.576288 0.765433 0.581489 0.672366
0.381111 0.572975 0.764062 0.585884 0.671212
0.394768 0.578382 0.761623 0.590769 0.673825
0.399106 0.567227 0.761971 0.592819 0.669140
0.401845 0.575087 0.760848 0.593538 0.672582
0.349705 0.580827 0.767942 0.573590 0.673828
0.409016 0.564695 0.760982 0.596670 0.668297
0.410327 0.572374 0.760442 0.596969 0.671720
0.424233 0.572502 0.759759 0.602491 0.672216
0.437861 0.571442 0.759431 0.607982 0.672199
0.453183 0.571143 0.759542 0.614195 0.672551
0.674981 0.532198 0.743791 0.704295 0.668807
0.694706 0.536545 0.743004 0.712324 0.671536
0.684734 0.540186 0.744380 0.708143 0.672380
0.703731 0.531814 0.741879 0.716206 0.670110
0.714310 0.528623 0.741066 0.720735 0.669205
0.725843 0.530662 0.741535 0.725546 0.670187
0.739536 0.531095 0.742013 0.731311 0.670496
0.754162 0.529695 0.742297 0.737507 0.670173
0.771718 0.527845 0.742426 0.744940 0.669858
0.787529 0.526483 0.741965 0.751545 0.670021
0.798092 0.531545 0.741730 0.755659 0.672692
0.813353 0.525684 0.739596 0.761870 0.671441
0.831392 0.518455 0.736331 0.768868 0.670092
0.824456 0.521764 0.737766 0.766199 0.670797
0.864801 0.513087 0.730445 0.781233 0.671176
0.856761 0.515891 0.732130 0.778267 0.671496
0.845924 0.521267 0.734483 0.774217 0.672639
0.879752 0.498778 0.725429 0.786558 0.667187
0.880099 0.512610 0.728019 0.786898 0.672496
0.899888 0.501273 0.723162 0.794311 0.670014
0.889490 0.503726 0.724972 0.790298 0.669995
0.468066 0.551690 0.758511 0.620563 0.664677
0.469910 0.565185 0.759295 0.621116 0.670472
0.480326 0.552918 0.758306 0.625556 0.665659
0.485396 0.564404 0.759497 0.627459 0.670617
0.499034 0.551863 0.758508 0.633195 0.665788
0.494589 0.566038 0.760261 0.631173 0.671431
0.503885 0.566898 0.761255 0.634881 0.671761
0.515897 0.557791 0.760143 0.639952 0.668467
0.516015 0.546633 0.758009 0.640202 0.664219
0.516394 0.571608 0.763354 0.639824 0.673430
0.307154 0.597984 0.771197 0.556022 0.680037
0.324725 0.601614 0.770018 0.563053 0.681906
0.339333 0.593930 0.768763 0.569118 0.679036
0.352103 0.593688 0.767212 0.574110 0.679231
0.358555 0.586754 0.766493 0.576797 0.676492
0.360865 0.597095 0.765968 0.577386 0.680881
0.371630 0.587970 0.764767 0.581823 0.677324
0.388310 0.586659 0.762438 0.588172 0.677230
0.403314 0.581704 0.760621 0.593981 0.675550
0.396519 0.585153 0.761211 0.591254 0.676853
0.415961 0.585157 0.760128 0.598971 0.677493
0.431410 0.583615 0.759784 0.605186 0.677318
0.444394 0.582889 0.759908 0.610471 0.677356
0.454066 0.583723 0.760365 0.614422 0.677903
0.695294 0.544652 0.744606 0.712468 0.674493
0.704811 0.542270 0.743810 0.716484 0.673952
0.716294 0.538090 0.742806 0.721378 0.672736
0.731850 0.542836 0.744042 0.727827 0.674566
0.748896 0.541466 0.744093 0.735020 0.674365
0.763935 0.539970 0.744016 0.741358 0.674228
0.774020 0.539168 0.743829 0.745577 0.674301
0.784974 0.538174 0.743326 0.750142 0.674493
0.805715 0.537485 0.741658 0.758480 0.675667
0.796699 0.541005 0.742924 0.754786 0.676377
0.816139 0.540858 0.740863 0.762410 0.677921
0.828623 0.529271 0.737901 0.767528 0.674289
0.828193 0.541583 0.739399 0.766947 0.679347
0.862213 0.521916 0.732398 0.780319 0.674423
0.848829 0.535415 0.736119 0.775031 0.678744
0.838622 0.536743 0.737484 0.771083 0.678353
0.860215 0.533377 0.734513 0.779460 0.678919
0.872449 0.520876 0.730764 0.784132 0.674993
0.894015 0.512295 0.725960 0.792086 0.673725
0.892093 0.521861 0.727981 0.791393 0.677296
0.882498 0.528388 0.730623 0.787826 0.678997
0.870905 0.528956 0.732425 0.783554 0.678096
0.465047 0.582953 0.761186 0.618856 0.677685
0.478392 0.575883 0.760897 0.624417 0.675076
0.475562 0.584281 0.762190 0.623104 0.678298
0.488061 0.573031 0.761025 0.628400 0.674090
0.486052 0.584401 0.763339 0.627282 0.678257
0.494999 0.574123 0.761893 0.631160 0.674495
0.501677 0.580938 0.764214 0.633629 0.676833
0.513144 0.584781 0.766374 0.638107 0.677930
0.522076 0.579056 0.765798 0.641901 0.675818
0.907802 0.496620 0.721388 0.797421 0.668870
0.901506 0.519785 0.726107 0.794873 0.677352
0.387255 0.602053 0.763062 0.587542 0.683768
0.370426 0.606473 0.764944 0.580879 0.685098
0.401005 0.593078 0.761178 0.592965 0.680455
0.398706 0.603138 0.761900 0.591921 0.684711
0.414664 0.598014 0.760802 0.598313 0.683044
0.405735 0.603208 0.761452 0.594720 0.685003
0.425388 0.593776 0.760382 0.602669 0.681522
0.437975 0.595286 0.760929 0.607741 0.682406
0.449780 0.591898 0.761143 0.612549 0.681201
0.446700 0.599152 0.762013 0.611221 0.684083
0.456811 0.589684 0.761343 0.615454 0.680360
0.457757 0.600300 0.763453 0.615558 0.684383
0.803283 0.547328 0.743195 0.757179 0.679388
0.822181 0.549968 0.741289 0.764325 0.682205
0.811393 0.554412 0.743346 0.760051 0.682926
0.834729 0.552609 0.740056 0.769017 0.684529
0.844431 0.543429 0.737721 0.773093 0.681657
0.845536 0.549755 0.738455 0.773270 0.684381
0.863176 0.542338 0.735612 0.780383 0.682900
0.853539 0.544644 0.736922 0.776582 0.683003
0.895504 0.535712 0.729854 0.792451 0.683283
0.886472 0.537368 0.731673 0.789215 0.683050
0.874772 0.541321 0.733960 0.784800 0.683592
0.473345 0.593068 0.763866 0.621962 0.681517
0.483305 0.599560 0.766603 0.625687 0.683598
0.494265 0.593984 0.766594 0.630225 0.681446
0.504334 0.592073 0.767250 0.634326 0.680588
0.491286 0.604515 0.768839 0.628640 0.685100
0.500588 0.601836 0.769264 0.632484 0.683988
0.513136 0.597688 0.769525 0.637720 0.682353
0.523233 0.587994 0.768109 0.642122 0.678855
0.576611 0.586499 0.766916 0.664485 0.680466
0.565430 0.581368 0.766462 0.659925 0.678029
0.576857 0.576566 0.764486 0.664725 0.677136
0.535356 0.588229 0.768769 0.647173 0.679017
0.527503 0.598399 0.770763 0.643641 0.682500
0.548245 0.586847 0.768509 0.652629 0.678960
0.543542 0.598834 0.771207 0.650371 0.682997
0.556843 0.584985 0.767856 0.656297 0.678693
0.559413 0.594353 0.769738 0.657144 0.682184
0.573835 0.595126 0.768951 0.663136 0.683360
0.381319 0.621866 0.764888 0.584899 0.691925
0.368448 0.618284 0.765548 0.579827 0.690022
0.401994 0.616457 0.763448 0.593164 0.690288
0.413518 0.607825 0.761830 0.597823 0.687170
0.420897 0.618446 0.763715 0.600685 0.691521
0.426324 0.605184 0.761730 0.602954 0.686310
0.431358 0.614268 0.763386 0.604918 0.690017
0.441373 0.607864 0.763116 0.608960 0.687470
0.450639 0.614042 0.765249 0.612534 0.689722
0.820141 0.560938 0.743165 0.763054 0.686407
0.837894 0.564204 0.741070 0.769502 0.689622
0.828067 0.570029 0.743151 0.765446 0.690967
0.848841 0.559168 0.739205 0.774065 0.688656
0.862595 0.550760 0.736861 0.779847 0.686396
0.862081 0.561839 0.738225 0.779033 0.691061
0.888899 0.544870 0.732529 0.789923 0.686430
0.882136 0.551389 0.734612 0.787260 0.688503
0.872481 0.555887 0.736447 0.783425 0.689511
0.890092 0.554038 0.733709 0.790021 0.690425
0.460875 0.615226 0.766871 0.616471 0.689885
0.472073 0.607100 0.766792 0.621010 0.686572
0.470845 0.620917 0.769527 0.620206 0.691591
0.483614 0.613795 0.769893 0.625347 0.688578
0.496149 0.612338 0.771224 0.630383 0.687708
0.491562 0.622665 0.772811 0.628312 0.691538
0.506406 0.608823 0.771519 0.634650 0.686291
0.505572 0.621601 0.774134 0.634020 0.690892
0.517850 0.609331 0.772613 0.639360 0.686343
0.522952 0.621038 0.775533 0.641215 0.690467
0.532112 0.608890 0.773350 0.645333 0.686201
0.535615 0.617224 0.775332 0.646629 0.689156
0.545051 0.611046 0.773896 0.650740 0.687334
0.544875 0.621983 0.776181 0.650450 0.691212
0.555466 0.605682 0.772345 0.655245 0.685958
0.557934 0.617269 0.774533 0.656011 0.690273
0.569294 0.607792 0.771842 0.660959 0.687613
0.570276 0.619613 0.774077 0.661087 0.691929
0.905773 0.548155 0.729719 0.795545 0.689611
0.898457 0.551078 0.731697 0.793030 0.690047
0.838115 0.593941 0.743662 0.766774 0.701870
0.840628 0.575912 0.741795 0.769587 0.694802
0.848544 0.586912 0.741321 0.771352 0.700243
0.829592 0.583785 0.744352 0.764779 0.696701
0.856470 0.574751 0.739648 0.775731 0.696022
0.860558 0.590327 0.739558 0.775432 0.703016
0.871245 0.568666 0.737841 0.782060 0.694930
0.867814 0.579963 0.738575 0.779526 0.699439
0.879912 0.569581 0.737057 0.785340 0.696150
0.878943 0.577226 0.737255 0.784125 0.699399
0.887222 0.570960 0.735855 0.787842 0.697508
0.894622 0.562815 0.733782 0.791028 0.694702
0.898932 0.578147 0.733757 0.791121 0.701785
0.887816 0.577681 0.735970 0.787351 0.700508
0.905572 0.564043 0.731704 0.794697 0.696329
0.909785 0.574678 0.731777 0.795359 0.701326
0.460738 0.639399 0.771590 0.616057 0.698860
0.457054 0.628526 0.769035 0.614758 0.694916
0.468124 0.631483 0.771214 0.618983 0.695592
0.470272 0.639558 0.772959 0.619733 0.698569
0.463409 0.650642 0.773840 0.617034 0.703082
0.479617 0.646460 0.775333 0.623360 0.700889
0.479876 0.629902 0.772571 0.623568 0.694599
0.489583 0.646688 0.776754 0.627265 0.700631
0.493884 0.635894 0.775470 0.629070 0.696419
0.496622 0.647077 0.777653 0.630076 0.700594
0.504740 0.640538 0.777557 0.633399 0.697903
0.504290 0.632306 0.776122 0.633308 0.694805
0.512641 0.631756 0.776845 0.636730 0.694447
0.514008 0.642058 0.778737 0.637166 0.698321
0.506141 0.655184 0.779677 0.633931 0.703616
0.522084 0.649815 0.780374 0.640468 0.701338
0.523282 0.634887 0.778249 0.641098 0.695532
0.552909 0.640911 0.779348 0.653460 0.698571
0.543862 0.634269 0.778516 0.649770 0.695686
0.554281 0.629693 0.777203 0.654234 0.694526
0.533884 0.657478 0.781881 0.645351 0.704454
0.533637 0.641496 0.779729 0.645355 0.698151
0.545331 0.650274 0.780989 0.650139 0.701864
0.562653 0.639998 0.778619 0.657523 0.698757
0.565901 0.628702 0.776194 0.659080 0.694903
0.572643 0.638953 0.777734 0.661715 0.698974
0.579633 0.629250 0.775197 0.664759 0.696027
0.560427 0.654930 0.781324 0.656396 0.704185
0.572324 0.650691 0.780107 0.661444 0.703126
0.592048 0.635330 0.775507 0.669841 0.698955
0.588294 0.627394 0.774003 0.668368 0.696010
0.585417 0.647425 0.778688 0.666931 0.702685
0.608957 0.628677 0.772963 0.677048 0.697553
0.596966 0.623590 0.772622 0.672069 0.695161
0.608989 0.619258 0.770909 0.677200 0.694272
0.604646 0.636538 0.775084 0.675140 0.699983
0.618703 0.625512 0.771923 0.681249 0.696749
0.618389 0.615612 0.769689 0.681251 0.693319
0.617310 0.635472 0.774384 0.680547 0.700030
0.630152 0.619477 0.770232 0.686211 0.694879
0.629675 0.631593 0.773254 0.685879 0.698891
0.627491 0.640845 0.775744 0.684852 0.701786
0.691123 0.623842 0.768643 0.711527 0.697794
0.682481 0.615787 0.766540 0.707988 0.695149
0.694250 0.613871 0.765209 0.712722 0.695104
0.640720 0.628261 0.772251 0.690621 0.697842
0.644405 0.619944 0.769909 0.692252 0.695221
0.641955 0.638980 0.775267 0.691075 0.701142
0.655370 0.631395 0.772843 0.696835 0.698866
0.657888 0.619970 0.769320 0.697922 0.695486
0.658025 0.643534 0.776590 0.697866 0.702326
0.670354 0.629238 0.771603 0.703100 0.698503
0.670878 0.618532 0.768141 0.703288 0.695468
0.670696 0.639716 0.775014 0.703222 0.701408
0.682091 0.627256 0.770302 0.707918 0.698338
0.680959 0.636490 0.773452 0.707451 0.700841
0.703067 0.624764 0.768209 0.716343 0.698650
0.707082 0.613302 0.764363 0.717889 0.695466
0.714140 0.620748 0.766328 0.720726 0.698050
0.718614 0.614197 0.764155 0.722496 0.696233
0.913637 0.572910 0.730869 0.796814 0.700944
0.833508 0.606867 0.745869 0.763801 0.706417
0.824015 0.614486 0.748872 0.759856 0.708171
0.822583 0.597596 0.747122 0.760948 0.701355
0.813151 0.607347 0.750270 0.756809 0.703880
0.813433 0.600206 0.749223 0.757500 0.701143
0.811845 0.617039 0.751930 0.755566 0.707396
0.843403 0.608085 0.743839 0.767080 0.708177
0.850324 0.599188 0.741680 0.770514 0.705465
0.852908 0.610893 0.742002 0.770062 0.710456
0.847328 0.615793 0.743746 0.767656 0.711693
0.861237 0.604227 0.739803 0.773807 0.708778
0.861658 0.614784 0.740429 0.772773 0.713033
0.873553 0.611894 0.737849 0.777452 0.713241
0.881731 0.599030 0.736176 0.782186 0.708887
0.883625 0.609305 0.735777 0.781430 0.713234
0.869846 0.598653 0.738101 0.777739 0.707422
0.895006 0.593779 0.734245 0.787839 0.708067
0.893716 0.608403 0.734387 0.785459 0.714017
0.906131 0.592437 0.732759 0.792162 0.708567
0.904264 0.602733 0.733027 0.790250 0.712699
0.912580 0.585669 0.731777 0.795358 0.706341
0.915782 0.604155 0.731985 0.794700 0.714435
0.604837 0.668028 0.783054 0.675025 0.710157
0.600515 0.657228 0.780379 0.673257 0.706567
0.616578 0.659269 0.780902 0.680077 0.707366
0.618268 0.669803 0.783739 0.680718 0.710656
0.606134 0.678738 0.785646 0.675460 0.713753
0.621414 0.680471 0.786485 0.681969 0.714094
0.628548 0.661703 0.781794 0.685163 0.707957
0.632060 0.670259 0.784265 0.686583 0.710516
0.634485 0.680539 0.787061 0.687536 0.713738
0.643160 0.659358 0.781460 0.691403 0.706957
0.646941 0.671282 0.785027 0.692906 0.710412
0.644725 0.681809 0.787806 0.691851 0.713805
0.656026 0.662567 0.782688 0.696852 0.707564
0.660397 0.668808 0.784622 0.698655 0.709313
0.658167 0.678822 0.787341 0.697608 0.712535
0.669649 0.662141 0.782470 0.702634 0.707433
0.669457 0.671793 0.785499 0.702472 0.710210
0.673237 0.680159 0.787803 0.703984 0.712921
0.683596 0.671401 0.784853 0.708386 0.710522
0.684404 0.658394 0.780649 0.708810 0.706871
0.686255 0.683547 0.788260 0.709376 0.714345
0.703023 0.658058 0.779208 0.716343 0.708023
0.695194 0.653139 0.778182 0.713221 0.706101
0.704872 0.650432 0.776507 0.717061 0.706095
0.711891 0.661471 0.779504 0.719825 0.709795
0.717151 0.649345 0.775153 0.721913 0.706755
0.698911 0.665346 0.781909 0.714671 0.709751
0.699495 0.679005 0.785941 0.714753 0.713904
0.720533 0.670933 0.781434 0.723119 0.713482
0.711235 0.674250 0.783438 0.719471 0.713467
0.726041 0.659826 0.777458 0.725258 0.710800
0.726960 0.650497 0.774627 0.725730 0.707959
0.746982 0.654102 0.772801 0.732997 0.711673
0.735398 0.651612 0.773898 0.728860 0.709309
0.743730 0.639093 0.769415 0.732136 0.706179
0.748690 0.662308 0.774468 0.733383 0.714733
0.739578 0.665239 0.776816 0.730046 0.714392
0.729079 0.670716 0.780072 0.726270 0.714549
0.766684 0.638754 0.766028 0.740396 0.708785
0.758059 0.634365 0.766516 0.737556 0.706050
0.766902 0.629973 0.764305 0.740855 0.705474
0.782975 0.640834 0.762891 0.745454 0.711974
0.773045 0.647344 0.766402 0.742104 0.712951
0.776152 0.632632 0.763003 0.743782 0.707811
0.805822 0.624893 0.754493 0.753070 0.709513
0.817651 0.626514 0.752005 0.756825 0.711823
0.810649 0.636279 0.755215 0.753988 0.714481
0.789856 0.629433 0.759220 0.748050 0.708723
0.798048 0.625028 0.756391 0.750688 0.708354
0.799515 0.633560 0.757432 0.750617 0.711795
0.792049 0.642375 0.760876 0.748035 0.713968
0.758736 0.647658 0.769263 0.737279 0.711049
0.755882 0.659875 0.772545 0.735912 0.714933
0.919906 0.594172 0.731170 0.797329 0.710621
0.473519 0.664673 0.777162 0.620981 0.708214
0.489578 0.656814 0.778108 0.627281 0.704604
0.454903 0.665061 0.774999 0.613695 0.708990
0.495113 0.678717 0.781150 0.629575 0.713260
0.521396 0.670515 0.782574 0.640155 0.709675
0.547951 0.677225 0.784390 0.651045 0.712563
0.582891 0.672626 0.783947 0.665697 0.711492
0.599308 0.645383 0.777487 0.672811 0.702661
