0.736850 0.798053 0.930904 0.118858 0.565981
0.722260 0.794991 0.931098 0.128769 0.567908
0.710869 0.793185 0.931170 0.136454 0.569031
0.703212 0.796362 0.929667 0.141499 0.567331
0.691644 0.795073 0.929856 0.149251 0.568010
0.674672 0.795485 0.929493 0.160458 0.567549
0.852056 0.755803 0.956144 0.043263 0.588030
0.840538 0.757986 0.955232 0.050955 0.586481
0.841564 0.744857 0.959686 0.050630 0.594068
0.830481 0.753553 0.956356 0.057850 0.588888
0.824490 0.744091 0.959066 0.062133 0.594416
0.807845 0.753504 0.954552 0.072985 0.589124
0.817461 0.757733 0.954047 0.066446 0.586512
0.804970 0.761345 0.951782 0.074674 0.584556
0.809172 0.742420 0.958079 0.072404 0.595686
0.798242 0.752347 0.953719 0.079387 0.590123
0.795527 0.763019 0.950173 0.080882 0.583809
0.796492 0.740907 0.956852 0.080838 0.597046
0.777677 0.748587 0.951899 0.092987 0.593237
0.787572 0.745736 0.954159 0.086585 0.594521
0.783898 0.759778 0.949543 0.088615 0.586215
0.772509 0.756535 0.948894 0.096174 0.588640
0.768343 0.749679 0.950231 0.099068 0.592978
0.741506 0.753286 0.946168 0.116710 0.591589
0.752406 0.761302 0.944806 0.109261 0.586570
0.740812 0.765229 0.942538 0.116925 0.584503
0.763276 0.758107 0.947121 0.102178 0.588087
0.756473 0.745754 0.949722 0.106944 0.595820
0.741582 0.740868 0.949538 0.116957 0.599135
0.728907 0.759192 0.943701 0.125070 0.588124
0.730857 0.767999 0.940999 0.123572 0.582999
0.717790 0.767854 0.940593 0.132419 0.583058
0.715264 0.755566 0.944644 0.134405 0.590012
0.728503 0.747028 0.947283 0.125612 0.595326
0.713784 0.741728 0.948828 0.135692 0.598086
0.702478 0.764406 0.941835 0.142845 0.584675
0.702135 0.753425 0.945745 0.143310 0.590747
0.692444 0.760676 0.943599 0.149655 0.586299
0.692131 0.752580 0.946600 0.150060 0.590716
0.698958 0.742834 0.949286 0.145680 0.596694
0.687120 0.744435 0.949613 0.153588 0.595148
0.680344 0.758773 0.944763 0.157803 0.586849
0.674991 0.745712 0.949935 0.161675 0.593729
0.667088 0.755137 0.946735 0.166702 0.588136
0.658605 0.754316 0.947229 0.172377 0.588219
0.659365 0.744646 0.950589 0.172181 0.593772
0.358680 0.707719 0.941029 0.374773 0.617535
0.345450 0.706909 0.941042 0.383571 0.617914
0.332391 0.703452 0.943072 0.392273 0.619073
0.330138 0.713097 0.938734 0.393584 0.614147
0.321051 0.712391 0.939807 0.399519 0.613767
0.315311 0.702743 0.944521 0.403356 0.618387
0.305305 0.714625 0.940408 0.409640 0.611221
0.301610 0.702504 0.945630 0.412231 0.617630
0.294461 0.709123 0.943633 0.416724 0.613422
0.293336 0.702647 0.946178 0.417572 0.617039
0.284460 0.704842 0.945813 0.423309 0.615355
0.272451 0.701909 0.947254 0.431185 0.616623
0.263957 0.704989 0.946525 0.436661 0.614468
0.251742 0.703912 0.946631 0.444638 0.615012
0.216835 0.699527 0.945347 0.467344 0.618205
0.226717 0.705402 0.944551 0.460843 0.614376
0.215317 0.706402 0.943237 0.468221 0.614009
0.238922 0.700720 0.946863 0.453016 0.617067
0.209695 0.700182 0.944324 0.471929 0.618029
0.205791 0.710243 0.940835 0.474264 0.612086
0.191164 0.709357 0.939345 0.483741 0.613132
0.180856 0.704596 0.939563 0.490536 0.616318
0.170156 0.705608 0.937995 0.497492 0.616038
0.144383 0.703695 0.936523 0.514597 0.617405
0.155428 0.708615 0.935673 0.507158 0.614506
0.144105 0.710334 0.934560 0.514659 0.613433
0.137198 0.706069 0.935564 0.519360 0.615860
0.135695 0.713169 0.933191 0.520204 0.611733
0.125429 0.705736 0.935206 0.527249 0.615850
0.125980 0.715656 0.931797 0.526637 0.610238
0.113074 0.715276 0.931367 0.535298 0.610277
0.109967 0.701602 0.936349 0.537769 0.617720
0.096036 0.710659 0.932736 0.546890 0.612325
0.095738 0.696906 0.937994 0.547489 0.619752
0.084493 0.702079 0.935804 0.554876 0.616581
0.079310 0.711852 0.931647 0.558041 0.611349
0.070815 0.699212 0.936060 0.564107 0.618050
0.062241 0.708673 0.931847 0.569498 0.612887
0.278884 0.611848 0.973094 0.428233 0.672713
0.277923 0.622941 0.970001 0.428754 0.665813
0.265474 0.623655 0.969779 0.436887 0.665055
0.260637 0.611080 0.972968 0.440273 0.672749
0.246268 0.609450 0.973136 0.449860 0.673344
0.234997 0.607121 0.973338 0.457430 0.674521
0.226998 0.609766 0.972279 0.462705 0.672740
0.161690 0.612344 0.964163 0.505878 0.671445
0.216775 0.607441 0.971801 0.469531 0.674176
0.154800 0.612030 0.964182 0.510553 0.671363
0.066107 0.605497 0.964442 0.570154 0.672774
0.058119 0.607928 0.962869 0.575311 0.671399
0.046450 0.604829 0.962586 0.583102 0.673263
0.385552 0.454708 1.008240 0.360979 0.774263
0.386012 0.447138 1.009480 0.360858 0.779143
0.366213 0.450096 1.006630 0.373855 0.777160
0.376012 0.450204 1.007750 0.367358 0.777153
0.355786 0.447912 1.005290 0.380692 0.778613
0.328340 0.453529 0.999862 0.398559 0.775003
0.104340 0.265234 0.962853 0.548774 0.893973
0.107336 0.255368 0.960093 0.546775 0.899981
0.090165 0.267290 0.963087 0.558199 0.892812
0.095215 0.258446 0.961073 0.554801 0.898297
0.076858 0.265096 0.961799 0.567039 0.894137
0.083168 0.256600 0.959870 0.562768 0.899303
0.066842 0.255139 0.957798 0.573464 0.899762
0.066786 0.271003 0.962351 0.573748 0.890334
0.056389 0.265116 0.959707 0.580507 0.893611
0.092084 0.279037 0.965210 0.557007 0.885273
0.078723 0.276254 0.964415 0.565898 0.887176
0.404852 0.232359 0.954149 0.349077 0.911870
0.409977 0.220466 0.949898 0.345410 0.918505
0.412141 0.243470 0.959047 0.344454 0.906061
0.393621 0.234117 0.954234 0.356603 0.910695
0.394827 0.222269 0.949819 0.355637 0.917305
0.398403 0.243387 0.957991 0.353559 0.905629
0.442974 0.245546 0.964244 0.324477 0.907036
0.384972 0.230700 0.952776 0.362335 0.912599
0.379588 0.222245 0.949687 0.365849 0.917460
0.383865 0.241256 0.956806 0.363175 0.906735
0.373322 0.232258 0.953500 0.370105 0.911890
0.365997 0.221425 0.949750 0.374835 0.918268
0.358968 0.232384 0.953967 0.379518 0.912177
0.350623 0.219830 0.949837 0.384928 0.919711
0.344467 0.232478 0.954560 0.388973 0.912468
0.335162 0.222156 0.951275 0.394994 0.918755
0.329883 0.233021 0.955113 0.398411 0.912340
0.320808 0.223290 0.951904 0.404307 0.918222
0.313704 0.234593 0.955450 0.408874 0.911291
0.306510 0.223968 0.951880 0.413572 0.917667
0.297792 0.233231 0.954466 0.419214 0.911861
0.294041 0.225025 0.951716 0.421688 0.916768
0.284455 0.232580 0.953684 0.427932 0.912013
0.282725 0.221014 0.949751 0.429083 0.918821
0.271089 0.232207 0.953054 0.436743 0.912051
0.268196 0.222215 0.949407 0.438670 0.917779
0.259508 0.230618 0.952144 0.444430 0.912839
0.256145 0.222842 0.949110 0.446668 0.917158
0.245691 0.231218 0.952107 0.453643 0.912376
0.245801 0.221036 0.948031 0.453556 0.917917
0.229014 0.233864 0.953266 0.464829 0.911049
0.231828 0.221866 0.948154 0.462905 0.917334
0.214007 0.235002 0.953991 0.474893 0.910679
0.216420 0.224875 0.949503 0.473227 0.915817
0.198879 0.236297 0.954467 0.485025 0.910143
0.204720 0.227077 0.950486 0.481051 0.914817
0.183531 0.234857 0.953222 0.495325 0.910863
0.192497 0.225312 0.949398 0.489204 0.915670
0.169075 0.234353 0.952311 0.505133 0.911085
0.177618 0.224381 0.948386 0.499188 0.916057
0.156815 0.233890 0.951688 0.513489 0.911417
0.160735 0.223575 0.947358 0.510610 0.916514
0.148301 0.237263 0.952966 0.519339 0.909819
0.144440 0.227102 0.948588 0.521822 0.915021
0.376876 0.067469 0.883384 0.364379 0.996170
0.377243 0.077860 0.888497 0.364420 0.991425
0.385739 0.080006 0.889771 0.358741 0.990315
0.359827 0.069259 0.883541 0.375926 0.995385
0.360037 0.078065 0.887831 0.376017 0.991319
0.369249 0.080703 0.889648 0.369893 0.990239
0.345282 0.067634 0.881923 0.385686 0.995953
0.350248 0.078739 0.887502 0.382609 0.990791
0.332098 0.068217 0.881362 0.394563 0.995392
0.338242 0.075630 0.885155 0.390595 0.991902
0.377536 0.083012 0.891127 0.364369 0.989175
0.320255 0.070997 0.881963 0.402604 0.993818
0.326199 0.078124 0.885571 0.398751 0.990444
0.308604 0.069436 0.880750 0.410454 0.994483
0.310246 0.080061 0.885743 0.409560 0.989344
0.293664 0.068867 0.879864 0.420546 0.994555
0.296365 0.077305 0.883998 0.418868 0.990580
0.240279 0.080213 0.884951 0.456267 0.989138
0.227063 0.066979 0.877974 0.464811 0.994931
0.224138 0.077660 0.883525 0.466859 0.990210
0.822710 0.052596 0.893232 0.067888 1.006560
0.812131 0.053087 0.891543 0.074513 1.004290
0.815509 0.041475 0.887478 0.072888 1.010980
0.802946 0.048525 0.888104 0.080564 1.005150
0.805241 0.037727 0.883967 0.079292 1.010910
0.794873 0.038191 0.882698 0.086024 1.009170
0.783679 0.043282 0.883579 0.093430 1.005400
0.786705 0.034285 0.880231 0.091359 1.010260
0.792383 0.048994 0.886970 0.087527 1.003530
0.777888 0.033024 0.879202 0.097304 1.010290
0.835958 0.051783 0.895614 0.059852 1.009660
0.840227 0.062787 0.900945 0.056657 1.004550
0.763634 0.031023 0.878092 0.106766 1.011300
0.753015 0.033731 0.879063 0.114001 1.010230
0.722709 0.045334 0.886641 0.134348 1.007840
0.712478 0.039839 0.885147 0.140806 1.011840
0.669703 0.054594 0.894282 0.168921 1.008220
0.667668 0.064280 0.898844 0.170546 1.003570
0.615978 0.052236 0.890594 0.204011 1.009330
0.603161 0.056782 0.890999 0.212494 1.006280
0.604508 0.047122 0.887679 0.211405 1.011910
0.649253 0.064576 0.898252 0.182572 1.003550
0.657955 0.054901 0.894202 0.176587 1.008370
0.636127 0.065743 0.897880 0.191173 1.002730
0.643416 0.055730 0.893904 0.186119 1.007950
0.628208 0.067417 0.897942 0.196402 1.001620
0.629497 0.057671 0.893792 0.195275 1.006690
0.591460 0.058989 0.891012 0.220289 1.004910
0.595957 0.050128 0.888062 0.217091 1.010000
0.582912 0.049972 0.887560 0.225745 1.010210
0.566455 0.046672 0.886302 0.236679 1.012570
0.846857 0.975329 0.877887 0.041838 0.463734
0.841683 0.981911 0.875818 0.045539 0.460055
0.834826 0.973032 0.876288 0.049751 0.466215
0.845800 0.960966 0.880951 0.042103 0.472903
0.818328 0.982415 0.871194 0.060883 0.462138
0.829679 0.984883 0.873048 0.053625 0.459347
0.814695 0.988083 0.869562 0.063518 0.458965
0.821405 0.974211 0.873326 0.058498 0.466957
0.794676 0.973619 0.868366 0.075703 0.470381
0.808846 0.975058 0.870735 0.066683 0.467898
0.793537 0.984502 0.866199 0.076757 0.463713
0.758255 0.982348 0.861319 0.098526 0.467622
0.771933 0.983092 0.862677 0.089914 0.466324
0.759377 0.988361 0.860800 0.097751 0.463623
0.783486 0.979096 0.865076 0.082779 0.468128
0.731778 0.982319 0.859530 0.115311 0.467695
0.744880 0.983281 0.860153 0.106957 0.467080
0.730478 0.987779 0.858786 0.115841 0.463983
0.703849 0.979429 0.859763 0.133972 0.467792
0.717938 0.980369 0.859697 0.124505 0.468140
0.703354 0.985735 0.858412 0.133959 0.463719
0.507353 0.843389 0.904053 0.271023 0.538521
0.494363 0.842219 0.905089 0.279885 0.538470
0.481403 0.841804 0.905627 0.288738 0.538133
0.465631 0.841658 0.905513 0.299502 0.537877
0.449576 0.842155 0.904637 0.310389 0.537624
0.436429 0.836017 0.905029 0.319358 0.541763
0.422867 0.841609 0.902470 0.328232 0.538716
0.407126 0.850754 0.899310 0.338416 0.533225
0.410008 0.841180 0.901642 0.336708 0.539276
0.397074 0.850118 0.899190 0.345052 0.533579
0.395559 0.838341 0.901676 0.346295 0.541044
0.383663 0.847274 0.899617 0.353962 0.535081
0.382496 0.836904 0.901852 0.355002 0.541621
0.372829 0.844925 0.900119 0.361223 0.536189
0.369718 0.835654 0.902308 0.363562 0.541856
0.360666 0.845565 0.899952 0.369308 0.535312
0.356096 0.834461 0.902870 0.372707 0.541937
0.343823 0.843092 0.900360 0.380635 0.536275
0.342705 0.830239 0.904193 0.381731 0.543944
0.328075 0.844336 0.899157 0.391038 0.535419
0.279020 0.847424 0.891605 0.422829 0.536041
0.269055 0.848670 0.890326 0.429369 0.535503
0.317145 0.845596 0.897675 0.398175 0.534937
0.257048 0.852452 0.888315 0.437203 0.533325
0.242924 0.848145 0.889156 0.446632 0.535664
0.229557 0.843119 0.890544 0.455571 0.538310
0.216741 0.845853 0.889038 0.463898 0.536644
0.488274 0.832699 0.908278 0.284303 0.543789
0.476846 0.833775 0.908085 0.292071 0.542765
0.468401 0.829916 0.908962 0.297928 0.544982
0.454169 0.830134 0.908042 0.307553 0.544949
0.842174 0.693731 0.975518 0.051428 0.624410
0.837747 0.682061 0.978600 0.054674 0.631538
0.854648 0.698217 0.974723 0.042998 0.621861
0.828076 0.689476 0.975714 0.060934 0.627036
0.826832 0.678603 0.978752 0.062018 0.633696
0.809308 0.690297 0.973089 0.073329 0.627046
0.817122 0.696141 0.972587 0.068081 0.623196
0.807104 0.699386 0.970213 0.074647 0.621590
0.814489 0.680638 0.976665 0.070095 0.632707
0.802619 0.691450 0.971697 0.077707 0.626646
0.797136 0.698240 0.968939 0.081223 0.622755
0.803954 0.683846 0.974142 0.076957 0.631170
0.781294 0.684351 0.970843 0.091940 0.631697
0.793581 0.685769 0.972056 0.083768 0.630411
0.784743 0.696030 0.967666 0.089456 0.624623
0.775878 0.700053 0.965108 0.095207 0.622666
0.769271 0.688559 0.968065 0.099862 0.629582
0.756400 0.692131 0.965318 0.108311 0.627962
0.767062 0.701117 0.963591 0.101026 0.622417
0.755975 0.703429 0.961479 0.108314 0.621423
0.744227 0.693491 0.963627 0.116351 0.627487
0.743803 0.704836 0.959716 0.116339 0.620936
0.734121 0.695702 0.961961 0.123008 0.626390
0.730452 0.707504 0.957863 0.125187 0.619474
0.723363 0.692699 0.962337 0.130280 0.628146
0.716689 0.702147 0.959002 0.134547 0.622501
0.755220 0.682863 0.968609 0.109354 0.633201
0.744806 0.683391 0.967465 0.116273 0.633110
0.730418 0.682808 0.966540 0.125862 0.633627
0.719837 0.683761 0.965373 0.132877 0.633232
0.699913 0.688276 0.962720 0.146091 0.630585
0.710245 0.686819 0.963772 0.139204 0.631450
0.703346 0.698955 0.959745 0.143570 0.624129
0.690750 0.701357 0.959310 0.152007 0.622210
0.693268 0.691936 0.961548 0.150483 0.628211
0.677548 0.701425 0.959796 0.160875 0.621625
0.682642 0.690589 0.962047 0.157652 0.628692
0.662448 0.700886 0.960375 0.171035 0.621431
0.669878 0.689004 0.962630 0.166275 0.629290
0.656800 0.683901 0.963858 0.175182 0.632154
0.648632 0.693466 0.961736 0.180486 0.625895
0.648528 0.685741 0.963248 0.180715 0.630850
0.630813 0.684418 0.962932 0.192669 0.631460
0.641225 0.683009 0.963701 0.185693 0.632454
0.634864 0.695976 0.960735 0.189696 0.624122
0.620326 0.699471 0.959060 0.199387 0.621885
0.621260 0.687125 0.961791 0.199030 0.629711
0.608698 0.703641 0.957150 0.207093 0.619335
0.606749 0.689400 0.960317 0.208742 0.628271
0.648828 0.681390 0.964217 0.180603 0.633614
0.594925 0.700243 0.957065 0.216443 0.621440
0.591234 0.685301 0.960377 0.219289 0.630776
0.581180 0.696151 0.957491 0.225792 0.623799
0.577864 0.683528 0.960231 0.228349 0.631703
0.567919 0.694958 0.957376 0.234730 0.624244
0.564781 0.683307 0.959815 0.237138 0.631576
0.554424 0.694163 0.957128 0.243818 0.624445
0.551158 0.682166 0.959488 0.246312 0.632043
0.860236 0.500394 1.011910 0.044167 0.749810
0.864749 0.514979 1.009930 0.040868 0.740361
0.858534 0.512392 1.010580 0.045059 0.741906
0.844484 0.482746 1.014320 0.055055 0.761170
0.851561 0.472043 1.014880 0.050484 0.768342
0.833157 0.479554 1.014860 0.062684 0.763128
0.839615 0.469495 1.015470 0.058508 0.769890
0.821650 0.481946 1.014310 0.070334 0.761454
0.826330 0.469011 1.015670 0.067423 0.770068
0.807472 0.482638 1.013410 0.079769 0.760933
0.811451 0.466830 1.015340 0.077413 0.771438
0.793376 0.483576 1.012080 0.089099 0.760322
0.795769 0.468407 1.014300 0.087881 0.770316
0.779734 0.481087 1.011460 0.098208 0.761936
0.781664 0.469145 1.013400 0.097280 0.769773
0.767082 0.480761 1.010740 0.106602 0.762124
0.770244 0.471364 1.012570 0.104812 0.768229
0.753705 0.482504 1.009760 0.115372 0.760937
0.756039 0.469998 1.012360 0.114311 0.769024
0.742823 0.477080 1.010840 0.122744 0.764232
0.740098 0.466855 1.013040 0.124955 0.770766
0.728566 0.478203 1.010540 0.132037 0.763247
0.725415 0.466911 1.013350 0.134600 0.770377
0.714111 0.477438 1.010720 0.141530 0.763385
0.711362 0.466766 1.013470 0.143796 0.770076
0.702893 0.476208 1.010760 0.148938 0.763908
0.695502 0.465555 1.013030 0.154279 0.770592
0.683967 0.473070 1.010100 0.161519 0.765723
0.684693 0.464778 1.012290 0.161448 0.770972
0.474755 0.437141 1.000110 0.303963 0.786094
0.463681 0.433187 1.004090 0.310816 0.788653
0.454741 0.431247 1.007610 0.316125 0.789961
0.397737 0.431616 1.011400 0.353284 0.789404
0.381080 0.435880 1.009820 0.364348 0.786495
0.367879 0.441310 1.008150 0.373017 0.782837
0.368598 0.431116 1.008980 0.372780 0.789543
0.350555 0.433296 1.005780 0.384517 0.788034
0.360707 0.435043 1.007670 0.377909 0.786911
0.851406 0.386384 1.016180 0.051699 0.825147
0.841373 0.382537 1.016810 0.058495 0.827562
0.829714 0.383852 1.017410 0.066331 0.826540
0.820722 0.382228 1.017290 0.072403 0.827446
0.813953 0.387851 1.016690 0.076827 0.823565
0.820127 0.387710 1.017620 0.072741 0.823783
0.823214 0.387102 1.017810 0.070646 0.824249
0.799106 0.388793 1.014830 0.086736 0.822550
0.783471 0.384869 1.013330 0.097269 0.824725
0.771778 0.380354 1.012380 0.105108 0.827380
0.758095 0.380910 1.011990 0.114293 0.826649
0.742980 0.383943 1.012470 0.124341 0.824398
0.728352 0.385097 1.013230 0.133947 0.823527
0.715915 0.386612 1.014010 0.142112 0.822565
0.701182 0.383017 1.013220 0.151693 0.824896
0.680364 0.374455 1.009870 0.165266 0.830382
0.687075 0.381099 1.012100 0.160973 0.826174
0.668620 0.375790 1.008870 0.173068 0.829457
0.614036 0.374125 1.000820 0.209665 0.829518
0.598557 0.376974 0.999175 0.220031 0.827262
0.603496 0.273910 0.980420 0.217055 0.892759
0.601069 0.263199 0.976907 0.218679 0.898979
0.590354 0.274072 0.980127 0.226098 0.892644
0.588813 0.264671 0.976905 0.227097 0.897996
0.578532 0.274168 0.979849 0.234223 0.892535
0.576700 0.264588 0.976427 0.235411 0.897895
0.568127 0.273652 0.979397 0.241367 0.892745
0.562055 0.264192 0.975856 0.245455 0.897965
0.581314 0.282218 0.982478 0.232353 0.887862
0.570687 0.283366 0.982550 0.239662 0.887131
0.547104 0.269052 0.977612 0.255721 0.895333
0.556949 0.279911 0.981167 0.249088 0.889053
0.548560 0.277647 0.980582 0.254806 0.890459
0.533690 0.269499 0.977892 0.264828 0.895230
0.541870 0.279696 0.981145 0.259415 0.889221
0.534406 0.278183 0.980823 0.264453 0.890219
0.520602 0.268657 0.977647 0.273674 0.895823
0.507569 0.268809 0.977468 0.282446 0.895724
0.497063 0.268847 0.977193 0.289498 0.895644
0.481618 0.278430 0.977807 0.299786 0.888943
0.486222 0.267027 0.975912 0.296686 0.896462
0.466987 0.282681 0.976806 0.309359 0.885402
0.469787 0.267922 0.974661 0.307559 0.895261
0.452375 0.274833 0.973971 0.318914 0.889848
0.458248 0.263720 0.972797 0.315158 0.897486
0.403568 0.256241 0.962957 0.350288 0.898476
0.389939 0.252186 0.960953 0.359243 0.900554
0.449351 0.262530 0.971024 0.320822 0.897611
0.439791 0.270890 0.971516 0.327003 0.891631
0.436159 0.257213 0.967135 0.329136 0.899792
0.441760 0.277702 0.973168 0.325747 0.887336
0.421685 0.261883 0.966646 0.338566 0.896060
0.424992 0.272552 0.969951 0.336520 0.889648
0.433392 0.280277 0.972520 0.331099 0.885129
0.409943 0.268547 0.967424 0.346229 0.891411
0.414206 0.258270 0.964623 0.343372 0.897772
0.378595 0.250461 0.960243 0.366687 0.901530
0.208847 0.127462 0.908343 0.477593 0.967421
0.214863 0.116033 0.903317 0.473447 0.973205
0.194381 0.128388 0.908160 0.487228 0.966585
0.199209 0.117604 0.903714 0.483911 0.972337
0.180668 0.129375 0.908068 0.496344 0.965711
0.184287 0.119050 0.904053 0.493870 0.971456
0.170268 0.130578 0.908147 0.503229 0.964781
0.171473 0.122663 0.905167 0.502409 0.969259
0.162996 0.128117 0.906904 0.508039 0.965983
0.160129 0.120516 0.903732 0.509899 0.970064
0.148762 0.119045 0.902113 0.517340 0.970202
0.135914 0.112630 0.897502 0.525508 0.972178
0.124063 0.120200 0.899576 0.533397 0.967482
0.124161 0.111978 0.895446 0.533042 0.971136
0.113647 0.117174 0.896743 0.540079 0.967844
0.117837 0.107082 0.891991 0.536898 0.972505
0.106747 0.105195 0.889693 0.544107 0.972339
0.098715 0.109235 0.891143 0.549631 0.970221
0.095726 0.103337 0.888030 0.551399 0.972837
0.092010 0.110541 0.891606 0.554201 0.969755
0.088959 0.104614 0.888556 0.556012 0.972470
0.099075 0.117083 0.895390 0.549742 0.967068
0.087570 0.117922 0.895445 0.557453 0.966760
0.067306 0.111721 0.893214 0.570638 0.971315
0.081721 0.109268 0.891163 0.561016 0.970987
0.076193 0.120840 0.897126 0.565133 0.966168
0.060102 0.123080 0.898881 0.575886 0.966424
0.050536 0.111021 0.894272 0.581682 0.973619
0.831730 0.947508 0.882347 0.051256 0.482143
0.845823 0.939581 0.886685 0.041824 0.486135
0.087141 0.955130 0.832739 0.544773 0.482829
0.080335 0.945989 0.835475 0.549399 0.488023
0.074431 0.954696 0.833607 0.552920 0.482178
0.071565 0.947052 0.835608 0.554986 0.486633
0.084822 0.937867 0.838209 0.546724 0.492951
0.069710 0.938825 0.838729 0.556450 0.491082
0.054148 0.934419 0.841602 0.566582 0.491872
0.054820 0.946361 0.838152 0.565564 0.484835
0.063876 0.951696 0.835538 0.559628 0.482847
0.042736 0.929413 0.844297 0.574129 0.493522
0.037698 0.945853 0.840596 0.576471 0.482886
0.033394 0.933209 0.844133 0.580011 0.490190
0.033062 0.924914 0.846575 0.580670 0.495083
0.083106 0.926583 0.842914 0.548194 0.498844
0.065645 0.925356 0.843730 0.559619 0.498404
0.053546 0.923592 0.845136 0.567519 0.498210
0.059876 0.915015 0.848001 0.563764 0.503574
0.043598 0.916353 0.848530 0.574292 0.501192
0.834782 0.924541 0.890261 0.049340 0.495471
0.847684 0.918460 0.893662 0.040739 0.498646
0.838188 0.902135 0.898623 0.047481 0.508106
0.851802 0.899394 0.900689 0.038359 0.509554
0.175283 0.786180 0.910161 0.492308 0.570014
0.171959 0.776862 0.913048 0.494663 0.575510
0.160726 0.783731 0.910361 0.501904 0.571372
0.162998 0.770894 0.914395 0.500625 0.579097
0.127477 0.781466 0.909048 0.523887 0.572902
0.139557 0.788323 0.907526 0.515737 0.568812
0.127119 0.789688 0.906312 0.523944 0.568087
0.150000 0.785802 0.909223 0.508940 0.570098
0.148843 0.775542 0.912130 0.509864 0.576357
0.132479 0.772014 0.912052 0.520739 0.578638
0.117318 0.782240 0.908051 0.530601 0.572544
0.117333 0.793938 0.903804 0.530268 0.565975
0.105148 0.782101 0.907157 0.538673 0.572726
0.103670 0.791416 0.903621 0.539373 0.567545
0.118495 0.772213 0.911137 0.530039 0.578545
0.105925 0.772336 0.910324 0.538402 0.578459
0.093080 0.781449 0.906506 0.546690 0.573139
0.091078 0.790224 0.903003 0.547735 0.568361
0.083304 0.781340 0.905815 0.553173 0.573229
0.075709 0.788425 0.902401 0.557940 0.569477
0.093451 0.772330 0.909603 0.546708 0.578389
0.084220 0.774016 0.908499 0.552790 0.577350
0.061983 0.777408 0.905692 0.567410 0.575408
0.060835 0.787239 0.901725 0.567819 0.570138
0.074465 0.774710 0.907564 0.559237 0.576943
0.040763 0.787319 0.900279 0.581109 0.570044
0.051286 0.793545 0.898432 0.573884 0.566812
0.038114 0.794008 0.897455 0.582609 0.566446
0.046513 0.779996 0.903590 0.577549 0.573966
0.657174 0.762159 0.943950 0.173087 0.584062
0.647944 0.762538 0.943663 0.179254 0.583563
0.649021 0.754511 0.946858 0.178814 0.587940
0.639514 0.761583 0.943570 0.184937 0.584009
0.637678 0.751774 0.947188 0.186535 0.589388
0.612468 0.758817 0.942200 0.203138 0.585657
0.625572 0.755873 0.944453 0.194458 0.587271
0.600041 0.757108 0.941341 0.211466 0.586870
0.584751 0.766685 0.936423 0.221362 0.581604
0.587887 0.758156 0.939637 0.219535 0.586487
0.575500 0.767857 0.934871 0.227465 0.581225
0.576435 0.757958 0.938409 0.227159 0.586866
0.564826 0.768719 0.933202 0.234517 0.581118
0.567624 0.760279 0.936532 0.232934 0.585827
0.545627 0.760647 0.934092 0.247566 0.586161
0.556980 0.760142 0.935362 0.240004 0.586225
0.533917 0.766669 0.931046 0.255244 0.582856
0.531917 0.774887 0.927783 0.256318 0.578352
0.525540 0.774124 0.927821 0.260659 0.578685
0.520874 0.766832 0.930387 0.264053 0.582653
0.509904 0.764115 0.931209 0.271601 0.583877
0.496067 0.763377 0.931379 0.281051 0.583889
0.481716 0.761120 0.932146 0.290880 0.584821
0.465870 0.758382 0.932923 0.301687 0.586053
0.450121 0.758455 0.932184 0.312256 0.586012
0.458108 0.768703 0.928482 0.306572 0.580512
0.442363 0.767074 0.927963 0.317117 0.581688
0.427987 0.767630 0.926129 0.326604 0.581933
0.416966 0.767200 0.924937 0.333929 0.582651
0.395404 0.765631 0.923302 0.348433 0.584131
0.383829 0.764972 0.922734 0.356283 0.584646
0.374791 0.758520 0.924126 0.362562 0.588564
0.359615 0.760744 0.923233 0.372655 0.587109
0.344157 0.767553 0.922185 0.382588 0.582126
0.330121 0.763362 0.923573 0.391906 0.584114
0.317200 0.761192 0.924514 0.400474 0.584745
0.308734 0.757953 0.925752 0.406168 0.586219
0.289567 0.760022 0.925591 0.418797 0.584051
0.277757 0.760946 0.925045 0.426605 0.583331
0.267904 0.761968 0.924195 0.433019 0.582892
0.246489 0.767698 0.920254 0.446715 0.580521
0.241512 0.758715 0.924212 0.450175 0.585082
0.235433 0.768335 0.919287 0.453815 0.580405
0.228522 0.758855 0.923305 0.458482 0.585263
0.222248 0.767956 0.918711 0.462266 0.580728
0.433433 0.111900 0.907768 0.327265 0.976322
0.446242 0.112282 0.908875 0.318694 0.976606
0.420419 0.111874 0.906992 0.336041 0.976071
0.409170 0.110535 0.905853 0.343665 0.976635
0.403948 0.100978 0.900866 0.346970 0.980881
0.396117 0.112882 0.906747 0.352606 0.975831
0.388285 0.103236 0.901723 0.357670 0.980220
0.379017 0.114214 0.907041 0.364251 0.975498
0.378685 0.103865 0.901876 0.364185 0.980170
0.363512 0.114307 0.906270 0.374712 0.975294
0.369822 0.103788 0.901417 0.370173 0.980146
0.356635 0.103140 0.900181 0.379004 0.980084
0.346461 0.106973 0.901175 0.385893 0.977867
0.348719 0.099500 0.897682 0.384194 0.981368
0.353266 0.113641 0.905114 0.381544 0.975207
0.334096 0.109473 0.901313 0.394200 0.976132
0.340431 0.098363 0.896385 0.389690 0.981486
0.321818 0.109204 0.900357 0.402408 0.975844
0.325105 0.099211 0.895667 0.399979 0.980556
0.313593 0.105964 0.898391 0.407846 0.977215
0.309859 0.097918 0.894333 0.410186 0.980943
0.301169 0.106644 0.898489 0.416182 0.976980
0.294450 0.096645 0.893476 0.420508 0.981662
0.284609 0.106006 0.898234 0.427231 0.977604
0.281710 0.096869 0.893628 0.429037 0.981781
0.268598 0.108834 0.900010 0.437889 0.976704
0.271103 0.097878 0.894297 0.436106 0.981541
0.254221 0.111827 0.901812 0.447416 0.975609
0.256160 0.100267 0.895734 0.446024 0.980658
0.240384 0.106889 0.899183 0.456487 0.977722
0.244028 0.096981 0.894004 0.453985 0.982086
0.223880 0.107472 0.899240 0.467352 0.977254
0.231503 0.098036 0.894430 0.462235 0.981496
0.073182 0.101533 0.888181 0.566329 0.975687
0.061032 0.101453 0.889348 0.574275 0.977327
0.086899 0.095937 0.884686 0.556992 0.976942
0.174364 0.017839 0.860162 0.499291 1.022910
0.181108 0.023418 0.861429 0.494758 1.019460
0.170734 0.022826 0.860722 0.501678 1.019420
0.144422 0.019640 0.859802 0.519440 1.020440
0.158742 0.025354 0.860817 0.509716 1.017230
0.143942 0.026243 0.860408 0.519560 1.015900
0.115524 0.018193 0.860782 0.538202 1.020490
0.128125 0.025173 0.860235 0.529831 1.016020
0.112814 0.023732 0.860724 0.539664 1.016760
0.087681 0.019058 0.863950 0.554262 1.021420
0.089109 0.022849 0.863633 0.553622 1.018830
0.100268 0.022315 0.862003 0.547090 1.018480
0.052229 0.904923 0.852469 0.569103 0.508291
0.037484 0.905503 0.852916 0.578785 0.506707
0.083160 0.898872 0.855276 0.549068 0.512858
0.071476 0.897111 0.855594 0.556778 0.513544
0.060522 0.895486 0.856243 0.564008 0.513836
0.042336 0.893477 0.857387 0.575994 0.513686
0.590207 0.714706 0.953112 0.219230 0.612439
0.601132 0.714148 0.953945 0.211919 0.612846
0.580675 0.716330 0.952235 0.225580 0.611295
0.567561 0.715924 0.951819 0.234387 0.611316
0.553574 0.715412 0.951385 0.243797 0.611404
0.537407 0.715938 0.950366 0.254642 0.610924
0.521137 0.712415 0.950502 0.265700 0.612892
0.506445 0.709428 0.950270 0.275646 0.614726
0.494080 0.712069 0.948974 0.283882 0.613046
0.486433 0.708493 0.949398 0.289108 0.615272
0.473109 0.710854 0.948531 0.298021 0.613628
0.458391 0.708646 0.948770 0.308019 0.614765
0.443422 0.706233 0.949014 0.318210 0.616027
0.089477 0.719990 0.928707 0.550992 0.607286
0.080882 0.721901 0.927565 0.556662 0.606141
0.069590 0.719438 0.928039 0.564265 0.607237
0.841871 0.596640 0.997495 0.053806 0.686191
0.827647 0.597309 0.996763 0.063240 0.685687
0.816188 0.589880 0.996679 0.070938 0.690684
0.802163 0.594493 0.994703 0.080091 0.687680
0.786581 0.597651 0.992521 0.090303 0.685704
0.776084 0.601789 0.990742 0.097165 0.683060
0.776393 0.594556 0.991765 0.097077 0.687835
0.758384 0.595847 0.990249 0.109057 0.686959
0.768474 0.595283 0.990971 0.102330 0.687369
0.746306 0.600005 0.989186 0.117074 0.684123
0.733884 0.599121 0.989010 0.125415 0.684559
0.721548 0.599889 0.988838 0.133666 0.683866
0.706345 0.597023 0.989346 0.143921 0.685453
0.694920 0.594988 0.989750 0.151627 0.686547
0.681493 0.595267 0.989605 0.160641 0.686129
0.666533 0.597184 0.988992 0.170675 0.684638
0.653226 0.597266 0.988603 0.179653 0.684371
0.639771 0.596310 0.988406 0.188768 0.684729
0.626377 0.595464 0.988224 0.197851 0.684986
0.615175 0.596451 0.987638 0.205435 0.684146
0.600461 0.592206 0.987748 0.215500 0.686654
0.584090 0.586021 0.988179 0.226757 0.690400
0.570150 0.589034 0.986934 0.236177 0.688330
0.024339 0.612002 0.958540 0.597501 0.668926
0.023055 0.591964 0.963520 0.599029 0.680999
0.830475 0.583624 0.998573 0.061602 0.694838
0.815237 0.576801 0.998145 0.071816 0.699427
0.803519 0.580904 0.996470 0.079421 0.696748
0.790025 0.582848 0.994852 0.088299 0.695501
0.773364 0.584073 0.993134 0.099294 0.694716
0.761914 0.588671 0.991543 0.106823 0.691681
0.757051 0.579258 0.992816 0.110254 0.697800
0.750636 0.588649 0.991052 0.114369 0.691599
0.744517 0.579944 0.992243 0.118622 0.697213
0.733546 0.588204 0.990773 0.125838 0.691663
0.733784 0.574563 0.992873 0.125908 0.700568
0.715222 0.587775 0.990797 0.138134 0.691631
0.721126 0.577253 0.992391 0.134354 0.698605
0.700930 0.587464 0.990944 0.147725 0.691549
0.706788 0.577323 0.992425 0.143977 0.698277
0.689637 0.588354 0.990861 0.155298 0.690744
0.691155 0.577951 0.992408 0.154454 0.697562
0.678871 0.583846 0.991521 0.162609 0.693475
0.678278 0.574366 0.992917 0.163165 0.699648
0.666798 0.587077 0.990879 0.170681 0.691140
0.666986 0.576572 0.992495 0.170742 0.697982
0.656276 0.589169 0.990339 0.177755 0.689573
0.654401 0.580224 0.991769 0.179187 0.695336
0.644991 0.586809 0.990478 0.185431 0.690876
0.641114 0.575891 0.992125 0.188243 0.697890
0.631461 0.585139 0.990411 0.194619 0.691680
0.626527 0.573401 0.992032 0.198162 0.699218
0.615717 0.584347 0.989971 0.205308 0.691906
0.612299 0.570091 0.991888 0.207877 0.701152
0.591557 0.579341 0.989716 0.221806 0.694789
0.601904 0.577063 0.990502 0.214817 0.696433
0.583725 0.577757 0.989612 0.227154 0.695719
0.573089 0.573908 0.989545 0.234422 0.698149
0.557490 0.576787 0.988543 0.244966 0.696118
0.543270 0.576775 0.988067 0.254605 0.696002
0.520608 0.566482 0.988666 0.270118 0.702588
0.531857 0.564963 0.989318 0.262530 0.703653
0.506870 0.562601 0.988665 0.279472 0.705082
0.491632 0.562886 0.987836 0.289664 0.704843
0.475338 0.561474 0.987012 0.300502 0.705889
0.449396 0.571823 0.982466 0.317208 0.699831
0.461036 0.567599 0.984286 0.309695 0.702317
0.447144 0.562109 0.984653 0.318918 0.706060
0.434921 0.572160 0.981863 0.326689 0.699654
0.418697 0.568478 0.982344 0.337357 0.702005
0.432480 0.559546 0.984454 0.328515 0.707856
0.419592 0.556179 0.984589 0.336964 0.710107
0.408386 0.570941 0.982023 0.344072 0.700243
0.406259 0.561907 0.983469 0.345586 0.706210
0.390681 0.562115 0.983834 0.355760 0.705742
0.374800 0.564947 0.984385 0.366055 0.703437
0.360779 0.565908 0.985196 0.375141 0.702435
0.349119 0.561606 0.986098 0.382769 0.705107
0.334735 0.558594 0.986917 0.392165 0.706858
0.320944 0.554336 0.987630 0.401233 0.709431
0.307600 0.558359 0.987237 0.410013 0.706449
0.292653 0.559548 0.986580 0.419937 0.705370
0.278223 0.559265 0.985753 0.429573 0.705352
0.249171 0.569625 0.981801 0.448775 0.698385
0.263868 0.561078 0.984373 0.439115 0.704004
0.250221 0.561894 0.983268 0.448260 0.703299
0.240831 0.567002 0.981755 0.454446 0.699924
0.226896 0.564548 0.981215 0.463893 0.701292
0.236694 0.554341 0.983697 0.457554 0.707877
0.226323 0.554842 0.982974 0.464551 0.707397
0.206179 0.556518 0.980973 0.478048 0.706172
0.216173 0.554501 0.982232 0.471397 0.707512
0.197894 0.559561 0.979586 0.483503 0.704227
0.186007 0.559954 0.978445 0.491450 0.703918
0.867718 0.258599 0.982830 0.040391 0.902033
0.862677 0.257165 0.982540 0.043626 0.902986
0.856162 0.245352 0.978518 0.047660 0.909881
0.865906 0.236130 0.974985 0.041125 0.914958
0.871635 0.285868 0.991836 0.038403 0.886091
0.838724 0.250157 0.980561 0.059118 0.907403
0.852603 0.257520 0.982912 0.050148 0.902921
0.839769 0.259712 0.983892 0.058599 0.901856
0.132820 0.217180 0.944032 0.529561 0.920040
0.130264 0.224773 0.947524 0.531409 0.916408
0.146273 0.215853 0.943542 0.520328 0.920430
0.119818 0.218054 0.944400 0.538350 0.919854
0.119958 0.227184 0.948685 0.538390 0.915358
0.107113 0.221104 0.945850 0.546870 0.918480
0.108570 0.209806 0.940471 0.545771 0.923947
0.122798 0.210109 0.940721 0.536188 0.923606
0.091244 0.216825 0.943578 0.557273 0.920528
0.095489 0.206000 0.938543 0.554383 0.925843
0.109503 0.229537 0.949837 0.545349 0.914326
0.096872 0.228206 0.949115 0.553650 0.914956
0.072001 0.218015 0.943491 0.569744 0.919724
0.082219 0.207468 0.938957 0.563092 0.925106
0.056017 0.217104 0.942241 0.580196 0.919993
0.079371 0.229643 0.949150 0.565011 0.913949
0.059162 0.231359 0.948368 0.578160 0.912548
0.817652 0.180964 0.954390 0.072113 0.946358
0.819993 0.172647 0.951081 0.070459 0.950836
0.819501 0.188668 0.957486 0.070948 0.942152
0.810100 0.178264 0.952968 0.077123 0.947717
0.806853 0.170190 0.949458 0.079231 0.951943
0.807570 0.187203 0.956387 0.078862 0.942829
0.791809 0.170989 0.948652 0.089298 0.951038
0.797911 0.181989 0.953612 0.085283 0.945370
0.786694 0.181999 0.952643 0.092796 0.944947
0.775981 0.177460 0.949901 0.099959 0.946957
0.782764 0.166942 0.946247 0.095338 0.952837
0.774624 0.165474 0.944951 0.100798 0.953260
0.764079 0.172862 0.947116 0.107953 0.948952
0.764305 0.161734 0.942716 0.107752 0.954889
0.751883 0.170087 0.945457 0.116238 0.950209
0.751574 0.157853 0.940509 0.116383 0.956634
0.762055 0.181833 0.950665 0.109364 0.944163
0.753551 0.179068 0.949127 0.115134 0.945475
0.738780 0.166300 0.943722 0.125148 0.952187
0.738504 0.156126 0.939486 0.125285 0.957384
0.726568 0.170188 0.945590 0.133496 0.950475
0.516720 0.139316 0.921296 0.272402 0.961995
0.498758 0.139539 0.921537 0.284277 0.962316
0.484164 0.140193 0.922124 0.293955 0.962492
0.475415 0.140460 0.922452 0.299770 0.962708
0.819008 0.160361 0.945900 0.071001 0.957264
0.826303 0.149138 0.941221 0.066003 0.963001
0.801285 0.159037 0.944487 0.082857 0.957688
0.808935 0.147201 0.939758 0.077602 0.963888
0.788103 0.159551 0.943739 0.091695 0.957007
0.792455 0.146896 0.938759 0.088685 0.963741
0.781108 0.161103 0.943778 0.096414 0.955886
0.777696 0.152605 0.940081 0.098663 0.960260
0.764661 0.150986 0.938469 0.107458 0.960615
0.756319 0.145481 0.935684 0.113075 0.963162
0.746421 0.150704 0.937368 0.119844 0.960207
0.747360 0.143740 0.934530 0.119154 0.963795
0.738807 0.147640 0.935952 0.125017 0.961702
0.741763 0.139914 0.932784 0.122937 0.965667
0.518165 0.127406 0.916508 0.271113 0.968447
0.512865 0.118076 0.912881 0.274364 0.973690
0.503685 0.127726 0.916806 0.280702 0.968654
0.499728 0.116053 0.912301 0.283065 0.975161
0.487963 0.130338 0.918075 0.291208 0.967671
0.490884 0.121464 0.914494 0.289082 0.972402
0.475343 0.133549 0.919571 0.299675 0.966359
0.474784 0.119639 0.913636 0.299782 0.973592
0.463514 0.131531 0.918639 0.307549 0.967591
0.458736 0.123876 0.915037 0.310600 0.971383
0.838126 0.131668 0.933236 0.057913 0.971345
0.820399 0.138300 0.936036 0.069801 0.968220
0.821154 0.127617 0.930822 0.069150 0.973119
0.836385 0.142214 0.938183 0.059215 0.966326
0.754369 0.134115 0.930763 0.114287 0.968846
0.739269 0.131912 0.929274 0.124551 0.969589
0.724633 0.131028 0.928854 0.134471 0.969959
0.709997 0.131993 0.929616 0.144330 0.969727
0.705282 0.140621 0.933715 0.147603 0.965768
0.695049 0.141528 0.934627 0.154430 0.965776
0.696436 0.131467 0.929878 0.153340 0.970461
0.685452 0.143429 0.935943 0.160820 0.965339
0.681730 0.133471 0.931359 0.163108 0.970113
0.673475 0.142178 0.935645 0.168747 0.966339
0.665387 0.133299 0.931463 0.173918 0.970733
0.657938 0.143845 0.936243 0.179099 0.965772
0.652998 0.134524 0.931731 0.182160 0.970281
0.642574 0.141935 0.934405 0.189312 0.966441
0.645200 0.131432 0.929836 0.187316 0.971657
0.632808 0.144059 0.934401 0.195904 0.964964
0.634087 0.134284 0.930085 0.194783 0.969795
0.848650 0.888048 0.904614 0.040775 0.515949
0.854900 0.882341 0.907192 0.036721 0.519125
0.180703 0.795786 0.907003 0.488564 0.564465
0.176160 0.805106 0.903347 0.491345 0.559163
0.166962 0.794954 0.906838 0.497563 0.564813
0.161909 0.804742 0.902825 0.500682 0.559378
0.153426 0.793929 0.906558 0.506507 0.565400
0.146683 0.804742 0.901736 0.510658 0.559647
0.131427 0.800280 0.902415 0.520809 0.562288
0.111607 0.801173 0.900344 0.533812 0.562240
0.121406 0.809546 0.897480 0.527077 0.557813
0.109669 0.810274 0.896113 0.534748 0.557739
0.101276 0.800489 0.899655 0.540634 0.562832
0.097767 0.809929 0.895107 0.542573 0.558221
0.088676 0.799821 0.898758 0.548965 0.563421
0.084996 0.809349 0.894208 0.550999 0.558728
0.077919 0.800623 0.897479 0.556019 0.563141
0.066426 0.797405 0.897941 0.563727 0.564833
0.846286 0.660880 0.984768 0.049585 0.644816
0.844806 0.649091 0.987825 0.050893 0.652159
0.834624 0.665265 0.983133 0.057182 0.641908
0.832053 0.651639 0.986728 0.059266 0.650391
0.810926 0.659456 0.982730 0.072983 0.645613
0.821896 0.666080 0.981864 0.065536 0.641441
0.809828 0.667923 0.979934 0.073464 0.640537
0.803185 0.661449 0.981163 0.078027 0.644562
0.798434 0.671860 0.977203 0.080881 0.638476
0.816618 0.650834 0.985870 0.069488 0.650842
0.803666 0.650980 0.984519 0.078023 0.650881
0.793722 0.657390 0.981328 0.084384 0.647172
0.783907 0.662996 0.978385 0.090753 0.644032
0.770731 0.655977 0.979469 0.099719 0.648302
0.774546 0.667057 0.976074 0.096878 0.641821
0.782373 0.649505 0.982472 0.092113 0.652106
0.793444 0.647053 0.984490 0.084883 0.653430
0.760979 0.663856 0.976085 0.106039 0.643776
0.757869 0.652698 0.979583 0.108398 0.650314
0.746738 0.665129 0.974639 0.115532 0.643144
0.746460 0.654221 0.978368 0.115992 0.649447
0.737336 0.667384 0.973155 0.121741 0.641954
0.732681 0.656606 0.976703 0.125129 0.648135
0.717052 0.664303 0.972830 0.135341 0.643899
0.726530 0.667431 0.972302 0.128929 0.642087
0.716214 0.674271 0.968866 0.135577 0.638445
0.717184 0.654430 0.976310 0.135522 0.649570
0.708103 0.662565 0.972711 0.141342 0.645053
0.701270 0.674050 0.967889 0.145544 0.638705
0.701373 0.649071 0.976879 0.146208 0.652921
0.694606 0.660925 0.972200 0.150369 0.646203
0.686701 0.670747 0.968225 0.155368 0.640620
0.687292 0.650469 0.975264 0.155535 0.652317
0.681950 0.659492 0.971745 0.158840 0.647169
0.674117 0.668848 0.968264 0.163849 0.641682
0.678951 0.651642 0.974175 0.161052 0.651763
0.656957 0.658731 0.970591 0.175607 0.647607
0.669323 0.655091 0.972409 0.167395 0.649791
0.662431 0.669478 0.967711 0.171688 0.641153
0.649605 0.672123 0.966591 0.180272 0.639363
0.644094 0.658270 0.970141 0.184303 0.647769
0.635046 0.669954 0.966534 0.190132 0.640565
0.630144 0.656113 0.970013 0.193753 0.649005
0.620985 0.663716 0.967320 0.199735 0.644367
0.618364 0.653544 0.969995 0.201748 0.650540
0.610227 0.669196 0.965200 0.206841 0.640964
0.607344 0.656736 0.968358 0.209097 0.648590
0.577970 0.664393 0.964452 0.228756 0.643820
0.587074 0.669284 0.963861 0.222499 0.640790
0.573510 0.672320 0.962453 0.231551 0.638762
0.567517 0.660761 0.964909 0.235898 0.645934
0.560527 0.671797 0.962014 0.240297 0.638856
0.552603 0.661006 0.964045 0.245887 0.645565
0.547108 0.670391 0.961610 0.249316 0.639551
0.599435 0.664883 0.965607 0.214230 0.643604
0.593682 0.654943 0.968040 0.218375 0.649605
0.580163 0.654260 0.967424 0.227548 0.649978
0.567111 0.648221 0.968413 0.236540 0.653549
0.540467 0.660425 0.963407 0.254007 0.645813
0.536829 0.667510 0.961544 0.256251 0.641300
0.531346 0.660214 0.962817 0.260097 0.645884
0.526650 0.667824 0.960772 0.263045 0.641038
0.814103 0.560908 1.000320 0.072994 0.709966
0.823005 0.568835 1.000020 0.066912 0.704677
0.812558 0.567170 0.999173 0.073814 0.705844
0.805566 0.560215 0.999505 0.078613 0.710473
0.803894 0.569234 0.998005 0.079457 0.704517
0.793429 0.560055 0.998348 0.086611 0.710599
0.793999 0.572011 0.996651 0.085903 0.702691
0.801278 0.552279 1.000390 0.081696 0.715696
0.781784 0.569292 0.995967 0.094035 0.704483
0.778836 0.553587 0.998025 0.096423 0.714857
0.858161 0.566207 1.002450 0.043772 0.706561
0.843480 0.565216 1.002080 0.053513 0.707089
0.849148 0.551294 1.004560 0.050175 0.716299
0.862598 0.552857 1.004610 0.041207 0.715429
0.831121 0.563438 1.001600 0.061735 0.708215
0.833156 0.553393 1.003420 0.060698 0.714812
0.819914 0.555262 1.001940 0.069361 0.713619
0.809447 0.553913 1.001000 0.076277 0.714581
0.764648 0.565246 0.995346 0.105496 0.707075
0.765967 0.550708 0.997415 0.105001 0.716719
0.746027 0.567685 0.994166 0.117850 0.705258
0.751681 0.551566 0.996597 0.114452 0.715985
0.733037 0.564716 0.994323 0.126598 0.707006
0.738031 0.556804 0.995517 0.123432 0.712298
0.724739 0.567983 0.993771 0.132091 0.704730
0.724756 0.556067 0.995476 0.132302 0.712547
0.713676 0.566191 0.994023 0.139537 0.705695
0.709421 0.552373 0.995995 0.142621 0.714676
0.699316 0.565093 0.994224 0.149183 0.706130
0.693285 0.549611 0.996414 0.153457 0.716157
0.684974 0.564825 0.994274 0.158816 0.706023
0.679290 0.554029 0.995749 0.162817 0.712976
0.671568 0.565026 0.994163 0.167850 0.705627
0.667428 0.551965 0.995879 0.170851 0.714092
0.655643 0.566352 0.993734 0.178581 0.704442
0.652468 0.550240 0.995744 0.180999 0.714957
0.638945 0.562598 0.993800 0.189933 0.706574
0.635958 0.546308 0.995626 0.192250 0.717260
0.622567 0.558913 0.993620 0.201094 0.708688
0.622003 0.545588 0.995126 0.201710 0.717483
0.608801 0.558937 0.993014 0.210420 0.708451
0.610850 0.548071 0.994354 0.209217 0.715649
0.598306 0.563727 0.991980 0.217474 0.705139
0.597773 0.549788 0.993541 0.218044 0.714323
0.587854 0.564123 0.991427 0.224549 0.704740
0.584587 0.553081 0.992488 0.226927 0.711987
0.568612 0.556229 0.991381 0.237692 0.709746
0.577242 0.561906 0.991148 0.231770 0.706086
0.567434 0.562568 0.990683 0.238410 0.705544
0.559808 0.555137 0.991199 0.243672 0.710368
0.558504 0.564814 0.990150 0.244441 0.703973
0.548495 0.555502 0.990861 0.251350 0.710021
0.545432 0.565096 0.989726 0.253308 0.703670
0.534412 0.554024 0.990661 0.260946 0.710862
0.518940 0.554466 0.990269 0.271476 0.710441
0.505171 0.550834 0.990610 0.280902 0.712678
0.496207 0.553517 0.989960 0.286874 0.710858
0.497052 0.545166 0.991540 0.286518 0.716236
0.470867 0.548697 0.989989 0.303810 0.713977
0.484576 0.547428 0.990853 0.294807 0.714719
0.458833 0.553056 0.987923 0.311554 0.711494
0.443078 0.550625 0.987312 0.321833 0.713413
0.108032 0.400278 0.987801 0.547062 0.807432
0.092208 0.400444 0.986287 0.557535 0.807205
0.079254 0.399170 0.984808 0.566067 0.807974
0.064717 0.401459 0.983169 0.575609 0.806337
0.055174 0.398844 0.981980 0.581893 0.807995
0.050012 0.405372 0.981626 0.585287 0.803605
0.050541 0.396303 0.981351 0.584946 0.809637
0.039852 0.224930 0.944240 0.590830 0.915627
0.047206 0.250983 0.954285 0.586320 0.901470
0.058096 0.241822 0.952363 0.579051 0.907056
0.028181 0.224090 0.943193 0.598566 0.915954
0.031863 0.241828 0.949752 0.596392 0.906303
0.318917 0.024638 0.865041 0.402935 1.019680
0.311079 0.030357 0.865942 0.408260 1.015930
0.299536 0.030007 0.865261 0.416124 1.015920
0.264110 0.030384 0.863728 0.440002 1.014660
0.253767 0.031569 0.863861 0.446801 1.013800
0.192203 0.034071 0.864796 0.487417 1.013150
0.181967 0.032545 0.863827 0.494197 1.013760
0.169159 0.031007 0.862628 0.502718 1.014130
0.159358 0.033353 0.862552 0.509181 1.012070
0.867790 0.056020 0.902967 0.039367 1.012590
0.863369 0.066336 0.905964 0.041564 1.005950
0.852857 0.048761 0.898200 0.049628 1.014610
0.869761 0.072491 0.909035 0.037028 1.002990
0.839997 0.042550 0.893174 0.057896 1.015490
0.428563 0.021750 0.872928 0.330005 1.024550
0.415035 0.024371 0.871826 0.338725 1.021820
0.413015 0.018054 0.870625 0.340206 1.025880
0.449417 0.028122 0.876344 0.316116 1.022020
0.392187 0.022061 0.869209 0.353663 1.022190
0.361272 0.022883 0.867067 0.374156 1.021190
0.330636 0.019881 0.864679 0.394993 1.022920
0.312216 0.011304 0.862175 0.407374 1.028290
0.307523 0.015137 0.862533 0.410607 1.025650
0.306022 0.023096 0.863873 0.411635 1.020410
0.021343 0.932271 0.845861 0.587801 0.489298
0.005644 0.935555 0.846504 0.597878 0.485399
0.865950 0.540591 1.006440 0.039336 0.723574
0.866538 0.561104 1.003390 0.038361 0.710052
0.031115 0.442422 0.980174 0.597616 0.778757
0.554306 0.352776 0.991774 0.250171 0.842084
0.546452 0.359563 0.991917 0.255441 0.837435
0.545186 0.348951 0.991055 0.256454 0.844426
0.548234 0.367333 0.992775 0.254146 0.832361
0.534573 0.357625 0.991419 0.263612 0.838506
0.534172 0.347210 0.990576 0.264013 0.845365
0.537529 0.368980 0.992663 0.261480 0.831118
0.521955 0.356206 0.991078 0.272285 0.839187
0.522168 0.345908 0.990053 0.272244 0.845949
0.522481 0.366972 0.992190 0.271830 0.832154
0.508700 0.353945 0.990672 0.281394 0.840372
0.512163 0.343519 0.989381 0.279093 0.847239
0.493946 0.356108 0.991049 0.291436 0.838648
0.500580 0.344935 0.989222 0.286970 0.846014
0.479186 0.355813 0.991234 0.301409 0.838500
0.486666 0.344674 0.988912 0.296371 0.845810
0.464389 0.354810 0.991122 0.311236 0.838705
0.471845 0.344336 0.988643 0.306253 0.845589
0.471745 0.363821 0.992964 0.306372 0.833160
0.451667 0.356514 0.991612 0.319563 0.837150
0.454885 0.345374 0.988670 0.317455 0.844302
0.458464 0.365083 0.993534 0.315147 0.831913
0.439500 0.354118 0.990938 0.327437 0.838236
0.437740 0.341895 0.987346 0.328527 0.845797
0.442918 0.366031 0.994154 0.325241 0.830774
0.424280 0.353036 0.990432 0.337117 0.838440
0.420426 0.343089 0.987277 0.339548 0.844519
0.427119 0.363442 0.993593 0.335275 0.831968
0.410371 0.352600 0.989964 0.345882 0.838340
0.406536 0.343278 0.986892 0.348328 0.844040
0.412210 0.362343 0.993140 0.344694 0.832327
0.399645 0.351865 0.989376 0.352595 0.838520
0.393806 0.343695 0.986550 0.356326 0.843445
0.401017 0.359689 0.992001 0.351689 0.833712
0.379878 0.344909 0.986270 0.365026 0.842271
0.387772 0.357879 0.990914 0.359957 0.834504
0.377643 0.354716 0.989269 0.366351 0.836168
0.367392 0.352391 0.988014 0.372830 0.837415
0.368484 0.341832 0.984720 0.372269 0.843933
0.352278 0.354543 0.988000 0.382560 0.836145
0.357357 0.344107 0.985003 0.379343 0.842459
0.337291 0.356226 0.987921 0.392451 0.835371
0.343603 0.345429 0.984989 0.388287 0.841767
0.320508 0.359136 0.988124 0.403748 0.833993
0.327059 0.346429 0.984791 0.399248 0.841414
0.142345 0.335305 0.974201 0.524043 0.848649
0.133142 0.331960 0.973113 0.530154 0.850704
0.124538 0.336655 0.974554 0.535951 0.847865
0.114120 0.334647 0.974172 0.542871 0.849256
0.073700 0.333622 0.975168 0.569595 0.850632
0.064489 0.333290 0.975076 0.575695 0.850921
0.055112 0.333758 0.974755 0.581886 0.850579
0.476789 0.953273 0.859094 0.288738 0.480398
0.419229 0.959064 0.853448 0.326859 0.478256
0.403961 0.955424 0.854714 0.337074 0.479720
0.393524 0.956770 0.854261 0.343920 0.478446
0.315236 0.950711 0.854164 0.395641 0.479980
0.303630 0.951314 0.852218 0.403094 0.480395
0.272151 0.957107 0.845410 0.423199 0.479132
0.264128 0.958602 0.843921 0.428376 0.478572
0.253743 0.955961 0.844092 0.435277 0.480150
0.240629 0.954585 0.843818 0.443965 0.480800
0.227022 0.954310 0.843340 0.453002 0.480653
0.213455 0.953448 0.843126 0.462085 0.480844
0.200877 0.950807 0.843478 0.470619 0.482199
0.149586 0.960668 0.835678 0.504343 0.477830
0.142033 0.958621 0.835590 0.509326 0.479359
0.130144 0.955726 0.835268 0.517066 0.481602
0.843163 0.672872 0.981446 0.051317 0.637264
0.832487 0.673222 0.980791 0.058398 0.636956
0.784325 0.674815 0.974414 0.090163 0.637148
0.771882 0.675840 0.972750 0.098438 0.636822
0.758537 0.675215 0.971800 0.107378 0.637373
0.746310 0.674678 0.970999 0.115532 0.637844
0.736708 0.674905 0.970159 0.121929 0.637850
0.700952 0.682564 0.964666 0.145522 0.633943
0.691545 0.682238 0.964525 0.151841 0.633968
0.678002 0.679820 0.965022 0.160993 0.635167
0.667567 0.678280 0.965302 0.168046 0.635906
0.632844 0.678764 0.964276 0.191423 0.635053
0.623317 0.676096 0.964374 0.197881 0.636681
0.612021 0.679029 0.962972 0.205417 0.634819
0.600698 0.675707 0.963044 0.213120 0.636878
0.536229 0.679169 0.959189 0.256392 0.633807
