ply
format ascii 1.0
comment PCL generated
element vertex 1550
property float x
property float y
property float z
element camera 0
property float view_px
property float view_py
property float view_pz
property float x_axisx
property float x_axisy
property float x_axisz
property float y_axisx
property float y_axisy
property float y_axisz
property float z_axisx
property float z_axisy
property float z_axisz
property float focal
property float scalex
property float scaley
property float centerx
property float centery
property int viewportx
property int viewporty
property float k1
property float k2
end_header
0.999488 0.243561 0.55018598
1.0055701 -0.118569 0.91130197
0.97775501 -0.247922 0.69332302
1.00577 -0.12877899 0.58332199
0.984649 0.14288101 0.62954402
1.00078 0.064225301 0.511603
1.01122 -0.095176697 0.90589499
1.00191 0.25942901 0.89218599
0.98544699 -0.29354 0.86313301
0.99703997 -0.198682 0.986458
1.02123 0.077028103 0.85536402
0.99961001 0.052024201 0.61503798
1.00051 0.20139 1.0423501
1.00318 0.289325 0.68284303
0.99243999 0.26344499 0.53955799
1.00577 -0.042389002 0.86691803
1.0007401 -0.28177401 1.0361201
0.98934501 -0.019792801 0.70789498
0.99296898 0.115168 0.87590402
1.0216399 -0.089038901 0.53355598
1.01442 0.220309 0.54703498
0.99008697 -0.074212201 1.05357
0.996243 -0.183759 0.96404099
1.00604 0.037234001 1.04835
1.0035599 -0.207212 0.73502499
0.98718101 0.180969 0.84303802
1.00414 0.080606602 0.83652902
0.987795 0.22323599 0.86576498
1.00201 0.280572 0.913984
0.986826 -0.169618 0.50493801
1.00307 0.067207903 0.74865198
0.97967303 0.109276 0.84925199
1.0127701 -0.080902196 0.58658898
1.02766 -0.110561 1.05489
0.99764901 -0.167271 1.02466
1.00155 0.28966799 0.97411299
1.0074 -0.27104101 0.85710299
1.00516 0.068425499 0.76314998
1.00836 -0.22443999 0.95680898
1.00024 0.00268705 0.50577998
0.99223799 -0.090329297 0.69508803
0.99439299 -0.031215301 0.86316699
0.99837798 0.20416901 0.80635703
0.97850198 0.091070801 1.04408
0.98942399 -0.158306 0.89474201
0.99013001 -0.022615099 0.96169901
1.005 0.183446 0.88577098
0.98808801 -0.226329 0.51659501
1.01572 -0.12990201 0.59423
0.99721903 0.26421499 0.823192
0.98442203 0.134581 1.09367
0.988482 0.265883 0.58443898
1.01054 0.079504699 0.611628
1.00082 -0.0210099 0.62691802
1.00109 -0.275388 1.04917
1.00674 -0.066004403 0.545403
1.0030299 0.288443 1.10268
1.00755 -0.22423001 0.52657598
1.00094 0.0845263 1.01165
1.00201 0.056074999 1.09383
1.01139 0.12712801 1.03335
0.99851102 -0.069630302 0.84079897
1.0022 0.022314601 0.73344302
0.99653202 -0.129022 0.53189301
1.00668 -0.0055726301 0.64638102
0.99176502 0.12848701 0.53055602
0.97614098 -0.27638 0.93677503
0.998842 0.026138101 0.58124202
1.00192 -0.054197099 0.80145502
0.99075502 -0.248624 0.56373
0.97309798 0.077399701 0.67662299
1.01474 -0.025615601 0.702829
0.98717397 0.106805 0.87349099
0.99998301 0.037605502 1.03406
1.01824 -0.23988999 0.886549
1.01491 0.032988701 0.59887099
0.99005902 -0.133549 0.933002
0.989869 0.20996401 0.65016001
1.00481 0.186315 0.71006
1.01124 -0.28295299 0.864555
1.0082099 0.191541 1.0344599
1.01474 -0.057185002 0.75088698
1.01478 -0.100413 1.0192
1.0036 -0.0710743 0.58108401
1.01535 0.043953799 0.80785203
1.0054899 -0.074399702 1.10035
1.00221 -0.093619198 0.62246799
1.01601 -0.189725 0.581065
0.99294198 -0.179977 0.919119
1.01105 -0.28220201 0.70006698
1.0035599 -0.17337 0.98804897
0.98953998 0.088381499 0.55226302
1.00354 0.0407684 0.73023897
0.99814302 -0.099028699 0.72195101
1.0174201 0.12092 0.51102602
1.00413 0.161448 1.07638
1.00784 -0.27942601 0.73849201
0.97928798 -0.0195204 0.69835699
1.01422 0.15244301 0.75888598
1.01475 -0.0345232 0.612037
0.98604399 0.14147399 1.04768
0.995552 0.112773 0.84374303
1.0116 0.17162199 0.71411002
1.01192 -0.074936599 1.00793
0.98942202 0.254834 0.61258602
0.99676299 0.120929 0.94994903
1.00352 0.189244 1.02112
0.99305201 -0.13718601 1.03253
0.98120099 0.15157799 0.99785602
0.99644703 0.29470801 0.71264201
1.01132 -0.018437801 0.657601
0.99727702 -0.21024799 0.96770102
0.99387997 -0.098558597 1.0811599
0.98719198 -0.160804 0.76678503
1.01948 0.29273999 0.77525699
0.99321401 0.109969 0.70346498
0.98406798 0.252184 0.58058101
1.01881 -0.264707 0.85151303
1.0180399 0.19225299 0.66992301
1.00727 0.0475902 0.80682099
1.02762 0.192417 0.76796597
0.99646598 0.26066399 0.545959
1.01768 -0.156325 0.66937202
0.99760997 0.063816197 0.75453597
1.01653 -0.21598899 0.947465
0.99564099 0.16034 0.52266699
1.00044 -0.26923299 0.58556098
1.01973 0.207462 1.03066
1.0113699 -0.027104 0.54309797
0.998649 0.144234 0.93044901
1.0006599 -0.21538401 0.59499401
1.02855 0.154734 0.53501302
1.0057499 0.28258899 0.91770899
0.988527 -0.26354399 0.59342301
0.99485099 0.197373 0.965626
0.99123597 0.28636 0.95886898
0.98968202 -0.072695799 0.85307699
0.98167402 -0.114563 1.08092
1.00125 -0.087981202 0.74350399
0.992311 0.29794899 0.89610398
1.00738 -0.201427 0.56787097
0.99185002 0.2351 0.53297901
1.01006 -0.28021601 0.901645
1.01273 0.129649 1.0163701
0.98591101 0.210914 0.87302399
0.99411798 0.22397099 1.03063
0.99909002 -0.0316987 1.0779001
0.99462098 0.27867001 0.64589202
1.00655 -0.050443798 0.535824
1.00217 0.0065626102 1.0773
0.98508298 -0.033673398 0.90740103
0.97689998 -0.049602799 0.61867499
1.00626 0.19033501 0.53021401
0.98958403 -0.064686902 0.91374302
0.98367798 -0.19124199 0.93949002
0.99931401 0.279369 0.769925
0.99144399 -0.039285898 0.97981203
1.00598 0.147678 1.01006
0.99617797 -0.205614 0.69980401
0.99556798 -0.095680296 0.71908098
0.98524803 -0.0228667 0.60007602
0.99422902 -0.199716 0.68695402
0.99704301 0.154054 0.66743201
0.99443603 0.094202198 0.88985002
0.99614298 -0.288865 1.08743
1.01159 0.0525642 0.57052702
1.0016201 -0.176245 0.95857501
1.0041 -0.050903302 0.76838398
1.0140899 -0.21939699 0.85217798
0.98619598 -0.29054001 0.57306701
1.01147 -0.19978499 1.09948
0.99381602 0.0182159 0.55286503
1.0024101 -0.0095464597 0.84296697
1.00129 -0.241735 0.83434999
0.989205 -0.30054501 0.52060002
1.001 0.067103401 0.83885902
0.98926997 0.273325 0.712928
0.99212497 0.031747598 0.84830999
0.97227699 0.11674 0.66289002
0.99515402 0.072758898 0.523004
0.996328 0.257689 0.56023997
0.99954897 -0.19212 0.79575801
1.0122 0.087183103 0.96724701
0.99836498 -0.143746 0.53925401
1.00635 -0.117311 0.99194402
1.00775 0.220466 0.954252
0.99999499 0.096264303 0.99036098
0.99484301 -0.084364302 0.72500902
1.00888 0.049580399 0.728742
0.98342502 -0.028631 1.0715899
1.00236 0.114807 0.73945099
1.00349 0.020676799 1.0107501
0.99125701 0.0175933 1.08675
0.98803103 0.0676018 1.1069601
1.00309 0.097707503 1.10545
0.99737698 0.15842199 0.68500799
0.99980098 0.25250199 0.87887198
0.99775898 -0.050469 0.999668
1.00238 0.135031 0.98811001
0.994412 0.26057601 0.78741199
0.985304 -0.039318301 0.826083
1.00652 -0.0022721 0.54077798
0.99068999 -0.27187699 0.940373
0.98746002 -0.151731 0.60924399
1.01859 0.0358954 0.74556798
0.99610698 -0.276674 0.92963201
1.00339 -0.0102618 0.998559
0.99768901 0.225317 0.98393899
1.0125901 -0.092336699 0.69842601
1.00711 -0.310453 0.56987202
0.99539202 0.020803001 0.63280302
0.991651 -0.257882 0.67399198
1.0166399 0.212927 0.83686298
0.99899 0.037275702 0.87819898
1.0122401 -0.085852697 0.75120902
1.0036 0.0599191 1.02159
1.001 -0.223488 0.62368703
0.98591697 -0.26337901 0.56810403
1.00201 -0.106345 1.05624
1.00679 0.029851601 1.10948
1.0107501 0.26163599 0.87338102
1.00572 0.085907303 0.96555901
1.0050499 -0.237718 0.72458702
0.98280603 0.156257 0.773341
0.987638 0.271496 0.87266701
1.01253 0.194186 0.85067898
0.979312 -0.25606799 0.73736
0.99293202 -0.099632204 0.51303703
0.97496802 -0.238823 0.98776197
1.00351 -0.19729801 0.89676797
1.0079499 0.25412199 0.53231901
0.988424 -0.0312181 0.60069102
1.00518 0.28624499 0.88979399
0.99092799 -0.185058 0.57350701
1.0149601 -0.095232002 0.77768803
1.02175 0.073177204 0.54095697
1.00562 -0.097839497 0.97823101
0.99151999 -0.038215801 1.02562
0.98445499 -0.110459 1.04392
1.0149601 -0.271815 1.0949399
0.99019003 -0.26883999 0.99335402
1.01283 -0.099091999 1.06978
1.00107 0.094788097 0.788872
1.01193 -0.302517 0.79853499
1.0046 -0.044980299 0.94543302
1.0024199 -0.149856 0.78549403
0.99745202 0.290521 0.65994602
0.98482102 0.249559 0.58605403
0.98512602 -0.113505 0.78322601
1.01598 0.27232701 0.58532703
0.99579298 0.212274 0.70350897
0.99517 -0.055526402 0.66781402
0.99048299 -0.043196 0.91839403
0.99727398 0.25114 0.678083
0.99202502 -0.178358 0.73228902
0.99710602 0.051765401 0.67763698
0.98890698 -0.25886801 0.94676602
0.98655599 -0.25674 0.60171598
1.00273 0.060080599 1.07933
1.0042 0.0028311899 0.79117101
0.983347 0.0081181303 0.95811999
0.982355 -0.226299 1.08532
1.0080301 -0.225932 0.95419103
0.98223698 0.28432101 0.74254501
1.00248 -0.164222 1.06226
1.0014 0.050348401 0.95977998
1.01393 0.011026 0.96610898
0.986655 0.068630502 0.70656902
0.99916202 -0.19797 0.58531702
1.01914 0.15935899 0.617369
1.00561 -0.13941599 0.71642399
1.01785 0.28773099 0.893291
1.0226901 -0.072162002 0.58529598
0.99497497 -0.11043 1.05381
0.99708903 0.0256221 0.58725101
1.01191 0.091979697 0.73293501
0.988442 0.219814 1.05536
0.998137 0.162521 1.01257
1.00027 0.144079 0.72641701
1.00822 0.146119 0.70197999
1.00159 0.282554 0.80311
0.98708397 0.241392 0.689807
1.01178 -0.044993199 0.989856
1.01731 0.143544 0.69319499
0.99378097 0.27006 0.588884
0.98656899 -0.19683801 0.66155899
1.0042599 0.248584 0.83061898
1.0102201 -0.157745 0.80672801
0.99047601 -0.077560604 0.80232501
1.00326 -0.0077617499 0.91338301
1.00319 -0.195118 0.59891599
1.00193 0.182035 0.89217597
1.00314 0.211293 0.65323699
1.02184 -0.0175239 0.96525902
1 0.041141901 0.57411999
0.98461002 -0.30336601 0.96779001
0.99437499 -0.14322899 0.84770298
0.99300599 0.102161 0.60664898
1.00396 -0.091512598 0.81215298
0.99105901 0.214292 0.98717999
1.01469 -0.098200999 0.86996102
0.986561 -0.23357899 0.57583803
0.99863702 -0.27147299 0.712201
0.99477297 0.218688 0.60146803
1.00678 -0.102723 0.98656797
1.00594 0.191149 0.99616897
1.0093499 -0.18182001 0.99216998
0.99023998 0.28270099 1.01473
0.99837101 -0.299752 0.55713099
0.98896098 -0.106038 0.62804002
1.0078 0.102845 1.04608
0.99161601 -0.087299801 0.74422699
0.99336398 0.25627601 0.79324901
0.99121201 0.0382239 0.83799702
0.99852598 -0.27861401 0.990376
1.0017999 -0.15424401 0.72263998
0.99398798 -0.162576 0.65091199
0.98825002 -0.100316 1.0237401
1.0019799 -0.167256 0.59118497
0.99671298 0.24353801 0.55468899
0.99107999 -0.053757001 0.61984003
0.99449801 0.157691 0.73100901
1.0012701 -0.050132498 0.51386797
1.01292 -0.27716199 0.81641501
0.99193299 0.15331 0.71410602
0.98749501 -0.174178 0.62980402
1.00552 -0.289184 0.782354
1.01941 -0.214849 0.87286103
1.00131 -0.18100999 0.64573002
0.978118 -0.065658502 0.65859199
0.99531603 -0.14343999 1.05757
0.99326402 0.0604202 0.72860003
1.01888 -0.201645 0.79794002
0.98915702 -0.27274901 0.56045598
0.994793 -0.055677399 1.10436
0.98209101 0.038210198 0.541035
0.99478602 -0.28580499 0.56486702
1.0027601 0.135142 1.0216
0.99340498 0.0126384 0.71158803
0.99716997 0.18296701 1.08285
0.98353302 0.19317999 0.60020798
0.99781197 -0.159676 0.70511901
0.980147 0.311351 0.91841298
0.99934298 0.16860101 0.78102601
0.98631603 -0.103572 0.854563
0.99519801 0.29062301 0.91763401
0.99971998 0.065103903 0.90567702
0.99926198 -0.11336 0.83376002
1.02135 0.25601301 0.99330801
1.00061 0.0024852301 0.76343101
1.0003 0.066179901 1.00775
1.0078599 0.087971799 1.00214
0.998079 -0.196841 0.95063102
0.99133402 -0.149288 0.987194
0.98480201 0.075179502 0.81120598
0.99911201 -0.073523298 1.10523
1.0026799 0.20637099 1.04377
0.98938698 0.15127601 1.05243
1.00116 -0.291361 0.64669698
1.00881 -0.22506 0.550228
0.99985999 -0.056933101 0.73132098
0.99399197 -0.278409 0.71748799
1.00482 0.206452 0.69929498
0.99620998 -0.172572 0.91803098
1.0015 -0.148816 0.646227
0.98558801 0.230441 0.87760401
1.00702 0.10888 0.62918597
0.99403298 0.28964901 1.0720201
0.994111 -0.0828816 0.75286198
1.01122 -0.087651096 0.76162499
0.99873197 -0.086523697 0.881832
1.0074 0.23417 0.654136
0.999897 -0.140521 0.64015198
0.98395997 0.25327599 0.82213497
1.00613 -0.0251435 1.07304
1.00261 -0.019585701 0.69270003
0.99265498 -0.231103 0.566118
0.986494 0.182933 1.0707
1.00936 0.044537399 0.76691699
0.99638599 -0.221324 1.00966
1.00647 -0.151526 1.06844
0.99475002 0.25522101 0.65324497
1.00807 0.057761699 0.55955303
0.993752 -0.25966099 0.89265698
1.02317 0.275592 0.94581199
0.99177903 -0.25250101 0.893516
0.99756598 -0.15064301 0.70323497
0.99685597 -0.243277 1.00191
1.0085 0.047830898 0.90953797
0.990812 -0.060302202 0.87553799
1.0068099 -0.173058 1.00464
1.01186 -0.252565 1.00415
1.00568 0.27640501 0.94502699
1.00024 0.059895199 0.59516001
1.01196 -0.25360799 0.696419
0.99614 0.138605 1.0756
0.99649799 -0.072341703 0.89645499
1.0079499 0.055234101 0.86747998
0.984101 -0.089220501 0.734963
1.0015399 -0.103837 1.02819
1.01539 -0.163027 0.66930002
0.99341899 -0.218035 0.87831903
1.01047 -0.237206 0.94840997
1.00055 -0.074449196 0.89545202
1.00095 -0.25509101 0.79557699
0.99974298 -0.0255946 0.76000899
1.0213 -0.17881399 0.96938801
0.99671602 0.24283101 0.94512898
0.98564202 -0.26133701 0.72893
1.00683 0.0656932 0.97570503
0.98375201 -0.286809 1.0563999
0.99825799 0.16103999 1.01548
0.98092097 -0.28250799 0.77958298
1.00247 -0.164371 0.90994501
0.99757701 -0.25846401 0.85006201
0.99347901 0.210328 0.99420202
1.00064 0.074058503 0.73744398
1.01353 -0.188168 0.67150497
0.99571502 -0.17383599 1.03255
0.97890198 -0.28578299 0.548271
1.01144 0.242063 1.08349
1.005 -0.028448001 0.67960298
0.99770302 -0.15843 0.77340299
1.0019701 0.10343 1.06925
0.99231303 -0.037606999 0.98560399
0.99667799 0.094810203 0.92621499
0.99627697 -0.30326399 0.67329699
1.00045 -0.12489 0.52809203
0.99177802 -0.15831301 0.721439
1.01226 0.057894301 0.53549099
1.00392 -0.228276 0.66709101
0.993738 -0.233226 0.57852501
0.989474 0.26543501 1.10127
0.98493201 0.16338199 0.520751
1.00063 -0.141637 0.90991098
0.99112803 0.069375403 1.0310301
0.99470401 0.12520801 0.94120002
0.99116498 -0.162845 1.06701
1.00199 0.018033201 0.75304103
1.00886 -0.048236299 0.60447901
0.99274898 -0.105677 0.527619
1.02191 -0.091020003 1.01468
1.00415 0.290151 0.984173
1.00583 -0.171499 0.783494
0.99909598 -0.0561914 0.57680899
0.99883002 0.23367 0.72569901
1.00273 -0.044917699 0.82635403
0.992571 -0.034944601 0.90652299
1.00945 -0.109608 0.81486303
1.01673 0.166914 0.87452102
0.99431503 0.072388202 0.84617001
1.0025001 -0.290829 1.0855
1.00255 -0.30652401 0.84256601
1.00001 -0.15785401 0.72899801
0.97945303 -0.13781101 0.573834
0.985677 0.24514399 0.86678702
0.99152797 -0.0426673 1.1050299
0.98773599 0.28567401 0.880795
0.98982197 0.0662857 0.95989799
0.997841 -0.20462701 0.53116697
0.98978603 0.15877099 0.951222
0.99814397 -0.073964 0.80992001
0.98130298 -0.187105 0.61458099
1.02042 -0.25671801 0.97306699
1.00264 -0.16492 0.676377
1.01068 0.052062299 1.09084
1.01156 0.049522199 0.70409101
0.998555 0.0196815 0.75606102
1.0055 0.057989001 0.83302498
1.00113 0.267432 0.94672501
1.0158499 -0.060728699 0.789083
1.00983 -0.166223 0.87518001
0.99266303 0.0450604 0.50969899
0.99927098 0.27241701 1.05603
1.00568 -0.048479099 0.54170001
0.97993499 0.11372 0.70803797
0.98356098 -0.215334 1.01888
0.99987501 0.123339 1.0316499
1.00439 -0.119475 1.09666
1.0098701 0.27913401 0.73149002
1.00603 -0.188116 0.50155598
0.996324 0.28553101 1.0837899
0.99785298 -0.16122501 0.52708399
1.0045201 0.113513 0.566383
1.0110101 0.25200799 0.53322399
0.99915397 0.118347 0.98336202
0.99402601 -0.245083 0.61614001
1.00617 0.019489501 0.70630199
0.99343801 0.186905 0.55071402
0.98925 -0.24432001 0.59729302
1.00047 0.28782901 0.509552
0.99381101 -0.072064102 0.99649799
1.00296 0.096227601 0.83180499
1.01667 -0.12849 0.51239401
1.01003 -0.25919801 0.53403199
0.999919 -0.0145559 0.79090101
1.0023299 -0.0822125 1.0237
1.0096 0.170219 1.07447
1.01056 -0.116825 0.72583598
0.99080098 -0.041459501 0.52771902
1.02168 -0.128213 0.98864198
1.0112799 0.022587201 0.50956702
1.00615 -0.25249401 1.09208
1.0116 0.097186401 1.07239
0.99900299 0.118599 1.07477
0.97967899 0.18785299 0.80131
0.99601901 -0.027643399 0.91504598
0.99765998 -0.23444401 0.91606599
1.00515 0.064396501 0.99636298
1.01088 0.244721 0.62159401
1.00508 0.22390001 0.991992
1.01086 0.267162 0.99174398
0.99460697 -0.26544401 0.56756198
1.01352 -0.0352236 0.53535903
0.99842101 0.173605 0.61754203
0.99290001 -0.103158 1.08275
1.00035 0.095479302 0.53871202
1.00906 0.187553 0.98113501
0.97988498 -0.270477 0.87484401
0.996077 0.181061 0.68066102
1.02319 -0.104601 0.70492101
1.0098799 0.055478401 0.61385697
0.99548399 -0.044014599 1.00649
1.00195 -0.29820201 0.94830298
1.0046999 -0.131469 0.57411098
1.0020601 0.273931 0.83210498
1.00735 0.094478004 0.63846803
1.00388 -0.24322399 0.72508502
1.00775 -0.094066396 1.00538
1.005 -0.229848 1.01543
1.0039901 0.139062 0.87249202
0.99630803 0.26796901 1.04547
1.00032 0.24863499 0.74860799
1.0268199 0.25443801 0.90543097
0.99994999 0.070801198 0.60932702
0.97896099 0.143442 0.82563901
0.99791098 0.19611 0.91676998
1.0142 -0.00643093 1.03751
1.00422 -0.057369102 0.75285602
1.01562 0.16875701 0.88236803
0.99962199 0.029694701 0.723158
1.00445 -0.098564498 0.78461802
1.00438 0.117958 1.06911
0.99899697 -0.044481099 0.80786401
0.99225402 0.282455 0.69745499
0.99051398 0.104595 0.84951699
1.01278 0.13505401 0.94751298
0.99112099 -0.071176998 0.67616498
1.01415 0.229625 0.77581698
1.00954 0.257534 1.07242
1.0099699 0.24802899 0.756203
0.99313802 -0.081550799 0.7105
1.00883 0.026763201 0.544716
0.98511398 0.072755702 0.861314
1.0001301 0.16907001 0.60309398
1.00457 0.1886 0.77464998
1.0061899 0.040107898 0.70707297
0.98272902 -0.26769301 1.06865
0.98817998 -0.032606799 0.57031602
0.994506 0.0155759 1.00103
1.01393 -0.077396698 1.0399801
1.00936 0.0023198801 1.09979
1.0071599 0.22573701 0.75269502
1.00528 0.12890901 0.93968499
0.98706901 -0.148928 0.81817698
1.0003099 -0.22842699 0.61865699
0.99894601 -0.176836 0.53324997
1.0010999 0.130099 0.837264
0.998887 -0.12923799 0.72596699
1.02808 0.10587 0.84890699
1.01262 -0.075039402 0.67819101
0.99645197 0.090956397 0.66424203
1.00056 -0.094547503 0.54735702
0.98616302 -0.042888898 0.84812999
1.00796 -0.00775551 0.53659397
0.99054497 -0.16280299 1.01577
0.99687999 -0.28332201 0.79054898
1.0057499 -0.21729299 1.05343
0.99419999 -0.0052837399 0.92258501
1.0016 -0.186626 0.78245401
0.98308301 0.191259 0.85659999
1.01082 0.28867799 0.78791302
1.01598 0.081018597 0.61752301
0.98293602 -0.0093916599 0.82957298
0.99815899 0.025424 0.78169203
1.0050499 -0.073393904 0.62539297
0.99147302 -0.018065199 1.08951
1.003 -0.0095770601 0.75303501
1.01327 0.312195 0.50849599
1.0213 -0.078570202 1.02946
1.01037 0.27343801 0.819965
1.00897 -0.0623812 0.89365602
1.0039999 0.048596598 0.78650802
0.995157 -0.217875 0.56014299
0.992432 -0.0227136 0.77630901
0.992764 0.26524201 0.51566303
1.01753 0.066640697 0.76275301
1.01166 -0.175543 0.59187001
1.00235 0.25556001 0.795237
1.00377 -0.29541999 0.92840499
0.991804 0.0085271699 0.91079998
0.99815601 -0.28222001 0.54421198
0.99833 -0.0178032 0.566809
0.99417198 -0.0131803 0.642968
0.99884701 0.0643842 0.925111
0.99950898 0.018531101 0.91120797
0.99062997 0.0447946 0.60926503
1.003 -0.11434 0.65788901
0.998546 0.184342 0.96899599
1.0033799 -0.193441 0.87301898
0.998716 0.155338 0.655711
1.0134701 0.104824 0.88515002
1.0087399 -0.108642 0.71576703
0.99681699 -0.19380599 0.58763802
1.0164599 0.080414601 1.05707
1.00719 0.227833 1.05854
1.00358 -0.23675001 0.67554402
1.0094 -0.18742301 0.83427
1.00337 -0.089742199 0.567635
0.98840499 -0.239712 0.71102899
0.995538 0.049120098 0.97512901
0.99641103 0.25995401 1.03567
0.99435699 -0.164858 0.62148702
1.0118901 0.0156474 0.71619898
0.98537099 0.178285 0.493855
1.0071 0.00291696 0.96151102
1.00617 -0.181364 0.668446
1.0025899 0.064963698 0.94068098
0.98484099 -0.030293399 0.58886099
0.992962 0.097230501 0.93247497
1.01123 0.282583 0.71820098
1.00539 0.269586 0.51988798
0.98588598 0.0081785005 1.04597
0.99835801 0.230085 0.721843
0.99348599 -0.29692101 1.00617
0.99513203 0.249648 0.64626098
0.98545003 -0.19130901 0.487151
0.995188 -0.130272 0.65893197
0.99352098 0.227285 0.61317003
1.01176 0.067033403 0.82259798
0.98670799 -0.026586501 0.68557
1.0054801 -0.19124199 0.915205
0.99015802 -0.102872 0.85709
1.00024 0.210013 0.89983201
0.99347401 -0.038425501 0.58125699
1.00529 0.20759401 0.74505299
0.98545802 -0.267905 0.80466902
0.98703003 -0.234274 0.88843602
1.0043401 0.25167301 0.58421397
0.99343503 -0.27483201 0.65843701
1.0052 0.157609 0.78401601
1.02191 0.27725101 0.53178
0.99550802 0.149985 0.85089099
0.99278897 0.097078398 0.571329
0.99511802 -0.129127 0.83137703
1.002 0.105932 0.73614103
0.98144299 -0.0186691 0.91606301
1.00284 -0.044993699 1.0329601
0.99157703 -0.16746999 0.497596
0.99805802 0.074763604 1.03088
1.00085 -0.162534 0.92170602
0.99117899 -0.121863 0.75107098
0.99295002 -0.053782299 0.87136799
0.98971498 -0.071961902 1.03187
1.00442 -0.24514 0.588072
1.0007 0.133681 0.89853603
1.0158401 0.25593901 0.89332801
1.00754 -0.19635101 0.62840199
1.0044301 -0.162927 0.79391801
0.99789703 0.192297 0.90163702
0.99758399 -0.215183 0.97827297
0.99785602 0.29596299 0.53679401
1.00297 -0.17251401 0.96178299
1.0141 -0.269972 0.504659
1.0008 -0.175309 1.08255
1.00958 0.212109 1.0664901
0.98796701 0.139083 0.92536402
0.99428999 0.219944 0.87247002
1.01034 0.27427199 0.69725102
0.99646401 0.0031842899 0.812401
0.99486703 -0.23221999 0.80887699
1.01344 -0.26719701 0.52104199
0.98280799 0.168429 0.64495099
0.98465103 -0.017254099 0.72922599
1.00177 0.053946301 0.49402499
0.987993 -0.0088403001 0.84830397
0.99224901 -0.091729797 0.73516899
1.0048701 -0.277628 0.84658402
0.99062198 0.253703 0.64959002
1.0201401 0.21376 0.68136603
1.0006 -0.067881897 0.92558998
0.99784303 0.0046449699 0.92404401
0.99033499 -0.204441 1.07394
0.993083 0.17775699 0.95045298
0.99857801 -0.078146502 1.0229
1.01164 -0.0042777299 0.884197
0.99031901 -0.144136 0.70286202
1.00555 0.16368 0.54963398
1.00377 -0.102018 0.52724302
0.99250102 -0.22104 1.05914
1.00508 -0.25641301 0.771209
0.99239397 -0.046433698 0.79312199
0.98403901 0.192764 0.69521201
0.99648499 -0.101463 0.57975101
1.01754 0.14380001 0.59143299
0.99381697 0.115031 0.64615899
1.0115 0.166687 0.84432
0.99489802 -0.089523397 0.72498101
1.00511 0.043655101 0.636226
1.00114 -0.00066665898 0.85137898
0.99236202 0.0248168 0.654948
1.0110199 0.064326301 0.71258402
0.99776399 0.083014198 0.53740001
0.97563499 -0.207196 0.54204899
0.99624598 0.098128997 0.70905399
0.994569 0.111354 0.98985201
1.00217 -0.091896802 1.06976
1.00471 -0.20859 0.55553299
0.99391103 0.043095902 0.84389597
0.99216902 -0.25259 0.555794
0.99741799 -0.118404 0.82980198
1.00599 0.246979 0.764193
1.00365 0.222855 0.88843501
1.00147 0.103809 0.78676403
0.99658501 0.105116 1.07736
1.0031 -0.054071002 1.00473
1.00462 0.102205 0.602781
0.99186802 -0.023008199 0.65165198
0.98988199 0.19908699 0.659477
0.98291898 0.152677 0.63647002
0.99086899 0.0691282 0.825306
1.00598 -0.28920901 0.89309198
0.99597001 -0.205266 0.61820102
0.98121899 0.133506 0.60509801
0.97859299 -0.0062477002 0.92604899
1.00025 -0.0561511 0.63176101
0.98638099 -0.14211699 0.63624901
1.00152 -0.167988 0.92729598
1.01199 0.26936001 0.766675
1.02145 -0.0249852 0.97013098
1.0048 0.21988 0.893731
1.01929 -0.18220299 0.60460699
1.0027699 -0.237151 0.96612197
0.98679399 -0.27943099 0.815615
0.987589 -0.183318 0.88470203
0.97867399 0.0432625 0.92125899
0.99706399 -0.105436 0.79397398
0.99335903 -0.071793698 0.49823999
0.99247402 0.112049 0.841389
1.01176 -0.29548299 0.77080399
1.00367 0.045661502 0.78007299
1.0115 -0.18216699 0.53046298
1.0185601 -0.072898701 1.0065399
0.98244202 0.044917502 0.68436098
0.99883902 -0.0096567301 0.93190002
0.99816799 -0.27927601 0.63006699
0.98421198 -0.112835 0.753887
0.99881798 -0.15082601 0.59894902
1.01384 0.0221569 1.03552
0.99958497 0.043824598 0.91643298
1.00982 -0.17856 1.03855
0.997087 0.033913098 1.0283
1.00374 -0.0042528198 0.582003
0.99121898 -0.073565401 1.0391001
1.01168 -0.054543201 1.00667
1.0105 0.20455401 0.98445898
1.01586 -0.0398295 0.627702
1.0106699 -0.070857801 0.68018401
0.98754299 0.0961679 0.93018299
0.99580997 0.248156 0.51374102
0.98683798 -0.26504901 0.83310801
0.98201698 -0.067869604 0.533252
1.01039 -0.216205 0.605905
0.98833001 0.140038 0.82241899
1.01177 0.136685 0.66061002
1.0075999 -0.116686 0.54373902
0.99664003 -0.109983 1.02259
1.00043 -0.231016 0.65647602
0.993563 -0.069004998 0.64461201
1.00388 0.033983301 0.78473002
1.00946 -0.30173099 1.07962
1.00053 -0.114067 0.92641503
0.98860103 -0.21244 0.79496503
0.99655098 -0.16926201 0.97676098
0.995947 -0.028704099 0.55991101
1.00648 -0.18835901 0.69112903
0.99627101 -0.17198101 0.610259
0.99739403 -0.240162 0.961577
0.99491 -0.14006799 0.51664197
1.01592 0.26398301 0.942545
1.00544 0.19847 0.56604803
1.01309 0.012626 0.53018302
0.99716902 0.129647 0.75252098
0.98548597 -0.203472 0.82377702
0.99291098 -0.107222 0.66961402
0.99036902 0.20194 0.563164
0.997684 -0.198652 0.84568399
1.00809 -0.089178197 0.81750202
1.00862 -0.296408 0.57199401
0.97662401 -0.0227964 0.531856
1.01254 0.0140386 1.0215501
0.99410599 -0.122789 0.76226997
1.00204 -0.28549799 0.55652499
0.995399 0.061476599 1.02416
0.99070698 -0.092589803 0.76407403
0.99614203 0.00038422301 0.53521502
0.98164803 -0.060846001 1.03309
0.99074697 -0.285871 0.55417299
0.998941 0.29347199 0.850474
1.00809 0.112811 0.971654
0.98706198 0.0161513 0.56108099
1.00207 0.316407 0.77600902
1.00293 -0.272791 1.02658
1.00827 0.27079001 0.63013899
0.99715799 -0.28996301 0.91651303
0.99852198 -0.0132124 0.72664499
0.99881601 0.204256 0.541035
1.0023201 0.102482 0.993164
0.99430197 -0.26699501 0.98015398
1.0032901 0.303693 0.69377798
1.00196 0.084818199 0.758986
0.99208099 -0.125434 0.87558198
0.99599701 -0.189798 0.62676197
0.99242401 0.224098 0.63553703
0.99975598 0.112715 0.98533601
0.99204302 0.17595901 0.780056
1.0006599 0.095557198 1.0815099
0.99712503 0.26104599 0.875741
0.99945402 0.100614 0.50702298
0.99129498 0.192901 0.52753198
1.0122499 -0.020400399 0.606691
1.0041 -0.074405298 0.91665697
1.0017 -0.25249901 0.73187602
0.99484998 0.096622303 0.73569798
1.0103101 -0.130187 0.79437101
0.97356999 0.227612 0.73058802
0.97941202 -0.0507503 0.65071601
1.02753 -0.0576047 0.57506698
1.01816 0.037826002 0.79332799
0.99894398 -0.271552 1.07797
0.95929497 -0.054209799 0.65053201
0.99998897 -0.229441 1.0748301
1.0071501 0.071001403 0.98817098
0.99196899 -0.16997901 0.82813001
0.98000002 -0.19315 0.59787601
0.99277598 0.25438601 0.84563798
1.00187 0.25460699 0.68598199
1.01034 0.161374 0.76960599
1.00467 0.126779 0.78372198
1.00904 0.10769 1.0775
0.995722 -0.075699598 0.896716
1.0096101 -0.0629417 0.86186802
1.00403 -0.0122669 0.51871401
1.0059201 0.186096 0.636397
0.99466699 0.280303 0.51485598
0.98904598 -0.00651694 0.80153799
0.99875897 0.040736102 0.79110003
0.99296802 0.225492 1.02702
1.0051301 -0.220791 0.98087901
1.00483 0.0129341 0.94805998
0.99992502 -0.187068 0.78745699
1.0089099 -0.21349999 0.68932402
0.99884701 -0.21794499 0.82499802
0.98802799 0.099785097 1.0921
0.999942 -0.164084 1.01683
0.99627101 0.074519902 0.71329403
1.00872 -0.13646001 0.964481
0.997536 0.28950101 0.77828997
0.99971199 -0.27318299 0.74909401
1.00743 0.089897603 0.75399297
0.99306703 0.30667499 0.50878102
1.01559 0.15515301 0.508102
0.99410099 0.25019199 0.58156902
0.992383 0.039320402 0.59451097
0.98787701 -0.29348999 0.654935
1.00516 -0.256749 0.67512
0.98279297 -0.071692303 0.77373099
0.99185002 -0.020909199 0.90969199
0.99727499 0.21690901 0.97412598
1.01396 0.15144201 0.505
0.98028898 -0.183265 0.65864998
1.0038199 0.113018 0.89616901
0.99593401 -0.189775 0.84784502
0.99421799 -0.106477 0.75768203
1.00582 -0.0072943899 1.0073299
0.99581498 0.089095697 0.97754502
1.00175 0.0184997 0.86000299
0.99621099 -0.073022597 0.56558001
0.99524301 -0.15673199 0.92508602
1.01002 -0.30643201 0.94254702
0.995134 -0.15656701 1.0526299
0.991817 0.244525 0.85560602
0.98979801 0.162618 0.58652598
1.0068001 0.041028898 1.01187
1.0229 -0.20984 0.93881601
1.02387 -0.13222501 0.85296202
1.00292 0.24352901 0.52850002
1.01094 -0.155277 0.85741901
0.98492301 -0.22076499 0.71676803
1.01527 0.12847701 0.70470399
0.991337 -0.139937 0.99310303
1.00746 -0.217963 0.74889499
1.00691 0.187438 0.86860698
1.0113699 -0.17439801 0.63300502
1.00065 -0.0151064 1.08182
1.003 0.285101 0.80180103
0.98518002 -0.223526 0.67164999
1.00448 0.0128828 0.96616501
1.00691 0.0338673 0.82382601
1.0000499 -0.279015 1.08026
1.00106 0.0283112 0.91816801
0.99084401 -0.31138101 0.948452
0.98818302 0.28393501 1.04995
1.00175 0.124136 0.58534402
1.00169 0.0618321 0.78083402
1.01025 -0.183487 0.835208
1.01395 0.074990503 0.81555098
0.99045098 -0.0811553 0.50386
0.99655199 -0.26454601 0.90678698
0.99606699 0.093714297 0.593521
0.98924899 -0.000395262 0.79202402
0.99581701 -0.27261201 0.90804797
0.99156898 0.297407 0.95367497
1.00002 0.067764297 1.01799
1.01247 -0.094718903 0.94258702
1.00414 0.253382 0.829458
1.00396 -0.051589601 0.91666502
0.98598403 0.081539601 0.91116202
1.0180399 -0.193067 0.73051602
0.99377602 -0.28239399 0.74964797
1.0107 -0.194508 0.960549
1.0029401 -0.039915599 0.892304
1.0002199 0.13174 1.0647
1.0186 0.159023 0.95361
1.00219 0.19100501 1.0815001
0.98419303 0.183033 0.927953
1.00372 -0.278442 0.49274299
0.99149001 -0.279488 1.00363
1.01131 0.26879501 0.709979
1.00489 0.210337 0.53348398
0.98619503 0.105843 0.86911601
1.00184 -0.24969999 0.85939699
0.98021001 0.17316 0.83032101
0.99025202 0.098191299 1.0304101
1.00814 0.160372 1.0181
0.99538499 -0.111521 0.53489703
1.00949 -0.258012 0.71031398
0.98591 0.18351901 0.53231502
0.99834698 -0.24132501 0.73976701
0.99418598 0.0052872798 0.68563998
1.00155 0.073365398 0.56171602
0.98630202 -0.22544099 1.082
0.98394299 -0.0451006 0.525859
0.99559098 -0.045671601 0.94857901
1.00357 -0.12958001 0.58864802
0.99947202 0.096326999 1.1024899
0.98256803 -0.291444 1.0858001
1.0096 -0.18456601 1.01992
0.99817598 -0.0106644 0.90078902
0.99506098 -0.19858301 0.941746
1.00727 -0.125697 0.57331401
0.99365598 0.059977598 0.958188
1.0099699 0.126403 0.99488801
1.00245 0.045065802 0.62147099
0.99848598 -0.190708 0.93898702
1.00466 -0.041598201 0.92216301
0.99845397 -0.158912 0.55139899
1.00037 0.021908401 0.674918
0.99725401 -0.14026999 1.08148
0.99074602 0.24678899 0.92316097
0.99074203 -0.263468 0.617805
1.0041699 0.0264885 0.67038
0.99997997 0.070808798 0.57340598
0.98790801 -0.221634 0.55484599
0.98596901 -0.162994 0.75845402
0.99651003 -0.14569899 0.73485702
1.00467 0.27165601 0.87758601
0.99396998 -0.27033201 0.647695
0.99785399 0.068010896 0.69266897
0.97435498 -0.194295 1.0807199
0.99528199 -0.157287 1.02864
1.00121 -0.13287599 0.81533998
0.99694902 0.092400096 0.97066897
0.99837297 -0.29215899 0.68989098
1.00542 -0.237747 0.70741802
1.01147 0.089350298 0.766689
1.01074 0.079465903 0.67789698
0.98636001 0.050122399 0.95433301
1.00244 -0.212914 0.75639403
1.00258 -0.036376201 0.78928602
0.99152303 -0.10602 0.58350599
0.99149603 0.29501501 1.0807
1.01458 0.215435 0.65390301
1.01577 0.30532801 0.959777
0.99715501 -0.118441 0.75867099
1.01739 -0.20632499 0.726686
1.00863 0.103332 0.75208002
1.0077 -0.163715 1.03888
1.00902 -0.059252001 1.0051
1.0018899 -0.16088501 0.52753901
1.0010099 -0.25962701 0.67404801
1.00169 0.14196999 0.77397197
0.99973798 -0.221063 1.10623
1.00682 -0.0790843 0.98459399
0.99964398 -0.020346001 1.00823
0.99866301 0.198266 0.89164501
1.00095 -0.14222901 0.51973802
1.00429 0.060516398 0.763152
0.99029499 -0.25096899 0.66835397
0.99088597 -0.0271862 0.87404299
1.01736 0.191779 0.523332
0.99198401 -0.033994399 0.496472
1.00248 0.28105101 0.76750201
0.99410403 -0.048114099 0.807742
1.0046099 0.18241701 0.74256998
0.99427998 0.235466 0.52729303
0.979321 -0.29068801 0.56169999
1.01719 0.072362699 0.59859997
1.00018 0.17352401 1.04119
0.99866402 -0.177233 0.95421398
0.990008 -0.120357 0.84830302
1.0139101 -0.25956401 0.79428798
1.00491 0.034010202 0.98573703
0.993595 -0.056082498 0.88766003
0.99588299 -0.19632 0.96976399
0.99681503 0.091187298 0.78476298
1.0010099 -0.049357299 0.790667
1.00783 -0.21713901 0.52332902
0.98605901 0.079007097 0.92110902
1.00064 -0.130536 0.56543303
1.01569 -0.23605099 0.59174699
0.99191099 0.18277501 0.79395598
1.00354 -0.207807 0.89107102
1.0051399 0.192782 0.70799702
1.00823 0.208799 1.01544
0.98316401 -0.025494101 1.02633
1.00292 0.20503201 0.79678297
0.99484003 -0.17258 0.53609198
1.01475 0.113442 0.76611203
0.97838497 -0.112262 1.04786
0.98960501 0.221964 0.48457301
0.98919898 0.179886 0.60239398
0.98876399 0.0223397 0.79468101
0.99881101 0.048109598 0.77485001
1.00104 0.079699397 0.53703302
0.98252702 -0.273581 0.59286898
1.00222 0.226338 0.55514997
0.98365098 -0.196767 0.70808297
0.97876102 0.154442 1.04993
0.98998499 0.055058099 0.66043699
1.0161901 0.105033 1.06815
1.01266 0.18582401 0.80369502
1.00249 0.22717001 0.90055501
1.01416 0.067732699 0.76848799
0.99975199 0.130687 0.50626898
0.98950303 0.26910999 1.09112
0.99786001 0.0115529 1.06287
0.98628002 -0.145753 0.60486501
1.00385 -0.198339 0.70753199
1.0065399 -0.185616 0.86917502
0.994892 0.113687 0.94310498
1.01634 0.144021 1.03545
0.99428803 -0.209052 0.639112
0.99485201 -0.25201601 0.66200799
0.99908698 0.029074199 0.73047101
0.99577099 -0.276777 0.81582999
1.01934 -0.26234201 1.08507
0.994497 0.243828 1.01166
0.98595399 0.023866 0.65708703
1.01109 -0.117416 0.50695801
0.976978 -0.241145 1.08963
1.00644 0.099575996 0.845029
0.98614299 0.103418 0.77372003
0.99047703 -0.125479 0.75406599
1.0017101 0.0230834 1.0972
0.99799901 0.30127999 0.73189998
1.01476 0.197218 0.81850499
1.00419 -0.099004798 0.79917997
0.98826301 0.23281799 0.52898502
0.99761301 0.117495 0.885342
0.98931301 0.0109343 0.83657098
0.991328 0.27472201 0.57492399
0.99979901 0.271725 0.79174602
1.00413 -0.049191099 0.68978697
1.00354 -0.219962 0.581613
1.00791 0.0025243999 0.81571299
1.00471 0.0029289599 0.93567002
0.98787397 -0.26966599 0.805776
1.0080301 0.023030801 0.516379
0.993177 -0.289776 0.67738599
0.98572397 0.188355 0.76777899
0.99538398 -0.037557598 0.965491
1.00064 0.0095659001 0.70576799
1.01121 -0.100644 0.547571
1.00801 0.084232502 0.67033303
1.0190901 0.106261 0.60147202
1.00651 0.079975799 0.54337102
1.02342 0.073456399 0.94898099
1.00063 -0.118357 0.824305
0.985093 0.18963499 0.98871702
1.0035599 0.053732801 0.684569
1.00026 -0.122519 1.11025
0.99588603 0.202355 0.72966498
1.00132 -0.30146599 0.96333897
1.01657 -0.037316699 0.88437402
0.99763799 -0.062294301 0.83063698
1.0148799 -0.0293971 0.69859701
0.99303502 -0.039035901 1.07279
1.00167 0.295268 0.65093398
1.00773 0.26091999 0.98927301
0.99396402 0.232978 0.91811299
1.01134 0.21619201 1.02119
0.994192 -0.081730597 0.87612402
0.99049801 -0.15745901 0.62945199
0.994102 -0.27282199 1.09128
0.99952602 0.148982 0.74471903
0.98286998 0.0063427398 0.96107101
1.00265 0.050469 0.62189001
0.99262398 -0.260189 0.66776103
0.98937601 -0.214573 0.59525597
1.01247 0.0311039 0.59309101
1.0121 0.119182 0.89402199
0.99388897 0.285272 0.542669
1.00783 0.078542203 0.76554501
0.99130398 -0.0320701 0.78758198
0.97937101 0.126424 0.55896401
1.01034 -0.16180301 0.725115
1.00497 -0.224151 0.67969602
0.99267602 0.00746975 0.49704599
0.98894602 -0.240095 0.86027598
1.00386 0.089988999 0.58999902
0.988828 0.30311501 0.97426498
1.00129 0.065419301 0.57380903
0.99033099 0.204937 0.566154
0.97900403 -0.244561 0.95608503
0.99613303 -0.17625 0.71921903
1.00798 -0.24793001 0.92862701
1.00621 0.018314499 0.68098903
0.98800498 0.17490301 0.525325
0.98966002 0.0200087 0.59826303
1.0027699 -0.13141499 1.0124201
1.01115 -0.12915801 0.92743897
0.98942602 -0.17447101 0.89647299
1.00188 0.13372301 0.71514601
1.00166 -0.18709899 1.1071
1.0170701 0.208465 0.84774202
1.0016299 0.183622 0.95431298
1.00541 0.251867 0.87901402
0.99976701 0.073360197 0.55334699
1.00152 0.0159072 0.536057
0.99324602 -0.0042717699 0.813366
0.98622 -0.0455277 0.94780499
1.00783 -0.117523 1.0695699
0.99211198 0.114754 0.85413301
1.01368 -0.062881902 0.60576999
1.0025899 0.281519 0.823084
0.99147701 0.140487 0.98930502
0.99992901 -0.260079 0.841281
0.99418998 -0.073390096 0.96576899
1.01241 0.071718 0.64575702
0.994802 0.032252301 0.654764
1.00323 -0.015716201 0.89293897
1.00214 -0.228686 0.56361097
1.01199 0.039994799 0.89232898
1.01083 0.25782901 0.57604998
0.99135703 0.29144299 0.91383702
1.0166 -0.300881 0.78720498
1.0101 0.17654499 0.60930699
1.01586 -0.17146 0.80598801
1.00133 0.00047957301 0.62493199
1.0041 0.26228401 0.95648801
0.98979598 -0.12026 0.84284198
1.00439 0.099225499 0.89162302
0.99517101 -0.071569599 0.89382702
0.99456197 -0.13868 0.60483903
0.98264903 0.22271401 0.65729702
0.99940902 -0.174438 1.0032001
0.99790102 0.0056455201 0.630831
0.99846298 -0.19152901 0.96256799
1.00056 0.187814 0.93377101
0.99455798 -0.129181 0.899885
0.994582 0.213168 0.85398197
1.0096101 0.105826 0.510059
0.99036098 0.0335324 0.674959
1.01887 0.0611559 1.0508699
0.98098201 -0.032785799 0.906528
1.00712 0.25015801 0.80308801
1.00021 0.0124172 0.64555901
0.99204302 -0.094300799 0.95771903
1.0104899 -0.25569999 0.81506598
1.00305 0.031815901 0.62808597
1.01902 -0.0982171 0.72092599
0.99497098 0.119041 0.90930498
0.99641401 0.278328 0.63044298
0.98993099 -0.177265 0.67772901
1.01159 0.23099799 0.56482899
1.00492 -0.308191 0.56976998
0.99773902 0.0373362 1.03389
0.99480999 0.115215 1.10109
0.99008602 0.081223398 0.72510898
1.0045 -0.259323 0.93695301
1.01302 -0.0495921 0.55965698
1.00525 0.21815801 0.722498
0.98834503 0.213195 0.73235297
1.01001 0.28133899 0.78632897
0.99697697 -0.25950301 0.74927598
1.00728 0.0047637401 0.67524397
1.00187 0.226014 0.89697099
1.00361 0.080537997 1.00761
0.99670202 -0.0701074 0.60879898
1.0079 -0.244313 0.50371403
1.00791 0.162045 0.80548698
1.0071501 -0.136465 0.97869301
0.98008198 -0.025065901 0.85175002
1.01099 0.241208 0.796489
1.00201 0.196734 0.61762899
0.98782498 -0.240073 0.67150003
1.01177 0.167528 0.62962103
0.99450099 -0.30410001 0.69035101
1.00299 0.20602401 1.03441
0.98763502 0.27240601 1.08111
1.00647 -0.11613 0.50847501
0.99114799 -0.088649899 1.05154
1.00705 -0.196991 0.85291499
1.02903 0.168258 0.88967001
0.98763198 -0.0148976 0.88872403
0.99083698 0.15288401 1.00281
0.99779302 0.182395 0.777771
1.00559 0.061935298 0.72570503
0.99805802 0.233023 0.5747
0.99388099 -0.094814003 0.570943
1.00923 -0.23584101 0.65740502
1.00414 -0.227754 0.75760102
0.99010199 -0.118194 0.761783
0.998806 0.0092304004 1.0786
0.98403603 0.17929301 1.01608
0.98979402 -0.082832403 0.68010598
1.00175 -0.0212174 0.58978999
0.99976897 -0.17780501 1.04899
0.99552703 0.27271801 0.85619903
0.99456298 0.27253601 1.0557899
0.98850203 -0.25102299 0.74214202
0.986341 0.27228799 0.78821599
1.01394 -0.035448 0.56572199
1.0130399 -0.0158551 0.803891
1.00564 0.186248 0.77777201
1.02236 -0.168423 0.65525401
1.02211 0.082324699 0.53158599
1.01818 0.023422601 0.87852001
1.00359 -0.24536499 1.08217
0.99407703 -0.17845801 0.74779499
1.00359 0.178709 1.05819
1.01165 0.23037501 1.0473599
0.99939001 0.209161 0.95219201
1.00229 -0.0128044 0.90964103
0.992432 0.219366 0.92114002
0.99443001 0.0494042 0.81316298
0.99415898 -0.0145002 1.06141
0.987661 0.15023901 0.87745899
0.97854602 0.272533 0.90731901
0.981933 -0.0597202 0.72089797
0.98982799 0.23300201 0.54330897
0.99493802 -0.23177999 0.85482299
1.01448 0.110463 0.54604101
0.99621999 0.148086 0.931786
0.99059898 -0.17002399 1.06118
0.99737298 -0.150778 0.99265999
1.01688 0.29208699 0.59558302
0.98014802 0.151705 0.59374899
1.00678 0.14606901 0.98509902
1.00378 0.265861 0.784998
0.99370003 -0.092654102 1.09378
1.01231 0.27804601 0.780002
1.01985 0.25502601 0.89643103
1.0168 0.0157784 0.71381098
0.99605 -0.077886797 0.95941299
0.99859399 -0.194039 0.86818802
0.99607903 0.026485501 0.52567899
1.00747 -0.25366399 0.754511
0.98513299 0.133183 0.65938598
1.0046099 0.00102235 1.00639
1.0129 0.116289 0.80896503
0.99217701 0.154578 0.75353098
1.00244 0.106382 0.50048399
0.99226803 0.100184 0.52320099
1.00247 0.27909201 0.837556
0.98581898 -0.158125 0.84968799
1.0065399 -0.24886701 0.828987
0.98839003 0.181426 1.03947
1.00846 0.132208 0.82401103
1.00695 0.21661501 0.98481101
1.01414 0.233183 1.0103199
0.981664 -0.068837501 0.82221901
0.98637998 0.20791499 1.0359401
0.99702901 -0.270991 0.55829698
1.0214 0.097732797 0.549604
0.98557901 -0.138431 0.49223101
1.0036401 0.29762501 0.76582599
0.99826097 0.136107 1.01639
0.99622202 0.231979 1.0742199
1.00489 0.193074 0.73954803
0.98144501 0.22492599 0.88479298
1.00553 0.243633 0.591461
0.99271101 -0.136343 0.99695098
1.0217 0.132094 0.88203597
1.0007499 -0.201115 0.51697397
0.98216099 0.0286112 1.00852
0.98190099 -0.079343997 0.53032899
1.01087 0.16948999 1.10534
0.99155802 -0.082572803 0.925372
1.0014499 0.27861601 0.65773499
1.00178 0.211758 0.606251
1.0056601 -0.152803 0.68610698
1.01104 0.0014958 0.86050302
1.0013601 -0.170077 0.99721497
1.00615 -0.26474899 0.71282798
0.984909 -0.035027299 0.52968299
1.0083801 -0.052064698 1.08646
0.99741697 -0.142014 0.787036
1.00648 -0.015413 0.59475797
1.0042599 -0.034063801 0.99609601
0.998465 0.0093084797 1.05178
1.0209399 0.30159801 1.02267
0.99198401 -0.19097599 0.59449899
0.99905002 -0.241814 0.528943
1.00281 -0.126545 0.89894098
0.98616302 -0.063348301 0.824444
1.0003999 0.15974 0.95368201
1.00776 -0.21251699 1.0216
1.00962 0.0304089 0.82756799
1.00159 -0.13519099 0.69030702
1.00954 0.0066267299 1.07655
0.99867898 0.271878 1.06829
1.0181201 0.166003 0.91514701
1.02046 0.174132 0.72267598
0.98619199 0.200884 1.06235
0.99304301 0.14947701 0.64447701
0.98795098 -0.15919299 0.91796601
0.99547899 0.21021 0.76757097
0.99504 -0.26076099 1.0538
1.00411 -0.0995268 0.62076002
0.98302001 -0.211991 0.57911003
1.0023201 -0.107498 1.07112
0.97987098 0.29161 0.86581701
1.00076 -0.204817 0.96093202
0.97964102 -0.147709 0.83179098
0.99047703 0.076593101 0.84687102
0.996728 0.023177801 1.00047
1.00827 0.109054 0.98689598
0.99289399 -0.25493801 0.80496502
1.00756 -0.0064383401 0.54352301
1.00094 -0.039806701 1.07059
1.0058399 0.048328601 0.53616297
0.98568797 0.00362866 0.66089398
0.99463499 -0.0192325 0.63342398
1.00641 0.17352 0.7421
1.00254 0.26949301 0.67163497
1.00011 -0.124512 0.94969898
0.989025 0.103657 0.81535399
0.99730903 0.058729801 0.74448597
1.01095 -0.108295 0.92465597
0.98694801 0.25125301 0.50531799
0.99313003 -0.209777 0.56611103
0.99070799 0.030545199 0.96305197
1.00693 -0.30067301 1.06499
1.00509 0.20115399 0.82586801
1.00064 0.244077 0.53158498
0.988765 -0.085583404 1.01731
0.99113899 0.00149362 0.742248
1.00032 -0.175051 0.88885301
1.0027 -0.0223171 0.49362001
0.99044102 0.140083 0.99752301
0.993532 -0.1205 0.90348202
1.00705 -0.0047786101 0.72317898
0.99068397 0.28310999 0.59537399
1.01064 -0.250833 0.82917702
0.99378002 -0.0243604 1.0211
1.0018899 0.207836 0.94360203
0.998294 -0.179473 0.94507301
0.99118501 0.27390301 0.80149299
1.00086 0.227805 0.74260902
1.0092601 0.118466 0.95763701
1.00668 -0.25125101 0.496739
1.02035 0.094199501 1.01285
1.0177 0.089507297 0.92462403
0.99386299 -0.0132176 1.01736
1.0073299 -0.197643 0.98078901
0.99779701 -0.132948 1.05794
0.99608397 0.28262001 0.99470598
0.99641699 0.25564101 0.88723201
1.00747 -0.062430002 0.63809001
0.99215502 0.0501533 0.53779602
1.02332 0.28470501 1.04442
1.00736 0.087335497 0.53697503
1.0247 -0.070135698 0.93214202
1.00014 0.058492102 0.88002902
0.98415798 -0.067483701 0.91828901
1.00955 0.12676001 0.90327901
0.99547303 -0.29347399 1.07912
1.00431 0.28735301 0.58393598
1.00741 0.166849 1.08735
1.00018 0.0620341 0.95039397
0.99112999 -0.162384 1.09815
0.99879199 -0.309145 0.92886502
1.00205 -0.30101299 0.62058598
1.00491 -0.216813 0.74131697
1.0042599 0.0063789198 1.09789
0.99206001 -0.19 0.76610202
0.99056202 0.21156199 0.67337602
0.98028302 -0.091692202 0.691149
1.00248 -0.16186699 0.65639198
0.99257702 0.131908 0.77625501
0.99534899 -0.0502741 0.65645599
0.99446398 -0.167602 0.53622597
1.00203 -0.29388201 1.04528
1.00977 0.0138178 0.85531199
0.99006498 0.0118066 0.57514
0.987441 -0.115372 0.70184797
1.00333 -0.22283199 0.89677203
1.00509 -0.066801101 0.66286999
0.98961002 0.23209 0.89327401
1.00279 -0.111886 0.89277798
0.99900597 -0.16360401 0.95533299
1.0206 0.0111658 1.03188
1.00029 0.201389 0.79021502
1.0219001 -0.176689 0.61138201
0.99251002 0.0232847 0.59520698
0.98897499 -0.0156703 0.59104198
1.00352 -0.265935 0.74841702
1.01947 -0.245233 0.71385098
0.998887 -0.121692 0.54013199
0.99405301 -0.13812099 0.51133102
0.97421598 0.29603899 0.90817702
1.00946 0.13253599 0.83068597
1.01706 0.14323799 0.63644499
0.99575102 0.062169801 0.59557301
1.00883 -0.28369999 0.70383298
1.00841 0.227146 0.77772802
0.986251 0.238778 0.98306298
0.99400699 0.150359 0.52673298
0.995906 -0.26183799 0.70809197
0.99970698 0.165167 0.79576498
1.01746 -0.245105 0.97955
1.00463 0.16958199 0.50643802
0.98505998 -0.0254719 0.979725
0.989079 -0.021427801 0.80935597
1.01255 -0.041490201 1.10457
1.00763 0.25347599 1.01209
1.00535 -0.029234201 0.55851799
1.0085 -0.101749 0.81656897
1.01097 0.29815799 0.52246797
1.00291 -0.079917297 0.52077103
0.99562502 -0.21626601 0.85582101
1.00314 0.269622 0.90678501
0.99282497 0.26370201 0.69814903
0.99552798 0.22540499 0.68693
0.99833602 0.25304601 1.0163
0.99944901 -0.297308 0.59729999
1.01489 0.281434 0.55795598
1.00275 -0.230233 0.622684
0.99106503 0.030505801 0.71135902
0.99868 -0.061030202 0.51353401
1.0051301 -0.125576 0.51284403
1.0102299 -0.117608 0.82423002
1.01803 -0.24312 0.99504399
1.01713 0.103775 0.64175999
0.97093397 0.175157 0.59551698
0.997096 -0.092171602 0.61319202
0.989483 0.158363 0.55205399
1.00675 -0.22525699 1.02678
1.00319 -0.148046 0.926341
0.99651003 0.061443999 0.66345602
0.99895602 -0.219943 0.75037903
0.99865502 0.0108366 0.81483603
0.99875599 -0.19223 0.73803502
1.00458 -0.177209 0.94676203
0.98768902 0.15317801 0.75855702
0.98980898 -0.29598999 0.55308998
1.00209 0.19685601 0.92558903
0.99487901 -0.170432 0.99879402
0.99182701 0.116409 0.90069997
0.99740702 0.19296999 0.95339698
0.993406 0.114045 1.04847
1.007 -0.0112045 1.07616
1.01053 0.207321 0.92864501
1.00499 -0.25215301 0.82703501
1.00499 -0.0261309 0.71171898
0.99948198 0.074252002 0.67018199
1.00425 0.193031 0.850595
1.00966 -0.24607299 0.62291598
1.0046999 -0.223859 1.01015
1.00738 -0.091061696 0.51814902
1.0142 0.14883099 0.56665301
1.00559 0.116651 0.86570501
0.99167001 -0.140965 0.98477501
1.00331 0.317783 0.99653202
1.00387 0.244304 1.00362
0.99530202 -0.283667 0.72785401
1.01095 -0.071412697 0.59792799
1.0083899 -0.27984801 0.91969401
0.98965597 0.231194 1.0386699
1.00576 0.25119701 0.56986398
1.00218 0.064073399 0.59002602
1.00983 -0.13829701 0.938146
0.98986298 0.190275 0.88831002
0.99573398 -0.028732199 0.78920197
0.98508799 -0.065115102 0.60343599
1.0112799 -0.145294 0.91069102
0.99152601 -0.199296 0.69459498
1.00699 0.038734 0.57159501
1.011 -0.149703 0.780752
1.00251 0.026287301 0.89588898
0.99611598 0.27214399 0.588597
1.00594 0.216157 0.59848499
1.01766 -0.142125 0.59708297
0.99839598 -0.017438 0.929398
1.01415 -0.195948 0.98266798
0.99722898 -0.146483 0.89058501
1.00915 -0.067319497 1.0834399
1.00978 -0.24347 0.95703602
0.99812502 0.0037748399 0.53303999
1.0036401 0.2326 0.55813497
0.97974497 -0.14314499 0.934228
0.99358797 -0.0397177 0.533656
1.0149699 0.247501 0.94972098
1.01208 -0.27182701 0.83527499
1.0068099 0.14111 0.80217898
0.998146 0.070136197 0.81352502
1.0103101 -0.070830002 0.73139101
1.0044301 0.25130501 1.07926
1.00379 -0.11369 0.507833
1.00158 0.0730699 0.49812201
0.99315399 -0.107574 0.52534997
1.02212 0.28122601 0.56870502
1.00188 0.18441699 0.61315399
0.99099898 0.21307699 0.49948901
0.98578602 0.244179 0.87197202
1.01744 0.24560399 0.58018398
0.99728298 0.24302299 0.52652103
0.98302901 -0.176781 0.57676399
1.0018899 0.26391 0.69920701
1.0065 -0.203996 0.69077098
0.99898601 -0.023906101 0.68775398
0.989003 0.00042487899 0.62805498
0.98965901 0.25961399 1.0981899
0.99782598 -0.103948 0.780164
1.00236 -0.31483001 1.04081
1.0041699 0.265187 0.92260897
1.00816 -0.14615101 0.77723801
1.00589 -0.058306001 0.96640301
