ply
format ascii 1.0
element vertex 803
property float x
property float y
property float z
end_header
0.018938245251774788 -0.27460458874702454 1.349349856376648
0.02131262794137001 -0.27469614148139954 1.3497998714447021
0.023680703714489937 -0.27469614148139954 1.3497998714447021
0.02606324478983879 -0.2748487591743469 1.3505499362945557
0.028437893837690353 -0.2748996317386627 1.3507999181747437
0.03080429695546627 -0.2748691141605377 1.3506498336791992
0.03318368270993233 -0.2749505639076233 1.3510500192642212
0.03556973487138748 -0.2750726342201233 1.3516499996185303
0.03793684393167496 -0.2750421166419983 1.3514997959136963
0.040321316570043564 -0.2751336693763733 1.3519498109817505
0.04267578944563866 -0.2750217914581299 1.3513997793197632
0.045056670904159546 -0.2750828266143799 1.3516998291015625
0.04744385927915573 -0.27517440915107727 1.3521498441696167
0.04981605336070061 -0.27517440915107727 1.3521498441696167
0.05223648622632027 -0.27542877197265625 1.3533999919891357
0.05462297797203064 -0.27548983693122864 1.353699803352356
0.0569915771484375 -0.27545928955078125 1.353549838066101
0.05941885709762573 -0.2757035195827484 1.3547500371932983
0.06180930137634277 -0.2757645547389984 1.355049967765808
0.06419368088245392 -0.2757950723171234 1.3552000522613525
0.06660562008619308 -0.275937557220459 1.3559000492095947
0.06898438930511475 -0.275937557220459 1.3559000492095947
0.07138421386480331 -0.27601897716522217 1.3563001155853271
0.07382895052433014 -0.27626317739486694 1.3575000762939453
0.07620210200548172 -0.27623265981674194 1.3573499917984009
0.07863552123308182 -0.27641579508781433 1.3582500219345093
0.08103631436824799 -0.27647683024406433 1.358549952507019
0.08341973274946213 -0.27647683024406433 1.358549952507019
0.0858568400144577 -0.2766498625278473 1.3593999147415161
0.08823201060295105 -0.2766193449497223 1.3592499494552612
0.09062667191028595 -0.2766498029232025 1.3593999147415161
0.09306289255619049 -0.2768024802207947 1.3601499795913696
0.09543860703706741 -0.2767719328403473 1.3599998950958252
0.09786771982908249 -0.2768940329551697 1.3605999946594238
0.10034684836864471 -0.27714842557907104 1.3618500232696533
0.10273605585098267 -0.27714842557907104 1.3618500232696533
0.1051715761423111 -0.2772705554962158 1.3624500036239624
0.10764869302511215 -0.2774944007396698 1.3635499477386475
0.11004086583852768 -0.2774944007396698 1.3635499477386475
0.11250726878643036 -0.2776775360107422 1.3644500970840454
0.11490104347467422 -0.2776775360107422 1.3644500970840454
0.11744096130132675 -0.27802351117134094 1.366150140762329
0.11990790069103241 -0.27818629145622253 1.3669501543045044
0.12228818237781525 -0.27814561128616333 1.3667501211166382
0.12474527209997177 -0.2782779037952423 1.3674001693725586
0.12727439403533936 -0.2785627841949463 1.368800163269043
0.12966157495975494 -0.2785322368144989 1.368650197982788
0.13213026523590088 -0.2786747217178345 1.3693501949310303
0.13456209003925323 -0.2787357568740845 1.3696502447128296
0.13699498772621155 -0.2787967920303345 1.3699501752853394
0.1395663172006607 -0.2791326344013214 1.3716000318527222
-0.37396422028541565 -0.26546841859817505 1.3157999515533447
-0.37141576409339905 -0.2652968764305115 1.3149501085281372
-0.36860352754592896 -0.2649337649345398 1.31315016746521
-0.36629971861839294 -0.2649337649345398 1.31315016746521
-0.363829642534256 -0.26481276750564575 1.3125501871109009
-0.3615681827068329 -0.2648429870605469 1.3127000331878662
-0.3590463399887085 -0.2646815776824951 1.3119001388549805
-0.35658159852027893 -0.2645605206489563 1.3113000392913818
-0.3542810380458832 -0.2645605206489563 1.3113000392913818
-0.35171210765838623 -0.2643587589263916 1.3103001117706299
-0.34934669733047485 -0.26430830359458923 1.310050129890442
-0.3470483124256134 -0.26430830359458923 1.310050129890442
-0.34456580877304077 -0.2641671299934387 1.3093501329421997
-0.3422033488750458 -0.26411667466163635 1.3091000318527222
-0.33994561433792114 -0.2641468942165375 1.3092501163482666
-0.3376099765300751 -0.26411667466163635 1.3091000318527222
-0.33535176515579224 -0.26414695382118225 1.3092501163482666
-0.33294034004211426 -0.26405614614486694 1.3088001012802124
-0.33066949248313904 -0.2640763223171234 1.3089001178741455
-0.32843583822250366 -0.264126718044281 1.3091500997543335
-0.3261141777038574 -0.2641065716743469 1.30905020236969
-0.3238547444343567 -0.2641368508338928 1.3092000484466553
-0.32170528173446655 -0.26425790786743164 1.309800148010254
-0.3194074034690857 -0.26425790786743164 1.309800148010254
-0.31720635294914246 -0.26433858275413513 1.3102000951766968
-0.3148716688156128 -0.26430830359458923 1.310050129890442
-0.31270453333854675 -0.264419287443161 1.3106001615524292
-0.31047630310058594 -0.2644798159599304 1.3109002113342285
-0.3081764578819275 -0.2644798159599304 1.3109002113342285
-0.3061099648475647 -0.2646816074848175 1.3119001388549805
-0.304074764251709 -0.2649135887622833 1.3130500316619873
-0.3017711341381073 -0.2649135887622833 1.3130500316619873
-0.2997298538684845 -0.2651456296443939 1.3142000436782837
-0.29758262634277344 -0.2652868628501892 1.3149001598358154
-0.295309454202652 -0.2653171122074127 1.3150501251220703
-0.29328086972236633 -0.2655692994594574 1.3163001537322998
-0.290971577167511 -0.2655692994594574 1.3163001537322998
-0.28889256715774536 -0.26578110456466675 1.317350149154663
-0.286940336227417 -0.2661140561103821 1.319000005722046
-0.284626305103302 -0.2661140561103821 1.319000005722046
-0.28239792585372925 -0.26619473099708557 1.3194000720977783
-0.28014683723449707 -0.26625528931617737 1.319700002670288
-0.2778315842151642 -0.26625528931617737 1.319700002670288
-0.2755998373031616 -0.26633596420288086 1.320099949836731
-0.27339768409729004 -0.26644694805145264 1.3206498622894287
-0.2711423635482788 -0.26650747656822205 1.320949912071228
-0.2688961625099182 -0.2665780782699585 1.3212999105453491
-0.2665780782699585 -0.2665780782699585 1.3212999105453491
-0.26423999667167664 -0.266557902097702 1.3212000131607056
-0.26195186376571655 -0.26658815145492554 1.32135009765625
-0.2595255970954895 -0.26647716760635376 1.3208000659942627
-0.2572084069252014 -0.26647719740867615 1.3208000659942627
-0.2549780309200287 -0.26656800508499146 1.3212502002716064
-0.2526027262210846 -0.26650744676589966 1.3209501504898071
-0.25033265352249146 -0.266557902097702 1.3212001323699951
-0.24795842170715332 -0.266497403383255 1.3209000825881958
-0.24558524787425995 -0.2664368748664856 1.3206000328063965
-0.24332371354103088 -0.2664973735809326 1.3208999633789062
-0.2408968210220337 -0.2663763165473938 1.3203001022338867
-0.2385895699262619 -0.26638638973236084 1.320350170135498
-0.23631790280342102 -0.2664368450641632 1.320600152015686
-0.2339567393064499 -0.26638638973236084 1.320350170135498
-0.23165790736675262 -0.2664065659046173 1.3204501867294312
-0.22941946983337402 -0.266497403383255 1.3209002017974854
-0.22705912590026855 -0.26644694805145264 1.3206501007080078
-0.22479327023029327 -0.26650744676589966 1.3209501504898071
-0.22237470746040344 -0.2663864195346832 1.3203500509262085
-0.22013334929943085 -0.26647719740867615 1.3208000659942627
-0.2179563045501709 -0.26664867997169495 1.3216500282287598
-0.21563763916492462 -0.26664867997169495 1.3216500282287598
-0.21334311366081238 -0.26667892932891846 1.3217999935150146
-0.21110403537750244 -0.2667798399925232 1.3222999572753906
-0.20876054465770721 -0.2667495608329773 1.3221499919891357
-0.20660488307476044 -0.2669614255428314 1.323199987411499
-0.20428352057933807 -0.2669614255428314 1.323199987411499
-0.20202317833900452 -0.2670421004295349 1.3236000537872314
-0.19976140558719635 -0.2671228051185608 1.3240001201629639
-0.19741621613502502 -0.2670925259590149 1.323850154876709
-0.1951158046722412 -0.2671228051185608 1.3240001201629639
-0.19292402267456055 -0.26730436086654663 1.3248999118804932
-0.19059965014457703 -0.26730436086654663 1.3248999118804932
-0.1882965862751007 -0.26733464002609253 1.3250501155853271
-0.18601404130458832 -0.2673951983451843 1.3253499269485474
-0.18362650275230408 -0.26730436086654663 1.3248999118804932
-0.18136368691921234 -0.2673951983451843 1.325350046157837
-0.1789979785680771 -0.2673346698284149 1.3250499963760376
-0.17667332291603088 -0.26733464002609253 1.3250499963760376
-0.17436841130256653 -0.2673649191856384 1.325199842453003
-0.17202404141426086 -0.26733464002609253 1.325049877166748
-0.16968019306659698 -0.267304390668869 1.3249000310897827
-0.1674252599477768 -0.2674153447151184 1.32545006275177
-0.1650625318288803 -0.2673548460006714 1.3251500129699707
-0.1627500057220459 -0.26737502217292786 1.3252499103546143
-0.16044317185878754 -0.26740527153015137 1.3254001140594482
-0.15815369784832 -0.2674658000469208 1.325700044631958
-0.15588077902793884 -0.2675565779209137 1.3261501789093018
-0.15351946651935577 -0.2674960494041443 1.3258501291275024
-0.15129035711288452 -0.26766759157180786 1.3267000913619995
-0.14901331067085266 -0.2677583694458008 1.3271501064300537
-0.1466684192419052 -0.2677280902862549 1.3270001411437988
-0.1443675309419632 -0.26777851581573486 1.3272501230239868
-0.14207115769386292 -0.2678390145301819 1.3275500535964966
-0.13974212110042572 -0.2678390145301819 1.3275500535964966
-0.137485533952713 -0.2679802477359772 1.3282500505447388
-0.13510946929454803 -0.26788946986198425 1.327799916267395
-0.13284000754356384 -0.26801055669784546 1.3284000158309937
-0.1305389404296875 -0.26807108521461487 1.3286999464035034
-0.12820790708065033 -0.26807108521461487 1.3286999464035034
-0.12593841552734375 -0.2682022154331207 1.3293498754501343
-0.12367596477270126 -0.26835352182388306 1.3300998210906982
-0.12132877111434937 -0.26832324266433716 1.329949975013733
-0.11903578042984009 -0.26841408014297485 1.330399990081787
-0.11673684418201447 -0.26849475502967834 1.33079993724823
-0.1144149899482727 -0.26852500438690186 1.3309500217437744
-0.11213050782680511 -0.2686460614204407 1.331549882888794
-0.10979447513818741 -0.2686460614204407 1.331549882888794
-0.10752297937870026 -0.26880744099617004 1.3323500156402588
-0.10524474084377289 -0.2689587473869324 1.3330999612808228
-0.10290596634149551 -0.2689587473869324 1.3330999612808228
-0.10060115158557892 -0.2690495550632477 1.333549976348877
-0.09829474985599518 -0.2691403329372406 1.3339999914169312
-0.09594359248876572 -0.2691101133823395 1.3338500261306763
-0.09365613758563995 -0.2692613899707794 1.3345998525619507
-0.09130789339542389 -0.26924121379852295 1.3344999551773071
-0.08900333195924759 -0.26935216784477234 1.3350499868392944
-0.08669360727071762 -0.2694530785083771 1.3355499505996704
-0.08435052633285522 -0.2694530785083771 1.3355499505996704
-0.08203508704900742 -0.26954385638237 1.3359999656677246
-0.079741932451725 -0.2697153687477112 1.3368499279022217
-0.07738788425922394 -0.2696850895881653 1.3366998434066772
-0.07506807148456573 -0.2697758674621582 1.3371498584747314
-0.0727221816778183 -0.2697758674621582 1.3371498584747314
-0.07040000706911087 -0.2698666453361511 1.3375998735427856
-0.06811439245939255 -0.27010875940322876 1.3387998342514038
-0.0657656192779541 -0.27010875940322876 1.3387998342514038
-0.06343814730644226 -0.27019956707954407 1.3392499685287476
-0.06112052872776985 -0.27034077048301697 1.3399499654769897
-0.058763157576322556 -0.27031052112579346 1.3398001194000244
-0.056437898427248 -0.2704315781593323 1.340399980545044
-0.05409841984510422 -0.2704921066761017 1.3406999111175537
-0.05173666402697563 -0.2704416513442993 1.3404499292373657
-0.049396056681871414 -0.2705021798610687 1.340749979019165
-0.04704385623335838 -0.2705022096633911 1.340749979019165
-0.044706664979457855 -0.2705930173397064 1.3411998748779297
-0.042372625321149826 -0.27071407437324524 1.3417999744415283
-0.0400141216814518 -0.27068382501602173 1.3416500091552734
-0.03767719119787216 -0.27080482244491577 1.342250108718872
-0.03533684462308884 -0.27091577649116516 1.3427999019622803
-0.03297736495733261 -0.27088552713394165 1.3426499366760254
-0.030632104724645615 -0.27097630500793457 1.3430999517440796
-0.028284212574362755 -0.27105703949928284 1.3434998989105225
-0.025932982563972473 -0.27111753821372986 1.3437999486923218
-0.023589473217725754 -0.2712789475917816 1.344599962234497
-0.02122894674539566 -0.27125877141952515 1.344499945640564
-0.018879998475313187 -0.27139997482299805 1.3451998233795166
-0.01652982458472252 -0.2715614140033722 1.345999836921692
-0.014166844077408314 -0.2715311348438263 1.345849871635437
-0.011814035475254059 -0.27172282338142395 1.3467999696731567
-0.009455439634621143 -0.2718438506126404 1.3473999500274658
-0.0070915804244577885 -0.2718438506126404 1.3473999500274658
-0.004730702377855778 -0.2720153331756592 1.348249912261963
-0.002365350956097245 -0.2720153331756592 1.3482500314712524
0.0 -0.2721162438392639 1.3487499952316284
0.00236780708655715 -0.27229779958724976 1.3496500253677368
0.004734561312943697 -0.27223730087280273 1.349349856376648
0.007107894867658615 -0.27246934175491333 1.3504998683929443
0.009481754153966904 -0.2726004719734192 1.3511499166488647
0.011848246678709984 -0.2725096642971039 1.3507000207901
0.014227894134819508 -0.27270135283470154 1.3516498804092407
0.0166028942912817 -0.27276188135147095 1.35194993019104
0.01897052489221096 -0.27270132303237915 1.3516498804092407
0.021351315081119537 -0.27282238006591797 1.3522498607635498
0.02372368611395359 -0.27282238006591797 1.3522498607635498
0.026119207963347435 -0.2730644941329956 1.3534499406814575
0.02850947342813015 -0.27321580052375793 1.3541998863220215
0.030881842598319054 -0.27318552136421204 1.3540499210357666
0.03326473757624626 -0.27324604988098145 1.3543498516082764
0.035656582564115524 -0.27336710691452026 1.354949951171875
0.03802947700023651 -0.27333682775497437 1.3547999858856201
0.04041973873972893 -0.2734276354312897 1.3552500009536743
0.042792629450559616 -0.27339738607406616 1.3550999164581299
0.045180000364780426 -0.27345791459083557 1.3553999662399292
0.04758596792817116 -0.27361929416656494 1.3561999797821045
0.04994868487119675 -0.273528516292572 1.3557500839233398
0.052350349724292755 -0.27364954352378845 1.356350064277649
0.05475412681698799 -0.27377063035964966 1.356950044631958
0.0571284182369709 -0.27374035120010376 1.3567999601364136
0.059541672468185425 -0.2738916575908661 1.357550024986267
0.06194615364074707 -0.2739925682544708 1.3580501079559326
0.06432867795228958 -0.2739925682544708 1.3580501079559326
0.06676772236824036 -0.27422457933425903 1.3592000007629395
0.06915228068828583 -0.27422457933425903 1.3592000007629395
0.0715763196349144 -0.274375855922699 1.359950065612793
0.07399482280015945 -0.2744969427585602 1.3605501651763916
0.07636210322380066 -0.27442631125450134 1.3602001667022705
0.07875709980726242 -0.27445656061172485 1.3603498935699463
0.08117648214101791 -0.27456751465797424 1.3609000444412231
0.08356402814388275 -0.27456751465797424 1.3609000444412231
0.08600210398435593 -0.2747289538383484 1.3616999387741089
0.08841052651405334 -0.2747894823551178 1.3620001077651978
0.09080000221729279 -0.2747894823551178 1.3619999885559082
0.09324078261852264 -0.2749407887458801 1.3627500534057617
0.09562105685472488 -0.2749105393886566 1.3626000881195068
0.09805832803249359 -0.2750416696071625 1.3632500171661377
0.10050895065069199 -0.27520307898521423 1.364050030708313
0.10290201753377914 -0.27520307898521423 1.364050030708313
0.1054147332906723 -0.2755157947540283 1.3656001091003418
0.10786974430084229 -0.27566713094711304 1.3663500547409058
0.11026684194803238 -0.27566713094711304 1.3663500547409058
0.11272990703582764 -0.2758285403251648 1.367150068283081
0.11512842029333115 -0.2758285403251648 1.367150068283081
0.11763439327478409 -0.2760806977748871 1.3684000968933105
0.12016229331493378 -0.2763732373714447 1.3698501586914062
0.12256553024053574 -0.2763732373714447 1.3698501586914062
0.12503719329833984 -0.2765245735645294 1.3706001043319702
0.12751148641109467 -0.27667587995529175 1.3713500499725342
0.12991735339164734 -0.27667587995529175 1.3713500499725342
0.13241010904312134 -0.2768574357032776 1.3722500801086426
0.1348961442708969 -0.27701884508132935 1.3730499744415283
0.13730500638484955 -0.27701884508132935 1.3730499744415283
0.13984104990959167 -0.2772710621356964 1.3743001222610474
-0.3746036887168884 -0.26361003518104553 1.3180500268936157
-0.37200891971588135 -0.2634100317955017 1.3170499801635742
-0.36938947439193726 -0.26318997144699097 1.3159500360488892
-0.3670807480812073 -0.26318997144699097 1.3159500360488892
-0.36453649401664734 -0.26302000880241394 1.3150999546051025
-0.3621879518032074 -0.2629900276660919 1.3149499893188477
-0.359675794839859 -0.26284000277519226 1.3142000436782837
-0.357125461101532 -0.2626599669456482 1.3133000135421753
-0.3548889756202698 -0.26270997524261475 1.3135501146316528
-0.3524502217769623 -0.26260995864868164 1.3130501508712769
-0.3499867022037506 -0.2624899744987488 1.3124500513076782
-0.34771060943603516 -0.2625099718570709 1.3125500679016113
-0.3452500104904175 -0.2623899579048157 1.3119500875473022
-0.34288299083709717 -0.2623400092124939 1.3117001056671143
-0.3405817449092865 -0.2623400092124939 1.3117001056671143
-0.3382547199726105 -0.26232001185417175 1.3116000890731812
-0.3360305428504944 -0.2623800039291382 1.3119001388549805
-0.3336907923221588 -0.26235002279281616 1.3117501735687256
-0.3313642144203186 -0.26232999563217163 1.311650037765503
-0.3291759490966797 -0.26242002844810486 1.3121001720428467
-0.3268740475177765 -0.26242002844810486 1.3121001720428467
-0.3246462941169739 -0.2624800205230713 1.3124001026153564
-0.32240527868270874 -0.26253002882003784 1.3126500844955444
-0.32006579637527466 -0.26249998807907104 1.3125001192092896
-0.31782370805740356 -0.2625499963760376 1.3127501010894775
-0.31555667519569397 -0.262580007314682 1.3129000663757324
-0.3133607506752014 -0.26267001032829285 1.313349962234497
-0.31125789880752563 -0.26284000277519226 1.3142001628875732
-0.3089522421360016 -0.26284000277519226 1.3142001628875732
-0.30677494406700134 -0.26295000314712524 1.314750075340271
-0.3046421408653259 -0.2630999684333801 1.3155001401901245
-0.3023342490196228 -0.2630999684333801 1.3155001401901245
-0.3002316355705261 -0.2632799744606018 1.316400170326233
-0.29823893308639526 -0.2635599970817566 1.3178000450134277
-0.2959270179271698 -0.2635599970817566 1.3178000450134277
-0.29386022686958313 -0.26377999782562256 1.3189001083374023
-0.2915462851524353 -0.26377999782562256 1.3189001083374023
-0.2893311083316803 -0.2638700008392334 1.319350004196167
-0.287462443113327 -0.2642800211906433 1.3213999271392822
-0.28514423966407776 -0.2642800211906433 1.3213999271392822
-0.28291159868240356 -0.2643600106239319 1.3217999935150146
-0.280730664730072 -0.2644899785518646 1.3224501609802246
-0.27841052412986755 -0.2644899785518646 1.3224501609802246
-0.27621570229530334 -0.2646099925041199 1.3230501413345337
-0.27396702766418457 -0.2646799683570862 1.3234002590179443
-0.2716452479362488 -0.2646799683570862 1.3234001398086548
-0.26938459277153015 -0.2647399604320526 1.323700189590454
-0.2670319974422455 -0.2647099792957306 1.3235499858856201
-0.26468998193740845 -0.26468998193740845 1.323449969291687
-0.262417733669281 -0.2647400200366974 1.3237000703811646
-0.26000702381134033 -0.26465001702308655 1.3232500553131104
-0.2576855421066284 -0.26464998722076416 1.3232500553131104
-0.25539296865463257 -0.26467999815940857 1.3234001398086548
-0.2529469132423401 -0.26455003023147583 1.3227499723434448
-0.25068315863609314 -0.2646099925041199 1.3230500221252441
-0.2483338862657547 -0.26458001136779785 1.3229000568389893
-0.24598507583141327 -0.26455000042915344 1.3227500915527344
-0.24369211494922638 -0.26457998156547546 1.3229000568389893
-0.24132558703422546 -0.2645300030708313 1.3226500749588013
-0.2390051633119583 -0.2645300030708313 1.3226500749588013
-0.2367563247680664 -0.2646099925041199 1.3230500221252441
-0.23440858721733093 -0.26457998156547546 1.3229000568389893
-0.23208770155906677 -0.26457998156547546 1.3229000568389893
-0.2298276424407959 -0.26464998722076416 1.3232500553131104
-0.22745457291603088 -0.26458996534347534 1.322950005531311
-0.22522719204425812 -0.2646999955177307 1.3235000371932983
-0.22286315262317657 -0.26464998722076416 1.3232500553131104
-0.22058331966400146 -0.2646999955177307 1.3235000371932983
-0.2183273732662201 -0.2647800147533417 1.3239001035690308
-0.21600475907325745 -0.2647800147533417 1.3239001035690308
-0.21373049914836884 -0.2648400366306305 1.32420015335083
-0.21151909232139587 -0.2649800181388855 1.3249000310897827
-0.20917105674743652 -0.2649500072002411 1.3247500658035278
-0.20698745548725128 -0.26513004302978516 1.3256499767303467
-0.20462319254875183 -0.2650800347328186 1.3253999948501587
-0.20236656069755554 -0.26517003774642944 1.3258501291275024
-0.20013105869293213 -0.2652900218963623 1.3264501094818115
-0.1977890282869339 -0.26527002453804016 1.3263500928878784
-0.1955210566520691 -0.26534998416900635 1.3267500400543213
-0.19330264627933502 -0.2654999792575836 1.3274999856948853
-0.1909736692905426 -0.2654999792575836 1.3274999856948853
-0.18864473700523376 -0.2654999792575836 1.3274999856948853
-0.18633684515953064 -0.265529990196228 1.3276498317718506
-0.1839868575334549 -0.2654999792575836 1.3274999856948853
-0.18174000084400177 -0.2656199634075165 1.3280999660491943
-0.17938973009586334 -0.26558998227119446 1.32794988155365
-0.1770400106906891 -0.26555997133255005 1.3278000354766846
-0.17471054196357727 -0.26555997133255005 1.3278000354766846
-0.1723615825176239 -0.26552996039390564 1.3276498317718506
-0.17006438970565796 -0.2655799984931946 1.3279000520706177
-0.16781052947044373 -0.26570001244544983 1.3285000324249268
-0.16544248163700104 -0.2656400203704834 1.3281999826431274
-0.1632043868303299 -0.26579001545906067 1.3289501667022705
-0.1608910709619522 -0.2658200263977051 1.3291000127792358
-0.1585533320903778 -0.2658100128173828 1.329050064086914
-0.1562863141298294 -0.2659200131893158 1.3295999765396118
-0.15393629670143127 -0.2658900022506714 1.329450011253357
-0.15164388716220856 -0.2659600079059601 1.329800009727478
-0.14938947558403015 -0.2661000192165375 1.3305000066757202
-0.14702211320400238 -0.26604002714157104 1.330199956893921
-0.14476999640464783 -0.2661900222301483 1.3309500217437744
-0.1424938589334488 -0.2663000226020813 1.3315000534057617
-0.14014211297035217 -0.2662700116634369 1.3313499689102173
-0.13789957761764526 -0.2664499878883362 1.3322499990463257
-0.13551649451255798 -0.26635998487472534 1.331800103187561
-0.13319498300552368 -0.26638996601104736 1.331950068473816
-0.13096138834953308 -0.26659995317459106 1.3329999446868896
-0.12859384715557098 -0.266539990901947 1.3327000141143799
-0.1262652575969696 -0.26655998826026917 1.3327999114990234
-0.12398745864629745 -0.2666899561882019 1.3334499597549438
-0.12163438647985458 -0.2666599750518799 1.333299994468689
-0.11936236917972565 -0.26680997014045715 1.334049940109253
-0.1170482486486435 -0.26686999201774597 1.3343499898910522
-0.11470727622509003 -0.26686999201774597 1.3343499898910522
-0.112437903881073 -0.2670399844646454 1.3351999521255493
-0.11009544134140015 -0.2670399844646454 1.3351999521255493
-0.1078013926744461 -0.26715999841690063 1.3357999324798584
-0.10552895069122314 -0.2673400044441223 1.3367000818252563
-0.10316070169210434 -0.2672800123691559 1.336400032043457
-0.10083878040313721 -0.2673400044441223 1.3367000818252563
-0.09852684289216995 -0.26743000745773315 1.3371502161026
-0.09617017209529877 -0.26739996671676636 1.3370001316070557
-0.09386315196752548 -0.26750999689102173 1.3375500440597534
-0.09150289744138718 -0.26746997237205505 1.3373501300811768
-0.08916999399662018 -0.26750999689102173 1.3375499248504639
-0.08686885982751846 -0.26764997839927673 1.338249921798706
-0.08450525999069214 -0.26759999990463257 1.337999939918518
-0.08217938244342804 -0.2676699757575989 1.3383498191833496
-0.07985824346542358 -0.2677599787712097 1.338800072669983
-0.07750078290700912 -0.2677299678325653 1.3386499881744385
-0.07521121948957443 -0.2679399847984314 1.3396999835968018
-0.07288535684347153 -0.26802998781204224 1.340149998664856
-0.07053420692682266 -0.26802998781204224 1.340149998664856
-0.06819833815097809 -0.26809000968933105 1.3404500484466553
-0.06582456827163696 -0.2680000066757202 1.3399999141693115
-0.06352104246616364 -0.26819998025894165 1.340999960899353
-0.06117526814341545 -0.26823002099990845 1.341149926185608
-0.05882237106561661 -0.26823002099990845 1.341149926185608
-0.05649474263191223 -0.2683500349521637 1.341749906539917
-0.05416499823331833 -0.26847001910209656 1.3423497676849365
-0.051792629063129425 -0.26837998628616333 1.3418998718261719
-0.04945499822497368 -0.26846998929977417 1.342349886894226
-0.04708420857787132 -0.26837998628616333 1.3418999910354614
-0.04473999887704849 -0.26843997836112976 1.3421998023986816
-0.042421579360961914 -0.2686700224876404 1.3433499336242676
-0.04006034508347511 -0.26864001154899597 1.3431999683380127
-0.03772631660103798 -0.26879996061325073 1.343999981880188
-0.035374999046325684 -0.2688499689102173 1.3442498445510864
-0.03300929814577103 -0.26878997683525085 1.3439500331878662
-0.03066517785191536 -0.2689099907875061 1.3445500135421753
-0.028318947181105614 -0.26903000473976135 1.3451498746871948
-0.02596192993223667 -0.2690599858760834 1.3452999591827393
-0.023616667836904526 -0.2692300081253052 1.3461499214172363
-0.021254997700452805 -0.2692300081253052 1.3461499214172363
-0.018905963748693466 -0.26940998435020447 1.3470499515533447
-0.016561755910515785 -0.2697199881076813 1.348599910736084
-0.01419421099126339 -0.26968997716903687 1.3484498262405396
-0.011835088953375816 -0.2698400020599365 1.3492000102996826
-0.00947403535246849 -0.2700100541114807 1.3500498533248901
-0.007103421725332737 -0.26993003487586975 1.3496497869491577
-0.0047382451593875885 -0.270080029964447 1.3503997325897217
-0.002369385678321123 -0.27011001110076904 1.3505499362945557
0.0 -0.2702600061893463 1.3512998819351196
0.0023717544972896576 -0.2703799903392792 1.3518998622894287
0.004742456134408712 -0.27031999826431274 1.351599931716919
0.007117631379514933 -0.27046999335289 1.3523499965667725
0.009495439007878304 -0.2706199884414673 1.3530997037887573
0.011866668239235878 -0.27055996656417847 1.352799892425537
0.01425263099372387 -0.27080002427101135 1.3539998531341553
0.016637280583381653 -0.2709500193595886 1.3547499179840088
0.018978947773575783 -0.27044999599456787 1.3522498607635498
0.021351315081119537 -0.27044999599456787 1.3522498607635498
0.02372368611395359 -0.27044999599456787 1.3522498607635498
0.026119207963347435 -0.2706899642944336 1.3534499406814575
0.02850947342813015 -0.27083998918533325 1.3541998863220215
0.030881842598319054 -0.27080997824668884 1.3540499210357666
0.03326473757624626 -0.2708699703216553 1.3543498516082764
0.035656582564115524 -0.2709899842739105 1.354949951171875
0.03802947700023651 -0.2709600031375885 1.3547999858856201
0.04041973873972893 -0.27105000615119934 1.3552500009536743
0.042792629450559616 -0.27101996541023254 1.3550999164581299
0.045180000364780426 -0.27107998728752136 1.3553999662399292
0.04758596792817116 -0.2712399959564209 1.3561999797821045
0.04994868487119675 -0.27115002274513245 1.3557500839233398
0.052350349724292755 -0.2712699770927429 1.356350064277649
0.05475412681698799 -0.27139002084732056 1.356950044631958
0.0571284182369709 -0.27136000990867615 1.3567999601364136
0.059541672468185425 -0.27150997519493103 1.357550024986267
0.06194615364074707 -0.27160996198654175 1.3580501079559326
0.06432867795228958 -0.27160996198654175 1.3580501079559326
0.06676772236824036 -0.27184000611305237 1.3592000007629395
0.06915228068828583 -0.27184000611305237 1.3592000007629395
0.0715763196349144 -0.271990031003952 1.359950065612793
0.07399482280015945 -0.2721100151538849 1.3605501651763916
0.07636210322380066 -0.2720400094985962 1.3602001667022705
0.07875709980726242 -0.2720699906349182 1.3603498935699463
0.08117648214101791 -0.2721800208091736 1.3609000444412231
0.08356402814388275 -0.2721800208091736 1.3609000444412231
0.08600210398435593 -0.27233999967575073 1.3616999387741089
0.08840079605579376 -0.27237001061439514 1.3618500232696533
0.09079001098871231 -0.27237001061439514 1.3618500232696533
0.09324078261852264 -0.27254995703697205 1.3627500534057617
0.09562105685472488 -0.27251997590065 1.3626000881195068
0.09805832803249359 -0.27265000343322754 1.3632500171661377
0.10049422085285187 -0.2727699875831604 1.3638499975204468
0.10288693755865097 -0.2727699875831604 1.3638499975204468
0.10539929568767548 -0.273080050945282 1.3654000759124756
0.1078539490699768 -0.27323004603385925 1.366150140762329
0.11025069653987885 -0.27323004603385925 1.366150140762329
0.11271341890096664 -0.273389995098114 1.3669501543045044
0.1151115745306015 -0.273389995098114 1.3669501543045044
0.11761720478534698 -0.2736400067806244 1.3682000637054443
0.12014476209878922 -0.27393001317977905 1.36965012550354
0.12254764139652252 -0.27393001317977905 1.36965012550354
0.12501895427703857 -0.27407997846603394 1.3704001903533936
0.12749288976192474 -0.2742300033569336 1.3711501359939575
0.12989842891693115 -0.2742300033569336 1.3711501359939575
0.13241010904312134 -0.27445000410079956 1.3722500801086426
0.1348961442708969 -0.2746100127696991 1.3730499744415283
0.13730500638484955 -0.2746100127696991 1.3730499744415283
0.13984104990959167 -0.2748600244522095 1.3743001222610474
-0.3753710389137268 -0.2618328928947449 1.3207499980926514
-0.37279975414276123 -0.26165446639060974 1.319849967956543
-0.37013334035873413 -0.26140668988227844 1.3185999393463135
-0.36784783005714417 -0.26142650842666626 1.3187000751495361
-0.3653680086135864 -0.2613075375556946 1.3181002140045166
-0.36305558681488037 -0.2613075375556946 1.3181002140045166
-0.3605515658855438 -0.26116877794265747 1.3174002170562744
-0.3580092191696167 -0.26100024580955505 1.3165500164031982
-0.35569944977760315 -0.26100024580955505 1.3165500164031982
-0.35249048471450806 -0.26033616065979004 1.3132001161575317
-0.3499867022037506 -0.26018744707107544 1.3124500513076782
-0.34771060943603516 -0.26020729541778564 1.3125500679016113
-0.3452500104904175 -0.26008835434913635 1.3119500875473022
-0.34288299083709717 -0.2600387930870056 1.3117001056671143
-0.3405817449092865 -0.2600387930870056 1.3117001056671143
-0.3382547199726105 -0.2600189745426178 1.3116000890731812
-0.3360305428504944 -0.26007845997810364 1.3119001388549805
-0.3336907923221588 -0.2600487172603607 1.3117501735687256
-0.3313642144203186 -0.2600288987159729 1.311650037765503
-0.3291759490966797 -0.26011812686920166 1.3121001720428467
-0.3268740475177765 -0.26011812686920166 1.3121001720428467
-0.3246462941169739 -0.2601776123046875 1.3124001026153564
-0.32240527868270874 -0.26022714376449585 1.3126500844955444
-0.32006579637527466 -0.2601974308490753 1.3125001192092896
-0.31782370805740356 -0.26024696230888367 1.3127501010894775
-0.31555667519569397 -0.260276734828949 1.3129000663757324
-0.3133607506752014 -0.26036590337753296 1.313349962234497
-0.31125789880752563 -0.2605344355106354 1.3142001628875732
-0.3089522421360016 -0.2605344355106354 1.3142001628875732
-0.30677494406700134 -0.26064345240592957 1.314750075340271
-0.3046421408653259 -0.2607921361923218 1.3155001401901245
-0.3023342490196228 -0.2607921361923218 1.3155001401901245
-0.3002316355705261 -0.2609705328941345 1.316400170326233
-0.29823893308639526 -0.26124805212020874 1.3178000450134277
-0.2959270179271698 -0.26124805212020874 1.3178000450134277
-0.29386022686958313 -0.2614661157131195 1.3189001083374023
-0.2915462851524353 -0.2614661157131195 1.3189001083374023
-0.2893311083316803 -0.26155534386634827 1.319350004196167
-0.287462443113327 -0.26196175813674927 1.3213999271392822
-0.28514423966407776 -0.26196175813674927 1.3213999271392822
-0.28291159868240356 -0.2620410621166229 1.3217999935150146
-0.280730664730072 -0.2621699273586273 1.3224501609802246
-0.27841052412986755 -0.2621699273586273 1.3224501609802246
-0.27621570229530334 -0.2622888684272766 1.3230501413345337
-0.27396702766418457 -0.26235824823379517 1.3234002590179443
-0.2716452479362488 -0.26235824823379517 1.3234001398086548
-0.26938459277153015 -0.262417733669281 1.323700189590454
-0.2670319974422455 -0.2623879909515381 1.3235499858856201
-0.26468998193740845 -0.2623681426048279 1.323449969291687
-0.262417733669281 -0.262417733669281 1.3237000703811646
-0.26000702381134033 -0.26232850551605225 1.3232500553131104
-0.2576855421066284 -0.26232850551605225 1.3232500553131104
-0.25539296865463257 -0.26235824823379517 1.3234001398086548
-0.2529469132423401 -0.2622293531894684 1.3227499723434448
-0.25068315863609314 -0.2622888386249542 1.3230500221252441
-0.2483338862657547 -0.2622590959072113 1.3229000568389893
-0.24598507583141327 -0.26222938299179077 1.3227500915527344
-0.24369211494922638 -0.2622591257095337 1.3229000568389893
-0.24132558703422546 -0.26220959424972534 1.3226500749588013
-0.2390051633119583 -0.26220959424972534 1.3226500749588013
-0.2367563247680664 -0.2622888684272766 1.3230500221252441
-0.23440858721733093 -0.2622591257095337 1.3229000568389893
-0.23208770155906677 -0.2622591257095337 1.3229000568389893
-0.2298276424407959 -0.26232853531837463 1.3232500553131104
-0.22745457291603088 -0.2622690498828888 1.322950005531311
-0.22522719204425812 -0.26237809658050537 1.3235000371932983
-0.22286315262317657 -0.26232853531837463 1.3232500553131104
-0.2205583155155182 -0.26234835386276245 1.3233500719070435
-0.2183273732662201 -0.26245737075805664 1.3239001035690308
-0.21600475907325745 -0.26245737075805664 1.3239001035690308
-0.21373049914836884 -0.2625168561935425 1.32420015335083
-0.21151909232139587 -0.2626555860042572 1.3249000310897827
-0.20917105674743652 -0.26262587308883667 1.3247500658035278
-0.20696404576301575 -0.2627745568752289 1.3255000114440918
-0.20462319254875183 -0.26275473833084106 1.3253999948501587
-0.20236656069755554 -0.2628439664840698 1.3258501291275024
-0.20013105869293213 -0.2629629075527191 1.3264501094818115
-0.1977890282869339 -0.2629430890083313 1.3263500928878784
-0.1955210566520691 -0.26302239298820496 1.3267500400543213
-0.19330264627933502 -0.26317107677459717 1.3274999856948853
-0.1909736692905426 -0.26317107677459717 1.3274999856948853
-0.18864473700523376 -0.26317107677459717 1.3274999856948853
-0.18633684515953064 -0.2632008194923401 1.3276498317718506
-0.1839868575334549 -0.26317107677459717 1.3274999856948853
-0.18174000084400177 -0.26329001784324646 1.3280999660491943
-0.17938973009586334 -0.26326027512550354 1.32794988155365
-0.1770400106906891 -0.2632305324077606 1.3278000354766846
-0.17471054196357727 -0.2632305324077606 1.3278000354766846
-0.1723615825176239 -0.2632008194923401 1.3276498317718506
-0.17006438970565796 -0.2632503807544708 1.3279000520706177
-0.16781052947044373 -0.2633693218231201 1.3285000324249268
-0.16544248163700104 -0.2633098363876343 1.3281999826431274
-0.1632043868303299 -0.2634585201740265 1.3289501667022705
-0.1608910709619522 -0.263488233089447 1.3291000127792358
-0.1585533320903778 -0.2634783387184143 1.329050064086914
-0.1562863141298294 -0.2635873556137085 1.3295999765396118
-0.15393629670143127 -0.2635576128959656 1.329450011253357
-0.15164388716220856 -0.2636270225048065 1.329800009727478
-0.14938947558403015 -0.263765811920166 1.3305000066757202
-0.14702211320400238 -0.2637063264846802 1.330199956893921
-0.14476999640464783 -0.2638550102710724 1.3309500217437744
-0.1424938589334488 -0.2639640271663666 1.3315000534057617
-0.14014211297035217 -0.26393431425094604 1.3313499689102173
-0.13789957761764526 -0.2641127109527588 1.3322499990463257
-0.13551649451255798 -0.2640235126018524 1.331800103187561
-0.13319498300552368 -0.2640532851219177 1.331950068473816
-0.13096138834953308 -0.2642614245414734 1.3329999446868896
-0.12859384715557098 -0.26420193910598755 1.3327000141143799
-0.1262652575969696 -0.26422175765037537 1.3327999114990234
-0.12398745864629745 -0.2643505930900574 1.3334499597549438
-0.12163438647985458 -0.26432088017463684 1.333299994468689
-0.11936236917972565 -0.26446956396102905 1.334049940109253
-0.1170482486486435 -0.2645290493965149 1.3343499898910522
-0.11470727622509003 -0.2645290493965149 1.3343499898910522
-0.112437903881073 -0.2646975517272949 1.3351999521255493
-0.11009544134140015 -0.2646975517272949 1.3351999521255493
-0.1078013926744461 -0.2648165225982666 1.3357999324798584
-0.10552895069122314 -0.26499491930007935 1.3367000818252563
-0.10316070169210434 -0.2649354338645935 1.336400032043457
-0.10083878040313721 -0.26499491930007935 1.3367000818252563
-0.09852684289216995 -0.2650841474533081 1.3371502161026
-0.09617017209529877 -0.2650544047355652 1.3370001316070557
-0.09386315196752548 -0.26516345143318176 1.3375500440597534
-0.09150289744138718 -0.26512378454208374 1.3373501300811768
-0.08916999399662018 -0.2651634216308594 1.3375499248504639
-0.08686885982751846 -0.2653021812438965 1.338249921798706
-0.08450525999069214 -0.26525264978408813 1.337999939918518
-0.08217938244342804 -0.2653220295906067 1.3383498191833496
-0.07985824346542358 -0.26541125774383545 1.338800072669983
-0.07750078290700912 -0.26538151502609253 1.3386499881744385
-0.07521121948957443 -0.2655896544456482 1.3396999835968018
-0.07288535684347153 -0.26567885279655457 1.340149998664856
-0.07053420692682266 -0.26567885279655457 1.340149998664856
-0.06819833815097809 -0.265738308429718 1.3404500484466553
-0.06582456827163696 -0.26564913988113403 1.3399999141693115
-0.06352104246616364 -0.265847384929657 1.340999960899353
-0.06117526814341545 -0.2658771276473999 1.341149926185608
-0.05882237106561661 -0.2658771276473999 1.341149926185608
-0.05649474263191223 -0.2659960389137268 1.341749906539917
-0.05416499823331833 -0.2661150097846985 1.3423497676849365
-0.051792629063129425 -0.2660257816314697 1.3418998718261719
-0.04944947361946106 -0.26608526706695557 1.3421999216079712
-0.047078944742679596 -0.2659960389137268 1.341749906539917
-0.044735003262758255 -0.26605552434921265 1.3420498371124268
-0.042421579360961914 -0.26631325483322144 1.3433499336242676
-0.04006034508347511 -0.2662835419178009 1.3431999683380127
-0.03772631660103798 -0.26644212007522583 1.343999981880188
-0.035374999046325684 -0.26649168133735657 1.3442498445510864
-0.03300929814577103 -0.2664322257041931 1.3439500331878662
-0.03066517785191536 -0.2665511667728424 1.3445500135421753
-0.028318947181105614 -0.2666701078414917 1.3451498746871948
-0.02596192993223667 -0.2666998505592346 1.3452999591827393
-0.023616667836904526 -0.26686835289001465 1.3461499214172363
-0.021254997700452805 -0.26686835289001465 1.3461499214172363
-0.018905963748693466 -0.26704680919647217 1.3470499515533447
-0.016561755910515785 -0.2673540711402893 1.348599910736084
-0.01419421099126339 -0.2673243582248688 1.3484498262405396
-0.011835088953375816 -0.2674730122089386 1.3492000102996826
-0.00947333313524723 -0.2676216959953308 1.3499499559402466
-0.007102894596755505 -0.26754242181777954 1.3495498895645142
-0.0047382451593875885 -0.2677108645439148 1.3503997325897217
-0.002369385678321123 -0.2677406370639801 1.3505499362945557
0.0 -0.2678595781326294 1.3511499166488647
0.0023717544972896576 -0.268008291721344 1.3518998622894287
0.004742456134408712 -0.26794880628585815 1.351599931716919
0.007117631379514933 -0.26809749007225037 1.3523499965667725
0.009495439007878304 -0.26824620366096497 1.3530997037887573
0.011866668239235878 -0.2681867182254791 1.352799892425537
0.01425263099372387 -0.2684245705604553 1.3539998531341553
0.016637280583381653 -0.26857325434684753 1.3547499179840088
0.019011931493878365 -0.2685435116291046 1.3545998334884644
0.021402632817626 -0.26872190833091736 1.3554999828338623
0.02378070540726185 -0.26872190833091736 1.3554999828338623
0.02617807127535343 -0.2689201831817627 1.3564999103546143
0.028565263375639915 -0.26898956298828125 1.3568499088287354
0.030945703387260437 -0.26898956298828125 1.3568499088287354
0.033337194472551346 -0.2690787613391876 1.357300043106079
0.035746052861213684 -0.2692869305610657 1.3583500385284424
0.03812069818377495 -0.26922744512557983 1.3580501079559326
0.0405077263712883 -0.26925718784332275 1.3582000732421875
0.04290157929062843 -0.2693265676498413 1.3585498332977295
0.04528999701142311 -0.26935631036758423 1.3587000370025635
0.04769473895430565 -0.2694752812385559 1.359299898147583
0.05007394403219223 -0.269445538520813 1.3591499328613281
0.05248158052563667 -0.2695644795894623 1.3597500324249268
0.05489737540483475 -0.2697131931781769 1.3604999780654907
0.05727158114314079 -0.26965370774269104 1.360200047492981
0.05969518423080444 -0.26982221007347107 1.3610498905181885
0.06211719661951065 -0.2699708640575409 1.361799955368042
0.0644921064376831 -0.26991140842437744 1.3614999055862427
0.06689544022083282 -0.2699708938598633 1.361799955368042
0.06927694380283356 -0.26994115114212036 1.3616498708724976
0.07170525938272476 -0.2700898349285126 1.362399935722351
0.07413351535797119 -0.2702285945415497 1.3630998134613037
0.0765080600976944 -0.27016913890838623 1.362799882888794
0.07891631126403809 -0.2702285945415497 1.3630999326705933
0.08133456856012344 -0.27031782269477844 1.3635499477386475
0.08371753990650177 -0.2702880799770355 1.363399863243103
0.08617578446865082 -0.2704962193965912 1.3644499778747559
0.0885922908782959 -0.27056559920310974 1.364799976348877
0.09097666293382645 -0.2705358564853668 1.364650011062622
0.0933913141489029 -0.27059534192085266 1.3649499416351318
0.0957859680056572 -0.27059534192085266 1.3649499416351318
0.09821297973394394 -0.27068454027175903 1.365399956703186
0.10067473351955414 -0.27086299657821655 1.3662998676300049
0.10306044667959213 -0.27083325386047363 1.3661500215530396
0.10552667081356049 -0.27101168036460876 1.367050051689148
0.10801577568054199 -0.27123966813087463 1.3682000637054443
0.11041613668203354 -0.27123966813087463 1.3682000637054443
0.11291543394327164 -0.2714775502681732 1.3694000244140625
0.11531788110733032 -0.27147752046585083 1.369400143623352
0.11779342591762543 -0.27164605259895325 1.3702501058578491
0.12028948217630386 -0.2718542218208313 1.371300220489502
0.12269526720046997 -0.2718542218208313 1.371300220489502
0.12520596385002136 -0.27208220958709717 1.3724501132965088
0.1276928037405014 -0.2722507119178772 1.3733001947402954
0.13010211288928986 -0.2722507119178772 1.3733001947402954
0.13263684511184692 -0.2725084125995636 1.3746001720428467
0.13511230051517487 -0.272637277841568 1.3752501010894775
0.13754001259803772 -0.2726669907569885 1.375400185585022
0.14016158878803253 -0.2730734050273895 1.3774499893188477
-0.3753710389137268 -0.25951579213142395 1.3207499980926514
-0.37279975414276123 -0.25933894515037537 1.319849967956543
-0.37013334035873413 -0.25909334421157837 1.3185999393463135
-0.36784783005714417 -0.25911298394203186 1.3187000751495361
-0.3653680086135864 -0.25899508595466614 1.3181002140045166
-0.36305558681488037 -0.25899508595466614 1.3181002140045166
-0.3605515658855438 -0.2588575482368469 1.3174002170562744
-0.3580092191696167 -0.2586905360221863 1.3165500164031982
-0.35569944977760315 -0.2586905360221863 1.3165500164031982
-0.35316160321235657 -0.25852349400520325 1.3157000541687012
-0.3508133888244629 -0.25849398970603943 1.3155500888824463
-0.34854504466056824 -0.25852346420288086 1.3157000541687012
-0.3461315333843231 -0.2584448754787445 1.3153001070022583
-0.3436540961265564 -0.25831717252731323 1.314650058746338
-0.34138667583465576 -0.25834667682647705 1.3148000240325928
-0.33908000588417053 -0.25834667682647705 1.3148000240325928
-0.33682453632354736 -0.25838595628738403 1.3150001764297485
-0.3344793915748596 -0.258356511592865 1.314850091934204
-0.3322862982749939 -0.2584449350833893 1.3153002262115479
-0.33004146814346313 -0.2584940791130066 1.3155502080917358
-0.32769614458084106 -0.25846460461616516 1.315400242805481
-0.3253142237663269 -0.2584056556224823 1.3151001930236816
-0.32308071851730347 -0.25846460461616516 1.3154001235961914
-0.3207729756832123 -0.25846460461616516 1.3154001235961914
-0.3186105191707611 -0.2585824728012085 1.31600022315979
-0.31636184453964233 -0.2586315870285034 1.3162500858306885
-0.3140884339809418 -0.25866106152534485 1.316400170326233
-0.31185004115104675 -0.2587200105190277 1.3167001008987427
-0.3095399737358093 -0.2587200105190277 1.3167001008987427
-0.3074283003807068 -0.25888699293136597 1.3175501823425293
-0.30525580048561096 -0.2590048909187317 1.3181501626968384
-0.30294328927993774 -0.2590048909187317 1.3181501626968384
-0.3008701801300049 -0.2592112421989441 1.3191999197006226
-0.2988273501396179 -0.25944703817367554 1.3203998804092407
-0.29651087522506714 -0.25944703817367554 1.3203998804092407
-0.294472873210907 -0.25969260931015015 1.3216500282287598
-0.292187362909317 -0.25972211360931396 1.3217999935150146
-0.2900219261646271 -0.2598596215248108 1.3224999904632568
-0.28782138228416443 -0.25996771454811096 1.3230500221252441
-0.28550025820732117 -0.25996771454811096 1.3230500221252441
-0.2834359407424927 -0.2602035105228424 1.3242499828338623
-0.28119760751724243 -0.26028209924697876 1.3246499300003052
-0.2788737118244171 -0.26028209924697876 1.3246499300003052
-0.2766959071159363 -0.260419636964798 1.325350046157837
-0.2744949162006378 -0.2605375051498413 1.3259499073028564
-0.27216869592666626 -0.2605375051498413 1.3259499073028564
-0.2699543833732605 -0.2606455683708191 1.3265000581741333
-0.26754647493362427 -0.2605670094490051 1.3260999917984009
-0.26516997814178467 -0.2605178952217102 1.325850009918213
-0.26287370920181274 -0.26054733991622925 1.3259999752044678
-0.2604294419288635 -0.2604294419288635 1.3253998756408691
-0.2581334710121155 -0.26045891642570496 1.3255499601364136
-0.25586578249931335 -0.2605178654193878 1.3258498907089233
-0.2534823417663574 -0.26045891642570496 1.325549840927124
-0.2511284351348877 -0.2604294419288635 1.3253999948501587
-0.24875624477863312 -0.2603803277015686 1.3251500129699707
-0.24644999206066132 -0.2603999972343445 1.3252499103546143
-0.24419867992401123 -0.26047858595848083 1.3256498575210571
-0.24181823432445526 -0.26041966676712036 1.3253498077392578
-0.23941175639629364 -0.2603312134742737 1.3248999118804932
-0.23717685043811798 -0.2604294419288635 1.3253999948501587
-0.2347806990146637 -0.2603508532047272 1.3249998092651367
-0.232473686337471 -0.26037049293518066 1.3250999450683594
-0.23022711277008057 -0.26045888662338257 1.325549840927124
-0.22787579894065857 -0.2604294419288635 1.3253999948501587
-0.22570368647575378 -0.2606062889099121 1.326300024986267
-0.2233094424009323 -0.26052770018577576 1.3259000778198242
-0.22098331153392792 -0.26052772998809814 1.3259000778198242
-0.21877261996269226 -0.26066526770591736 1.326600193977356
-0.21642079949378967 -0.2606357932090759 1.3264501094818115
-0.2142147272825241 -0.2607831656932831 1.327200174331665
-0.21202203631401062 -0.2609501779079437 1.3280502557754517
-0.20966842770576477 -0.2609207034111023 1.3279001712799072
-0.2074090540409088 -0.261009156703949 1.3283501863479614
-0.2051326334476471 -0.2610779106616974 1.3286999464035034
-0.20280158519744873 -0.2610779106616974 1.328700065612793
-0.2006063163280487 -0.2612547278404236 1.3296000957489014
-0.1982736885547638 -0.2612547278404236 1.3296000957489014
-0.19592632353305817 -0.2612350583076477 1.3295000791549683
-0.19368122518062592 -0.2613529562950134 1.3301000595092773
-0.19131174683570862 -0.2613038420677185 1.3298499584197998
-0.1890426129102707 -0.2613922655582428 1.3303000926971436
-0.1867508590221405 -0.26145118474960327 1.3306000232696533
-0.1844165027141571 -0.26145118474960327 1.3306000232696533
-0.18212318420410156 -0.2615101635456085 1.330899953842163
-0.17978821694850922 -0.2615101635456085 1.330899953842163
-0.17745333909988403 -0.26151013374328613 1.3309000730514526
-0.17513158917427063 -0.2615297734737396 1.3310000896453857
-0.17277701199054718 -0.2615002989768982 1.3308498859405518
