ply
format ascii 1.0
comment Created by Open3D
element vertex 1794
property double x
property double y
property double z
end_header
0.569368 0.264166 0.892816
0.568352 0.262523 0.893069
0.568314 0.260913 0.893074
0.568275 0.259303 0.893079
0.568237 0.257692 0.893084
0.568198 0.256082 0.893089
0.56816 0.254472 0.893094
0.568121 0.252862 0.893099
0.568083 0.251252 0.893104
0.568044 0.249642 0.893109
0.568006 0.248032 0.893114
0.567967 0.246422 0.893119
0.567929 0.244812 0.893124
0.577342 0.45857 0.88971
0.577303 0.456951 0.889715
0.577264 0.455332 0.88972
0.577226 0.453714 0.889725
0.577187 0.452095 0.88973
0.577148 0.450476 0.889735
0.577109 0.448857 0.88974
0.577071 0.447238 0.889745
0.577032 0.445619 0.88975
0.576993 0.444001 0.889755
0.576955 0.442382 0.88976
0.576916 0.440763 0.889765
0.576877 0.439144 0.88977
0.576838 0.437525 0.889775
0.5768 0.435907 0.88978
0.57578 0.43407 0.890035
0.575742 0.432453 0.89004
0.575703 0.430836 0.890045
0.575664 0.429219 0.89005
0.575626 0.427601 0.890055
0.573626 0.425566 0.890561
0.573587 0.423952 0.890566
0.57551 0.42275 0.89007
0.575471 0.421133 0.890076
0.575432 0.419516 0.890081
0.575394 0.417899 0.890086
0.575355 0.416282 0.890091
0.575316 0.414665 0.890096
0.575278 0.413048 0.890101
0.575239 0.411431 0.890106
0.5752 0.409814 0.890111
0.575162 0.408197 0.890116
0.575123 0.406579 0.890121
0.575084 0.404962 0.890126
0.573086 0.402976 0.890631
0.573047 0.401363 0.890636
0.573009 0.399749 0.890641
0.57297 0.398135 0.890646
0.572931 0.396522 0.890651
0.572893 0.394908 0.890656
0.571874 0.393121 0.890911
0.571836 0.391509 0.890916
0.571797 0.389897 0.890921
0.571759 0.388285 0.890926
0.57172 0.386673 0.890931
0.571682 0.385062 0.890936
0.571643 0.38345 0.890941
0.570625 0.381676 0.891196
0.570587 0.380066 0.891201
0.570548 0.378456 0.891206
0.57051 0.376846 0.891211
0.571451 0.375391 0.890966
0.571412 0.373779 0.890971
0.571373 0.372167 0.890976
0.571335 0.370555 0.890981
0.570317 0.368796 0.891236
0.570279 0.367186 0.891241
0.57024 0.365576 0.891246
0.570202 0.363965 0.891251
0.570163 0.362355 0.891256
0.570125 0.360745 0.891261
0.570086 0.359135 0.891266
0.570048 0.357525 0.891271
0.570009 0.355915 0.891276
0.569971 0.354305 0.891281
0.569932 0.352695 0.891286
0.569894 0.351085 0.891291
0.570834 0.349602 0.891046
0.570795 0.34799 0.891051
0.570757 0.346378 0.891056
0.570718 0.344766 0.891061
0.57068 0.343154 0.891066
0.57162 0.341661 0.890821
0.571581 0.340047 0.890826
0.571542 0.338433 0.890831
0.571504 0.33682 0.890836
0.573422 0.335428 0.890341
0.573383 0.333811 0.890346
0.574322 0.332302 0.890101
0.574284 0.330683 0.890106
0.574245 0.329064 0.890111
0.574206 0.327445 0.890116
0.574168 0.325826 0.890121
0.574129 0.324207 0.890126
0.57409 0.322589 0.890131
0.574052 0.32097 0.890136
0.574013 0.319351 0.890141
0.573974 0.317732 0.890147
0.573935 0.316113 0.890152
0.573897 0.314494 0.890157
0.573858 0.312876 0.890162
0.573819 0.311257 0.890167
0.573781 0.309638 0.890172
0.573742 0.308019 0.890177
0.573703 0.3064 0.890182
0.573664 0.304781 0.890187
0.573626 0.303163 0.890192
0.573587 0.301544 0.890197
0.573548 0.299925 0.890202
0.572532 0.298236 0.890456
0.572494 0.296618 0.890461
0.570501 0.294867 0.890966
0.570462 0.293254 0.890971
0.570424 0.29164 0.890976
0.569408 0.289965 0.89123
0.569369 0.288353 0.891235
0.569331 0.286741 0.89124
0.569292 0.285129 0.891245
0.569254 0.283517 0.89125
0.569215 0.281906 0.891255
0.569177 0.280294 0.89126
0.569138 0.278682 0.891265
0.568123 0.277022 0.89152
0.568084 0.275412 0.891525
0.569022 0.273846 0.89128
0.568984 0.272235 0.891285
0.568945 0.270623 0.89129
0.568907 0.269011 0.891295
0.568868 0.267399 0.8913
0.569806 0.265823 0.891056
0.568791 0.264176 0.89131
0.567776 0.262532 0.891565
0.567738 0.260922 0.89157
0.567699 0.259312 0.891575
0.567661 0.257702 0.89158
0.567622 0.256092 0.891585
0.567584 0.254481 0.89159
0.567545 0.252871 0.891595
0.567507 0.251261 0.8916
0.567468 0.249651 0.891605
0.56743 0.248041 0.89161
0.567391 0.246431 0.891615
0.567353 0.244821 0.89162
0.578724 0.459068 0.887694
0.578686 0.457445 0.887699
0.576685 0.455342 0.888208
0.576647 0.453723 0.888213
0.576608 0.452104 0.888218
0.576569 0.450485 0.888223
0.57653 0.448866 0.888228
0.576492 0.447247 0.888233
0.576453 0.445629 0.888238
0.576414 0.44401 0.888243
0.576376 0.442391 0.888248
0.576337 0.440772 0.888253
0.576298 0.439153 0.888258
0.57626 0.437535 0.888263
0.576221 0.435916 0.888268
0.576182 0.434297 0.888273
0.576143 0.432678 0.888278
0.576105 0.431059 0.888283
0.576066 0.42944 0.888288
0.576027 0.427822 0.888293
0.575009 0.425994 0.88855
0.57497 0.424376 0.888555
0.574931 0.422759 0.88856
0.574893 0.421142 0.888565
0.574854 0.419525 0.88857
0.574815 0.417908 0.888575
0.574777 0.416291 0.88858
0.574738 0.414674 0.888585
0.574699 0.413057 0.88859
0.574661 0.41144 0.888595
0.574622 0.409823 0.8886
0.574583 0.408206 0.888605
0.574545 0.406589 0.88861
0.574506 0.404972 0.888615
0.572509 0.402985 0.889123
0.57247 0.401372 0.889128
0.572431 0.399758 0.889133
0.572393 0.398145 0.889138
0.572354 0.396531 0.889143
0.572316 0.394917 0.889148
0.572277 0.393304 0.889153
0.572239 0.39169 0.889158
0.571221 0.389906 0.889415
0.571182 0.388294 0.88942
0.571144 0.386682 0.889425
0.571105 0.385071 0.88943
0.571067 0.383459 0.889435
0.571028 0.381847 0.88944
0.57099 0.380235 0.889445
0.570951 0.378623 0.88945
0.570913 0.377012 0.889455
0.570874 0.3754 0.88946
0.570836 0.373788 0.889465
0.570797 0.372176 0.88947
0.570758 0.370564 0.889475
0.57072 0.368953 0.88948
0.570681 0.367341 0.889485
0.570643 0.365729 0.88949
0.570604 0.364117 0.889495
0.570566 0.362505 0.8895
0.570527 0.360893 0.889505
0.570489 0.359282 0.88951
0.57045 0.35767 0.889515
0.570412 0.356058 0.88952
0.570373 0.354446 0.889525
0.570335 0.352834 0.88953
0.570296 0.351223 0.889535
0.570257 0.349611 0.88954
0.570219 0.347999 0.889545
0.57018 0.346387 0.88955
0.57112 0.344897 0.889303
0.571081 0.343283 0.889308
0.571043 0.34167 0.889313
0.571004 0.340056 0.889318
0.570965 0.338443 0.889323
0.570927 0.336829 0.889328
0.572843 0.335437 0.888831
0.572805 0.33382 0.888836
0.573744 0.332311 0.888589
0.573705 0.330692 0.888594
0.573666 0.329073 0.888599
0.573627 0.327454 0.888604
0.573589 0.325835 0.888609
0.57355 0.324217 0.888614
0.573511 0.322598 0.888619
0.573473 0.320979 0.888624
0.573434 0.31936 0.888629
0.573395 0.317741 0.888634
0.573356 0.316122 0.888639
0.573318 0.314504 0.888644
0.573279 0.312885 0.888649
0.57324 0.311266 0.888654
0.573202 0.309647 0.888659
0.573163 0.308028 0.888664
0.573124 0.306409 0.888669
0.573086 0.304791 0.888674
0.573047 0.303172 0.888679
0.573008 0.301553 0.888684
0.572969 0.299934 0.888689
0.572931 0.298315 0.888694
0.572892 0.296696 0.888699
0.571877 0.295011 0.888956
0.571838 0.293393 0.888961
0.571799 0.291776 0.888966
0.569808 0.290036 0.889473
0.569769 0.288422 0.889478
0.569731 0.286808 0.889483
0.569692 0.285195 0.889488
0.569654 0.283581 0.889493
0.569615 0.281968 0.889498
0.569576 0.280354 0.889503
0.569538 0.278741 0.889508
0.568523 0.277079 0.889765
0.568485 0.275467 0.88977
0.568446 0.273856 0.889775
0.568408 0.272244 0.88978
0.568369 0.270632 0.889785
0.56833 0.26902 0.88979
0.568292 0.267408 0.889795
0.569229 0.265832 0.889549
0.568215 0.264185 0.889805
0.567201 0.262541 0.890061
0.567162 0.260931 0.890066
0.567124 0.259321 0.890071
0.567085 0.257711 0.890076
0.567047 0.256101 0.890081
0.567008 0.254491 0.890086
0.56697 0.252881 0.890091
0.566931 0.25127 0.890096
0.566893 0.24966 0.890101
0.566854 0.24805 0.890106
0.566816 0.24644 0.890111
0.564827 0.244805 0.890618
0.578144 0.459077 0.886178
0.578105 0.457455 0.886183
0.576106 0.455351 0.886696
0.576068 0.453732 0.886701
0.576029 0.452113 0.886706
0.57599 0.450494 0.886711
0.575952 0.448875 0.886716
0.575913 0.447257 0.886721
0.575874 0.445638 0.886726
0.575835 0.444019 0.886731
0.575797 0.4424 0.886736
0.575758 0.440781 0.886741
0.575719 0.439162 0.886746
0.575681 0.437544 0.886751
0.575642 0.435925 0.886756
0.575603 0.434306 0.886761
0.575564 0.432687 0.886766
0.575526 0.431068 0.886771
0.575487 0.42945 0.886776
0.575448 0.427831 0.886781
0.57443 0.426003 0.887039
0.574392 0.424386 0.887044
0.574353 0.422769 0.887049
0.574314 0.421151 0.887054
0.574276 0.419534 0.887059
0.574237 0.417917 0.887064
0.574198 0.4163 0.887069
0.57416 0.414683 0.887074
0.574121 0.413066 0.887079
0.574082 0.411449 0.887084
0.574044 0.409832 0.887089
0.574005 0.408215 0.887094
0.573966 0.406598 0.887099
0.573928 0.404981 0.887104
0.571932 0.402994 0.887616
0.571893 0.401381 0.887621
0.571854 0.399767 0.887626
0.571816 0.398154 0.887631
0.571777 0.39654 0.887636
0.571739 0.394927 0.887641
0.5717 0.393313 0.887646
0.571662 0.391699 0.887651
0.570645 0.389915 0.887909
0.570606 0.388303 0.887914
0.570567 0.386692 0.887919
0.570529 0.38508 0.887924
0.57049 0.383468 0.887929
0.570452 0.381856 0.887934
0.570413 0.380244 0.887939
0.570375 0.378633 0.887944
0.570336 0.377021 0.887949
0.570298 0.375409 0.887954
0.570259 0.373797 0.887959
0.570221 0.372185 0.887964
0.570182 0.370573 0.887969
0.570144 0.368962 0.887974
0.570105 0.36735 0.887979
0.570066 0.365738 0.887984
0.570028 0.364126 0.887989
0.569989 0.362514 0.887994
0.569951 0.360903 0.887999
0.569912 0.359291 0.888004
0.569874 0.357679 0.888009
0.569835 0.356067 0.888014
0.569797 0.354455 0.888019
0.569758 0.352844 0.888024
0.56972 0.351232 0.888029
0.569681 0.34962 0.888034
0.569643 0.348008 0.888039
0.569604 0.346396 0.888044
0.570543 0.344906 0.887796
0.570504 0.343292 0.887801
0.570465 0.341679 0.887806
0.570427 0.340065 0.887811
0.570388 0.338452 0.887816
0.57035 0.336838 0.887821
0.572265 0.335447 0.88732
0.572226 0.333829 0.887325
0.572188 0.332212 0.88733
0.573126 0.330701 0.887082
0.573087 0.329082 0.887087
0.573049 0.327463 0.887092
0.57301 0.325845 0.887097
0.572971 0.324226 0.887102
0.572932 0.322607 0.887107
0.572894 0.320988 0.887112
0.572855 0.319369 0.887117
0.572816 0.31775 0.887122
0.572778 0.316132 0.887127
0.572739 0.314513 0.887132
0.5727 0.312894 0.887137
0.572661 0.311275 0.887142
0.572623 0.309656 0.887147
0.572584 0.308037 0.887152
0.572545 0.306419 0.887157
0.572507 0.3048 0.887162
0.572468 0.303181 0.887167
0.572429 0.301562 0.887172
0.57239 0.299943 0.887177
0.572352 0.298324 0.887182
0.572313 0.296706 0.887187
0.571298 0.29502 0.887445
0.57126 0.293403 0.88745
0.571221 0.291786 0.887455
0.569231 0.290045 0.887966
0.569192 0.288431 0.887971
0.569154 0.286818 0.887976
0.569115 0.285204 0.887981
0.569077 0.28359 0.887986
0.569038 0.281977 0.887991
0.568999 0.280363 0.887996
0.568961 0.27875 0.888001
0.567947 0.277088 0.888259
0.567908 0.275477 0.888264
0.56787 0.273865 0.888269
0.567831 0.272253 0.888274
0.567793 0.270641 0.888279
0.567754 0.269029 0.888284
0.567716 0.267417 0.888289
0.568652 0.265841 0.888041
0.567638 0.264194 0.888299
0.566625 0.26255 0.888557
0.566586 0.26094 0.888562
0.566548 0.25933 0.888567
0.566509 0.25772 0.888572
0.566471 0.25611 0.888577
0.566432 0.2545 0.888582
0.566394 0.25289 0.888587
0.566355 0.25128 0.888592
0.566317 0.24967 0.888597
0.566278 0.248059 0.888602
0.56624 0.246449 0.888607
0.577564 0.459086 0.884663
0.577525 0.457464 0.884668
0.577486 0.455841 0.884673
0.577448 0.454219 0.884678
0.577409 0.452597 0.884683
0.57737 0.450974 0.884688
0.575373 0.448885 0.885203
0.575334 0.447266 0.885208
0.575295 0.445647 0.885213
0.575257 0.444028 0.885218
0.575218 0.442409 0.885223
0.575179 0.44079 0.885228
0.57514 0.439172 0.885233
0.57706 0.437996 0.884728
0.575063 0.435934 0.885243
0.575024 0.434315 0.885249
0.574986 0.432696 0.885254
0.574947 0.431078 0.885259
0.574908 0.429459 0.885264
0.574869 0.42784 0.885269
0.574831 0.426221 0.885274
0.574792 0.424602 0.885279
0.574753 0.422983 0.885284
0.574715 0.421365 0.885289
0.574676 0.419746 0.885294
0.574637 0.418127 0.885299
0.574599 0.416508 0.885304
0.57456 0.414889 0.885309
0.574521 0.41327 0.885314
0.574482 0.411652 0.885319
0.574444 0.410033 0.885324
0.574405 0.408414 0.885329
0.574366 0.406795 0.885334
0.573349 0.40499 0.885594
0.573311 0.403373 0.885599
0.573272 0.401756 0.885604
0.571277 0.399776 0.886119
0.571239 0.398163 0.886124
0.5712 0.396549 0.886129
0.571162 0.394936 0.886134
0.571123 0.393322 0.886139
0.571084 0.391709 0.886144
0.571046 0.390095 0.886149
0.571007 0.388481 0.886154
0.569991 0.386701 0.886414
0.569953 0.385089 0.886419
0.569914 0.383477 0.886424
0.569875 0.381865 0.886429
0.569837 0.380253 0.886434
0.569798 0.378642 0.886439
0.56976 0.37703 0.886444
0.569721 0.375418 0.886449
0.569683 0.373806 0.886454
0.570622 0.372346 0.886204
0.570583 0.370732 0.886209
0.569567 0.368971 0.886469
0.569529 0.367359 0.886474
0.56949 0.365747 0.886479
0.569452 0.364135 0.886484
0.569413 0.362524 0.886489
0.569374 0.360912 0.886494
0.569336 0.3593 0.886499
0.569297 0.357688 0.886504
0.569259 0.356076 0.886509
0.570197 0.354596 0.886259
0.570159 0.352983 0.886264
0.57012 0.351369 0.886269
0.570081 0.349756 0.886274
0.570043 0.348142 0.886279
0.570004 0.346529 0.886284
0.569966 0.344915 0.886289
0.569927 0.343302 0.886294
0.569888 0.341688 0.886299
0.56985 0.340074 0.886304
0.569811 0.338461 0.886309
0.569773 0.336847 0.886314
0.571687 0.335456 0.885809
0.571648 0.333839 0.885814
0.571609 0.332222 0.885819
0.571571 0.330604 0.885824
0.571532 0.328987 0.885829
0.571493 0.32737 0.885834
0.571455 0.325753 0.885839
0.571416 0.324136 0.885844
0.572353 0.322616 0.885595
0.572315 0.320997 0.8856
0.572276 0.319378 0.885605
0.572237 0.31776 0.88561
0.572199 0.316141 0.885615
0.57216 0.314522 0.88562
0.572121 0.312903 0.885625
0.572083 0.311284 0.88563
0.573995 0.309831 0.885126
0.573956 0.308209 0.885131
0.573918 0.306587 0.885136
0.573879 0.304964 0.885141
0.571889 0.30319 0.885655
0.57185 0.301571 0.88566
0.571812 0.299952 0.885665
0.571773 0.298334 0.88567
0.571734 0.296715 0.885675
0.571695 0.295096 0.88568
0.571657 0.293477 0.885685
0.571618 0.291858 0.88569
0.570604 0.290178 0.88595
0.570565 0.288561 0.885955
0.570527 0.286943 0.88596
0.568538 0.285213 0.886474
0.5685 0.2836 0.886479
0.568461 0.281986 0.886484
0.568422 0.280372 0.886489
0.568384 0.278759 0.886494
0.568345 0.277145 0.886499
0.568307 0.275532 0.886504
0.568268 0.273918 0.886509
0.568229 0.272305 0.886514
0.568191 0.270691 0.886519
0.568152 0.269077 0.886524
0.568114 0.267464 0.886529
0.568075 0.26585 0.886534
0.567062 0.264203 0.886793
0.566049 0.262559 0.887053
0.56601 0.260949 0.887058
0.565972 0.259339 0.887063
0.565933 0.257729 0.887068
0.565895 0.256119 0.887073
0.565857 0.254509 0.887078
0.565818 0.252899 0.887083
0.56578 0.251289 0.887088
0.565741 0.249679 0.887093
0.565703 0.248069 0.887098
0.565664 0.246458 0.887103
0.576984 0.459095 0.883147
0.576945 0.457473 0.883152
0.576906 0.455851 0.883157
0.576867 0.454228 0.883162
0.576829 0.452606 0.883168
0.57679 0.450984 0.883173
0.576751 0.449361 0.883178
0.576712 0.447739 0.883183
0.576673 0.446117 0.883188
0.576635 0.444494 0.883193
0.576596 0.442872 0.883198
0.576557 0.44125 0.883203
0.576518 0.439627 0.883208
0.57648 0.438005 0.883213
0.576441 0.436383 0.883218
0.576402 0.43476 0.883223
0.576363 0.433138 0.883228
0.576324 0.431516 0.883233
0.574329 0.429468 0.883751
0.574291 0.427849 0.883756
0.574252 0.42623 0.883761
0.574213 0.424611 0.883766
0.574174 0.422993 0.883771
0.574136 0.421374 0.883776
0.576053 0.420159 0.883268
0.576014 0.418537 0.883273
0.57402 0.416517 0.883791
0.573981 0.414898 0.883796
0.573942 0.41328 0.883801
0.573903 0.411661 0.883807
0.573865 0.410042 0.883812
0.573826 0.408423 0.883817
0.573787 0.406804 0.883822
0.572771 0.404999 0.884083
0.572732 0.403382 0.884088
0.572694 0.401765 0.884093
0.572655 0.400148 0.884098
0.570662 0.398172 0.884616
0.570623 0.396558 0.884621
0.570585 0.394945 0.884626
0.570546 0.393331 0.884631
0.570507 0.391718 0.884636
0.570469 0.390104 0.884641
0.57043 0.388491 0.884646
0.570392 0.386877 0.884651
0.569376 0.385098 0.884913
0.569338 0.383486 0.884918
0.569299 0.381874 0.884923
0.56926 0.380263 0.884928
0.570199 0.378809 0.884676
0.57016 0.377196 0.884681
0.570122 0.375582 0.884686
0.570083 0.373968 0.884691
0.570044 0.372355 0.884696
0.570006 0.370741 0.884701
0.569967 0.369128 0.884706
0.569929 0.367514 0.884711
0.56989 0.365901 0.884716
0.569852 0.364287 0.884721
0.569813 0.362673 0.884726
0.569774 0.36106 0.884731
0.569736 0.359446 0.884736
0.569697 0.357833 0.884741
0.569659 0.356219 0.884746
0.56962 0.354606 0.884751
0.569581 0.352992 0.884756
0.569543 0.351378 0.884761
0.569504 0.349765 0.884766
0.569466 0.348151 0.884771
0.569427 0.346538 0.884776
0.569389 0.344924 0.884781
0.56935 0.343311 0.884786
0.569311 0.341697 0.884791
0.569273 0.340084 0.884796
0.569234 0.33847 0.884801
0.569196 0.336856 0.884806
0.571108 0.335465 0.884299
0.57107 0.333848 0.884304
0.571031 0.332231 0.884309
0.570993 0.330614 0.884314
0.570954 0.328997 0.884319
0.570915 0.327379 0.884324
0.570877 0.325762 0.884329
0.570838 0.324145 0.884334
0.571775 0.322625 0.884082
0.571736 0.321006 0.884087
0.571697 0.319388 0.884092
0.571658 0.317769 0.884098
0.57162 0.31615 0.884103
0.571581 0.314531 0.884108
0.571542 0.312912 0.884113
0.571504 0.311293 0.884118
0.571465 0.309675 0.884123
0.571426 0.308056 0.884128
0.571387 0.306437 0.884133
0.573299 0.304973 0.883625
0.57131 0.303199 0.884143
0.571271 0.30158 0.884148
0.571233 0.299962 0.884153
0.571194 0.298343 0.884158
0.571155 0.296724 0.884163
0.571117 0.295105 0.884168
0.571078 0.293486 0.884173
0.571039 0.291867 0.884178
0.570026 0.290187 0.884439
0.569987 0.28857 0.884444
0.569949 0.286953 0.884449
0.567961 0.285222 0.884966
0.567922 0.283609 0.884971
0.567884 0.281995 0.884976
0.567845 0.280382 0.884981
0.567807 0.278768 0.884986
0.567768 0.277154 0.884991
0.56773 0.275541 0.884996
0.567691 0.273927 0.885001
0.567652 0.272314 0.885006
0.567614 0.2707 0.885011
0.567575 0.269087 0.885016
0.567537 0.267473 0.885022
0.567498 0.265859 0.885027
0.566486 0.264212 0.885288
0.565473 0.262568 0.885549
0.565435 0.260958 0.885554
0.565396 0.259348 0.885559
0.565358 0.257738 0.885564
0.565319 0.256128 0.885569
0.565281 0.254518 0.885574
0.565242 0.252908 0.885579
0.565204 0.251298 0.885584
0.565165 0.249688 0.885589
0.565127 0.248078 0.885594
0.565088 0.246468 0.885599
0.576404 0.459105 0.881632
0.576365 0.457482 0.881637
0.576326 0.45586 0.881642
0.576287 0.454237 0.881647
0.576248 0.452615 0.881652
0.57621 0.450993 0.881657
0.576171 0.44937 0.881662
0.576132 0.447748 0.881667
0.576093 0.446126 0.881672
0.576055 0.444503 0.881677
0.576016 0.442881 0.881682
0.575977 0.441259 0.881687
0.575938 0.439636 0.881692
0.575899 0.438014 0.881697
0.575861 0.436392 0.881702
0.575822 0.434769 0.881707
0.575783 0.433147 0.881712
0.575744 0.431525 0.881717
0.57375 0.429477 0.882239
0.573712 0.427858 0.882244
0.573673 0.426239 0.882249
0.573634 0.424621 0.882254
0.573595 0.423002 0.882259
0.573557 0.421383 0.882264
0.575473 0.420168 0.881753
0.575434 0.418546 0.881758
0.573441 0.416526 0.882279
0.573402 0.414908 0.882284
0.573363 0.413289 0.882289
0.573325 0.41167 0.882294
0.573286 0.410051 0.882299
0.573247 0.408432 0.882304
0.573208 0.406813 0.882309
0.572193 0.405008 0.882573
0.572154 0.403391 0.882578
0.572115 0.401774 0.882583
0.572077 0.400157 0.882588
0.570085 0.398181 0.883109
0.570046 0.396567 0.883114
0.570008 0.394954 0.883119
0.569969 0.39334 0.883124
0.56993 0.391727 0.883129
0.569892 0.390113 0.883134
0.569853 0.3885 0.883139
0.569815 0.386886 0.883144
0.5688 0.385107 0.883407
0.568761 0.383495 0.883412
0.568723 0.381883 0.883417
0.568684 0.380272 0.883422
0.569622 0.378818 0.883169
0.569583 0.377205 0.883174
0.569545 0.375591 0.883179
0.569506 0.373978 0.883184
0.569467 0.372364 0.883189
0.569429 0.37075 0.883194
0.56939 0.369137 0.883199
0.569352 0.367523 0.883204
0.569313 0.36591 0.883209
0.569275 0.364296 0.883214
0.569236 0.362683 0.883219
0.569197 0.361069 0.883224
0.569159 0.359455 0.883229
0.56912 0.357842 0.883234
0.569082 0.356228 0.883239
0.569043 0.354615 0.883244
0.569004 0.353001 0.883249
0.568966 0.351388 0.883254
0.568927 0.349774 0.883259
0.568889 0.34816 0.883264
0.56885 0.346547 0.883269
0.568812 0.344933 0.883274
0.568773 0.34332 0.883279
0.568734 0.341706 0.883284
0.568696 0.340093 0.883289
0.568657 0.338479 0.883294
0.568619 0.336866 0.883299
0.57053 0.335474 0.882788
0.570492 0.333857 0.882793
0.570453 0.33224 0.882798
0.570414 0.330623 0.882803
0.570376 0.329006 0.882808
0.570337 0.327389 0.882813
0.570298 0.325772 0.882818
0.57026 0.324154 0.882823
0.570221 0.322537 0.882828
0.570182 0.32092 0.882833
0.570144 0.319303 0.882838
0.570105 0.317686 0.882843
0.570066 0.316069 0.882848
0.570028 0.314452 0.882853
0.569989 0.312835 0.882858
0.56995 0.311218 0.882863
0.570886 0.309684 0.88261
0.570847 0.308065 0.882615
0.570809 0.306446 0.88262
0.57077 0.304827 0.882625
0.570731 0.303208 0.88263
0.570692 0.30159 0.882635
0.570654 0.299971 0.88264
0.570615 0.298352 0.882645
0.570576 0.296733 0.88265
0.570538 0.295114 0.882656
0.570499 0.293495 0.882661
0.57046 0.291877 0.882666
0.570421 0.290258 0.882671
0.570383 0.288639 0.882676
0.570344 0.28702 0.882681
0.570305 0.285401 0.882686
0.570267 0.283782 0.882691
0.569254 0.282111 0.882953
0.569216 0.280493 0.882958
0.569177 0.278876 0.882964
0.569138 0.277259 0.882969
0.567153 0.27555 0.883489
0.567114 0.273936 0.883494
0.567075 0.272323 0.883499
0.567037 0.270709 0.883504
0.566998 0.269096 0.883509
0.56696 0.267482 0.883514
0.566921 0.265869 0.883519
0.565909 0.264221 0.883782
0.565871 0.262609 0.883787
0.565832 0.260998 0.883792
0.565794 0.259386 0.883797
0.564782 0.257747 0.88406
0.564743 0.256137 0.884065
0.564705 0.254527 0.88407
0.564666 0.252917 0.884075
0.564628 0.251307 0.88408
0.564589 0.249697 0.884085
0.564551 0.248087 0.88409
0.564512 0.246477 0.884095
0.575823 0.459114 0.880116
0.575785 0.457491 0.880121
0.575746 0.455869 0.880126
0.575707 0.454247 0.880131
0.575668 0.452624 0.880136
0.57563 0.451002 0.880141
0.575591 0.44938 0.880147
0.575552 0.447757 0.880152
0.575513 0.446135 0.880157
0.575474 0.444513 0.880162
0.575436 0.44289 0.880167
0.575397 0.441268 0.880172
0.575358 0.439646 0.880177
0.575319 0.438023 0.880182
0.57528 0.436401 0.880187
0.575242 0.434779 0.880192
0.575203 0.433156 0.880197
0.575164 0.431534 0.880202
0.575125 0.429912 0.880207
0.575086 0.428289 0.880212
0.575048 0.426667 0.880217
0.575009 0.425045 0.880222
0.57497 0.423422 0.880227
0.574931 0.4218 0.880232
0.574892 0.420178 0.880237
0.574854 0.418555 0.880242
0.572862 0.416536 0.880767
0.572823 0.414917 0.880772
0.572784 0.413298 0.880777
0.572746 0.411679 0.880782
0.572707 0.41006 0.880787
0.572668 0.408441 0.880792
0.57263 0.406823 0.880797
0.572591 0.405204 0.880802
0.571576 0.4034 0.881067
0.571537 0.401783 0.881072
0.571499 0.400166 0.881077
0.569508 0.39819 0.881602
0.569469 0.396577 0.881607
0.569431 0.394963 0.881612
0.569392 0.393349 0.881617
0.569353 0.391736 0.881622
0.569315 0.390122 0.881627
0.569276 0.388509 0.881632
0.569238 0.386895 0.881637
0.569199 0.385282 0.881642
0.56916 0.383668 0.881647
0.569122 0.382054 0.881652
0.569083 0.380441 0.881657
0.569045 0.378827 0.881662
0.569006 0.377214 0.881667
0.568968 0.3756 0.881672
0.568929 0.373987 0.881677
0.56889 0.372373 0.881682
0.568852 0.37076 0.881687
0.568813 0.369146 0.881692
0.568775 0.367532 0.881697
0.568736 0.365919 0.881702
0.568697 0.364305 0.881707
0.568659 0.362692 0.881712
0.570571 0.361356 0.881197
0.570532 0.359739 0.881202
0.570493 0.358122 0.881207
0.570455 0.356505 0.881212
0.570416 0.354888 0.881217
0.570377 0.353271 0.881222
0.568389 0.351397 0.881747
0.56835 0.349783 0.881752
0.568312 0.34817 0.881757
0.568273 0.346556 0.881762
0.568235 0.344942 0.881767
0.568196 0.343329 0.881772
0.568157 0.341715 0.881777
0.568119 0.340102 0.881782
0.56808 0.338488 0.881787
0.568042 0.336875 0.881792
0.569952 0.335483 0.881277
0.569913 0.333866 0.881282
0.569875 0.332249 0.881288
0.569836 0.330632 0.881293
0.569797 0.329015 0.881298
0.569759 0.327398 0.881303
0.56972 0.325781 0.881308
0.569681 0.324164 0.881313
0.569643 0.322547 0.881318
0.569604 0.320929 0.881323
0.569565 0.319312 0.881328
0.569527 0.317695 0.881333
0.569488 0.316078 0.881338
0.569449 0.314461 0.881343
0.569411 0.312844 0.881348
0.569372 0.311227 0.881353
0.570307 0.309693 0.881098
0.570268 0.308074 0.881103
0.57023 0.306455 0.881108
0.570191 0.304836 0.881113
0.570152 0.303218 0.881118
0.570114 0.301599 0.881123
0.570075 0.29998 0.881128
0.570036 0.298361 0.881133
0.569997 0.296742 0.881138
0.569959 0.295123 0.881143
0.56992 0.293505 0.881148
0.569881 0.291886 0.881153
0.569843 0.290267 0.881158
0.569804 0.288648 0.881163
0.569765 0.287029 0.881168
0.569726 0.28541 0.881173
0.569688 0.283792 0.881178
0.569649 0.282173 0.881183
0.56961 0.280554 0.881188
0.569572 0.278935 0.881193
0.569533 0.277316 0.881198
0.568521 0.275651 0.881463
0.568483 0.274034 0.881468
0.568444 0.272417 0.881473
0.568405 0.2708 0.881478
0.568367 0.269183 0.881483
0.566383 0.267491 0.882007
0.566344 0.265878 0.882012
0.565333 0.26423 0.882276
0.565294 0.262618 0.882281
0.565256 0.261007 0.882286
0.565217 0.259395 0.882291
0.565179 0.257783 0.882296
0.56514 0.256171 0.882301
0.564129 0.254536 0.882566
0.564091 0.252926 0.882571
0.564052 0.251316 0.882576
0.564014 0.249706 0.882581
0.563975 0.248096 0.882586
0.563937 0.246486 0.882591
0.575243 0.459123 0.878601
0.575205 0.457501 0.878606
0.575166 0.455878 0.878611
0.575127 0.454256 0.878616
0.575088 0.452634 0.878621
0.575049 0.451011 0.878626
0.575011 0.449389 0.878631
0.574972 0.447766 0.878636
0.574933 0.446144 0.878641
0.574894 0.444522 0.878646
0.574855 0.442899 0.878651
0.574817 0.441277 0.878656
0.574778 0.439655 0.878661
0.574739 0.438032 0.878666
0.5747 0.43641 0.878671
0.574661 0.434788 0.878676
0.574623 0.433165 0.878681
0.574584 0.431543 0.878686
0.574545 0.429921 0.878691
0.574506 0.428298 0.878696
0.574467 0.426676 0.878701
0.574429 0.425054 0.878706
0.57439 0.423431 0.878711
0.574351 0.421809 0.878716
0.574312 0.420187 0.878721
0.574274 0.418564 0.878727
0.574235 0.416942 0.878732
0.574196 0.41532 0.878737
0.572205 0.413307 0.879265
0.572167 0.411688 0.87927
0.572128 0.410069 0.879275
0.572089 0.408451 0.87928
0.572051 0.406832 0.879285
0.572012 0.405213 0.87929
0.571973 0.403594 0.879295
0.571934 0.401975 0.8793
0.57092 0.400175 0.879566
0.568931 0.398199 0.880094
0.568892 0.396586 0.880099
0.568854 0.394972 0.880104
0.568815 0.393359 0.880109
0.568776 0.391745 0.880114
0.568738 0.390131 0.880119
0.568699 0.388518 0.880124
0.568661 0.386904 0.880129
0.568622 0.385291 0.880134
0.568583 0.383677 0.880139
0.568545 0.382064 0.880144
0.568506 0.38045 0.880149
0.568468 0.378836 0.880154
0.568429 0.377223 0.880159
0.568391 0.375609 0.880164
0.568352 0.373996 0.880169
0.568313 0.372382 0.880174
0.568275 0.370769 0.880179
0.568236 0.369155 0.880184
0.568198 0.367542 0.880189
0.568159 0.365928 0.880194
0.56812 0.364314 0.880199
0.568082 0.362701 0.880204
0.569992 0.361365 0.879687
0.569954 0.359748 0.879692
0.569915 0.358131 0.879697
0.569876 0.356514 0.879702
0.569838 0.354897 0.879707
0.569799 0.35328 0.879712
0.567812 0.351406 0.880239
0.567773 0.349792 0.880244
0.567735 0.348179 0.880249
0.567696 0.346565 0.880254
0.567657 0.344952 0.880259
0.567619 0.343338 0.880264
0.56758 0.341724 0.880269
0.567542 0.340111 0.880274
0.567503 0.338497 0.880279
0.567465 0.336884 0.880284
0.567426 0.33527 0.880289
0.567387 0.333657 0.880294
0.567349 0.332043 0.880299
0.56731 0.330429 0.880304
0.567272 0.328816 0.880309
0.567233 0.327202 0.880314
0.567194 0.325589 0.880319
0.567156 0.323975 0.880324
0.569064 0.322556 0.879807
0.569026 0.320939 0.879812
0.568987 0.319322 0.879817
0.568948 0.317704 0.879822
0.56891 0.316087 0.879827
0.568871 0.31447 0.879832
0.568832 0.312853 0.879837
0.568794 0.311236 0.879842
0.568755 0.309619 0.879847
0.568716 0.308002 0.879852
0.568678 0.306385 0.879857
0.568639 0.304768 0.879862
0.5686 0.303151 0.879867
0.568562 0.301534 0.879872
0.569496 0.299989 0.879616
0.568484 0.2983 0.879882
0.568446 0.296682 0.879887
0.568407 0.295065 0.879892
0.569341 0.293514 0.879636
0.569302 0.291895 0.879641
0.569264 0.290276 0.879646
0.569225 0.288657 0.879651
0.569186 0.287038 0.879656
0.569148 0.28542 0.879661
0.569109 0.283801 0.879666
0.56907 0.282182 0.879671
0.569031 0.280563 0.879676
0.568993 0.278944 0.879681
0.568954 0.277325 0.879686
0.567943 0.275661 0.879952
0.567904 0.274043 0.879957
0.567866 0.272426 0.879962
0.567827 0.270809 0.879967
0.567788 0.269192 0.879972
0.565806 0.2675 0.880499
0.565767 0.265887 0.880504
0.564756 0.264239 0.880771
0.564718 0.262628 0.880776
0.564679 0.261016 0.880781
0.564641 0.259404 0.880786
0.564602 0.257792 0.880791
0.564564 0.25618 0.880796
0.563553 0.254545 0.881062
0.563515 0.252935 0.881067
0.563476 0.251325 0.881072
0.563438 0.249715 0.881077
0.563399 0.248105 0.881082
0.563361 0.246495 0.881087
0.574663 0.459132 0.877085
0.574624 0.45751 0.87709
0.574586 0.455887 0.877095
0.574547 0.454265 0.8771
0.574508 0.452643 0.877105
0.574469 0.45102 0.87711
0.57443 0.449398 0.877115
0.574392 0.447776 0.87712
0.574353 0.446153 0.877126
0.574314 0.444531 0.877131
0.574275 0.442909 0.877136
0.574236 0.441286 0.877141
0.574198 0.439664 0.877146
0.574159 0.438042 0.877151
0.57412 0.436419 0.877156
0.574081 0.434797 0.877161
0.574042 0.433175 0.877166
0.574004 0.431552 0.877171
0.573965 0.42993 0.877176
0.573926 0.428308 0.877181
0.573887 0.426685 0.877186
0.573849 0.425063 0.877191
0.57381 0.423441 0.877196
0.573771 0.421818 0.877201
0.573732 0.420196 0.877206
0.573693 0.418574 0.877211
0.573655 0.416951 0.877216
0.573616 0.415329 0.877221
0.571626 0.413316 0.877752
0.571588 0.411697 0.877758
0.571549 0.410079 0.877763
0.57151 0.40846 0.877768
0.571472 0.406841 0.877773
0.570458 0.405036 0.878041
0.570419 0.403419 0.878046
0.570381 0.401801 0.878051
0.570342 0.400184 0.878056
0.568354 0.398208 0.878587
0.568315 0.396595 0.878592
0.568276 0.394981 0.878597
0.568238 0.393368 0.878602
0.568199 0.391754 0.878607
0.568161 0.390141 0.878612
0.568122 0.388527 0.878617
0.568084 0.386913 0.878622
0.568045 0.3853 0.878627
0.568006 0.383686 0.878632
0.567968 0.382073 0.878637
0.567929 0.380459 0.878642
0.567891 0.378846 0.878647
0.567852 0.377232 0.878652
0.567813 0.375618 0.878657
0.567775 0.374005 0.878662
0.569685 0.372694 0.878141
0.569646 0.371077 0.878146
0.569607 0.36946 0.878151
0.569569 0.367843 0.878156
0.56953 0.366226 0.878161
0.569491 0.364609 0.878166
0.569453 0.362992 0.878171
0.569414 0.361375 0.878176
0.569375 0.359758 0.878181
0.569337 0.35814 0.878186
0.569298 0.356523 0.878191
0.569259 0.354906 0.878196
0.569221 0.353289 0.878201
0.569182 0.351672 0.878206
0.569143 0.350055 0.878211
0.569105 0.348438 0.878216
0.567119 0.346574 0.878747
0.56708 0.344961 0.878752
0.567042 0.343347 0.878757
0.567003 0.341734 0.878762
0.566965 0.34012 0.878767
0.566926 0.338506 0.878772
0.566888 0.336893 0.878777
0.566849 0.335279 0.878782
0.56681 0.333666 0.878787
0.566772 0.332052 0.878792
0.566733 0.330439 0.878797
0.566695 0.328825 0.878802
0.566656 0.327211 0.878807
0.566617 0.325598 0.878812
0.566579 0.323984 0.878817
0.56654 0.322371 0.878822
0.566502 0.320757 0.878827
0.566463 0.319144 0.878832
0.566425 0.31753 0.878837
0.566386 0.315917 0.878842
0.566347 0.314303 0.878847
0.566309 0.312689 0.878852
0.56627 0.311076 0.878857
0.566232 0.309462 0.878862
0.566193 0.307849 0.878867
0.566154 0.306235 0.878872
0.566116 0.304622 0.878877
0.566077 0.303008 0.878882
0.566039 0.301394 0.878887
0.566 0.299781 0.878892
0.565962 0.298167 0.878897
0.565923 0.296554 0.878902
0.565884 0.29494 0.878907
0.56779 0.293457 0.878387
0.568723 0.291904 0.878129
0.567713 0.290223 0.878397
0.567674 0.288606 0.878402
0.568607 0.287048 0.878144
0.568569 0.285429 0.878149
0.56853 0.28381 0.878154
0.568491 0.282191 0.878159
0.568452 0.280572 0.878164
0.568414 0.278953 0.878169
0.568375 0.277335 0.878174
0.568336 0.275716 0.878179
0.568298 0.274097 0.878184
0.568259 0.272478 0.878189
0.567249 0.270818 0.878457
0.56721 0.269201 0.878462
0.567171 0.267584 0.878467
0.567133 0.265967 0.878472
0.565151 0.264282 0.879002
0.565113 0.262669 0.879007
0.565074 0.261055 0.879012
0.564064 0.259413 0.87928
0.564026 0.257801 0.879285
0.563987 0.256189 0.87929
0.563949 0.254578 0.879295
0.56391 0.252966 0.8793
0.563872 0.251354 0.879305
0.562862 0.249724 0.879572
0.562824 0.248114 0.879577
0.562785 0.246504 0.879582
0.574083 0.459141 0.87557
0.574044 0.457519 0.875575
0.574005 0.455897 0.87558
0.573967 0.454274 0.875585
0.573928 0.452652 0.87559
0.573889 0.45103 0.875595
0.57385 0.449407 0.8756
0.573811 0.447785 0.875605
0.573773 0.446163 0.87561
0.573734 0.44454 0.875615
0.573695 0.442918 0.87562
0.574632 0.441521 0.87536
0.573617 0.439673 0.87563
0.573579 0.438051 0.875635
0.57354 0.436429 0.87564
0.573501 0.434806 0.875645
0.573462 0.433184 0.87565
0.573424 0.431561 0.875655
0.573385 0.429939 0.87566
0.573346 0.428317 0.875665
0.573307 0.426694 0.87567
0.573268 0.425072 0.875675
0.57323 0.42345 0.87568
0.573191 0.421827 0.875685
0.573152 0.420205 0.87569
0.573113 0.418583 0.875695
0.573074 0.41696 0.875701
0.573036 0.415338 0.875706
0.571048 0.413325 0.87624
0.571009 0.411707 0.876245
0.57097 0.410088 0.87625
0.570931 0.408469 0.876255
0.570893 0.40685 0.87626
0.56988 0.405045 0.87653
0.569841 0.403428 0.876535
0.569802 0.401811 0.87654
0.569764 0.400194 0.876545
0.569725 0.398576 0.87655
0.569686 0.396959 0.876555
0.567699 0.39499 0.87709
0.567661 0.393377 0.877095
0.567622 0.391763 0.8771
0.567584 0.39015 0.877105
0.567545 0.388536 0.87711
0.567507 0.386923 0.877115
0.567468 0.385309 0.87712
0.567429 0.383695 0.877125
0.567391 0.382082 0.87713
0.567352 0.380468 0.877135
0.567314 0.378855 0.87714
0.567275 0.377241 0.877145
0.569184 0.375937 0.87662
0.569145 0.37432 0.876625
0.569106 0.372703 0.87663
0.569068 0.371086 0.876635
0.569029 0.369469 0.87664
0.56899 0.367852 0.876645
0.568952 0.366235 0.87665
0.568913 0.364618 0.876655
0.568874 0.363001 0.87666
0.568836 0.361384 0.876665
0.568797 0.359767 0.87667
0.569732 0.358285 0.876411
0.56872 0.356533 0.87668
0.568681 0.354915 0.876686
0.568642 0.353298 0.876691
0.568604 0.351681 0.876696
0.568565 0.350064 0.876701
0.568526 0.348447 0.876706
0.568488 0.34683 0.876711
0.568449 0.345213 0.876716
0.56841 0.343596 0.876721
0.566426 0.341743 0.877255
0.566388 0.340129 0.87726
0.566349 0.338516 0.877265
0.56631 0.336902 0.87727
0.566272 0.335288 0.877275
0.566233 0.333675 0.87728
0.566195 0.332061 0.877285
0.566156 0.330448 0.87729
0.566118 0.328834 0.877295
0.566079 0.327221 0.8773
0.56604 0.325607 0.877305
0.566002 0.323993 0.87731
0.565963 0.32238 0.877315
0.565925 0.320766 0.87732
0.565886 0.319153 0.877325
0.565848 0.317539 0.87733
0.565809 0.315926 0.877335
0.56577 0.314312 0.87734
0.565732 0.312699 0.877345
0.565693 0.311085 0.87735
0.565655 0.309471 0.877355
0.565616 0.307858 0.87736
0.565577 0.306244 0.877365
0.565539 0.304631 0.87737
0.5655 0.303017 0.877375
0.565462 0.301404 0.87738
0.565423 0.29979 0.877385
0.565385 0.298176 0.87739
0.565346 0.296563 0.877395
0.565307 0.294949 0.8774
0.567212 0.293467 0.876876
0.568145 0.291913 0.876617
0.567134 0.290232 0.876886
0.567096 0.288615 0.876891
0.568028 0.287057 0.876632
0.56799 0.285438 0.876637
0.567951 0.283819 0.876642
0.567912 0.2822 0.876647
0.567874 0.280581 0.876652
0.567835 0.278963 0.876657
0.567796 0.277344 0.876662
0.567757 0.275725 0.876667
0.567719 0.274106 0.876672
0.56768 0.272487 0.876677
0.56667 0.270828 0.876946
0.566632 0.269211 0.876951
0.566593 0.267593 0.876956
0.566554 0.265976 0.876961
0.564574 0.264292 0.877495
0.564536 0.262678 0.8775
0.564497 0.261064 0.877505
0.563488 0.259422 0.877774
0.563449 0.25781 0.877779
0.563411 0.256199 0.877784
0.563372 0.254587 0.877789
0.563334 0.252975 0.877794
0.563295 0.251363 0.877799
0.563257 0.249751 0.877804
0.563218 0.24814 0.877809
0.562209 0.246513 0.878078
0.573503 0.45915 0.874054
0.573464 0.457528 0.874059
0.573425 0.455906 0.874064
0.573386 0.454283 0.874069
0.573348 0.452661 0.874074
0.573309 0.451039 0.874079
0.57327 0.449416 0.874084
0.573231 0.447794 0.874089
0.573192 0.446172 0.874094
0.573154 0.444549 0.874099
0.573115 0.442927 0.874105
0.573076 0.441305 0.87411
0.573037 0.439682 0.874115
0.572999 0.43806 0.87412
0.57296 0.436438 0.874125
0.572921 0.434815 0.87413
0.572882 0.433193 0.874135
0.572843 0.431571 0.87414
0.572805 0.429948 0.874145
0.572766 0.428326 0.87415
0.572727 0.426704 0.874155
0.572688 0.425081 0.87416
0.572649 0.423459 0.874165
0.572611 0.421837 0.87417
0.572572 0.420214 0.874175
0.572533 0.418592 0.87418
0.572494 0.41697 0.874185
0.572455 0.415347 0.87419
0.570469 0.413334 0.874728
0.57043 0.411716 0.874733
0.570391 0.410097 0.874738
0.570353 0.408478 0.874743
0.570314 0.406859 0.874748
0.569301 0.405054 0.87502
0.569263 0.403437 0.875025
0.569224 0.40182 0.87503
0.569185 0.400203 0.875035
0.569147 0.398586 0.87504
0.569108 0.396969 0.875045
0.567122 0.395 0.875582
0.567084 0.393386 0.875587
0.567045 0.391772 0.875592
0.567007 0.390159 0.875597
0.566968 0.388545 0.875602
0.566929 0.386932 0.875607
0.566891 0.385318 0.875612
0.566852 0.383705 0.875617
0.566814 0.382091 0.875622
0.566775 0.380477 0.875627
0.566737 0.378864 0.875632
0.566698 0.37725 0.875637
0.568605 0.375947 0.87511
0.568567 0.374329 0.875115
0.568528 0.372712 0.87512
0.568489 0.371095 0.875125
0.568451 0.369478 0.87513
0.568412 0.367861 0.875135
0.568373 0.366244 0.87514
0.568335 0.364627 0.875145
0.568296 0.36301 0.87515
0.568257 0.361393 0.875155
0.568219 0.359776 0.87516
0.569153 0.358294 0.874899
0.568141 0.356542 0.87517
0.568103 0.354925 0.875175
0.568064 0.353308 0.87518
0.568025 0.35169 0.875185
0.567987 0.350073 0.87519
0.567948 0.348456 0.875195
0.567909 0.346839 0.8752
0.567871 0.345222 0.875205
0.567832 0.343605 0.87521
0.565849 0.341752 0.875747
0.565811 0.340138 0.875752
0.565772 0.338525 0.875757
0.565733 0.336911 0.875762
0.565695 0.335298 0.875767
0.565656 0.333684 0.875772
0.565618 0.33207 0.875777
0.565579 0.330457 0.875782
0.565541 0.328843 0.875787
0.565502 0.32723 0.875792
0.565463 0.325616 0.875797
0.565425 0.324003 0.875802
0.565386 0.322389 0.875807
0.565348 0.320775 0.875812
0.565309 0.319162 0.875817
0.56527 0.317548 0.875822
0.56426 0.315845 0.876094
0.564222 0.314233 0.876099
0.564183 0.312621 0.876104
0.564145 0.311009 0.876109
0.564106 0.309398 0.876114
0.564068 0.307786 0.876119
0.564029 0.306174 0.876124
0.563991 0.304562 0.876129
0.563952 0.30295 0.876134
0.563914 0.301338 0.876139
0.563875 0.299727 0.876144
0.563837 0.298115 0.876149
0.564769 0.296572 0.875887
0.56473 0.294958 0.875892
0.564692 0.293345 0.875897
0.564653 0.291731 0.875902
0.564615 0.290118 0.875907
0.566517 0.288625 0.87538
0.567449 0.287066 0.875119
0.567411 0.285447 0.875124
0.567372 0.283828 0.875129
0.567333 0.282209 0.875134
0.567295 0.280591 0.875139
0.567256 0.278972 0.875144
0.567217 0.277353 0.875149
0.567179 0.275734 0.875154
0.56714 0.274115 0.875159
0.567101 0.272496 0.875165
0.566092 0.270837 0.875436
0.566053 0.26922 0.875441
0.566015 0.267603 0.875446
0.565976 0.265986 0.875451
0.563997 0.264301 0.875987
0.563959 0.262687 0.875993
0.56392 0.261074 0.875998
0.562912 0.259431 0.876268
0.562873 0.25782 0.876273
0.562834 0.256208 0.876278
0.562796 0.254596 0.876283
0.562757 0.252984 0.876288
0.562719 0.251372 0.876293
0.56268 0.24976 0.876298
0.562642 0.248149 0.876303
0.561634 0.246522 0.876574
0.570974 0.458671 0.873075
0.570935 0.457052 0.87308
0.570896 0.455433 0.873085
0.572806 0.454293 0.872554
0.572767 0.45267 0.872559
0.572729 0.451048 0.872564
0.57269 0.449426 0.872569
0.572651 0.447803 0.872574
0.572612 0.446181 0.872579
0.572573 0.444559 0.872584
0.572535 0.442936 0.872589
0.572496 0.441314 0.872594
0.572457 0.439692 0.872599
0.572418 0.438069 0.872604
0.57238 0.436447 0.872609
0.572341 0.434825 0.872614
0.572302 0.433202 0.872619
0.572263 0.43158 0.872624
0.572224 0.429958 0.872629
0.572186 0.428335 0.872634
0.572147 0.426713 0.872639
0.572108 0.425091 0.872644
0.572069 0.423468 0.872649
0.57203 0.421846 0.872654
0.571992 0.420224 0.872659
0.571953 0.418601 0.872664
0.571914 0.416979 0.872669
0.571875 0.415356 0.872674
0.571836 0.413734 0.87268
0.569851 0.411725 0.873221
0.569812 0.410106 0.873226
0.569774 0.408487 0.873231
0.569735 0.406868 0.873236
0.569696 0.40525 0.873241
0.569657 0.403631 0.873246
0.569619 0.402012 0.873251
0.56958 0.400393 0.873256
0.568568 0.398595 0.873529
0.56853 0.396978 0.873534
0.568491 0.395361 0.873539
0.568452 0.393744 0.873544
0.568414 0.392126 0.873549
0.56643 0.390168 0.87409
0.566391 0.388554 0.874095
0.566352 0.386941 0.8741
0.568259 0.385658 0.873569
0.56822 0.384041 0.873574
0.568182 0.382424 0.873579
0.568143 0.380807 0.873584
0.568104 0.37919 0.873589
0.568066 0.377573 0.873594
0.568027 0.375956 0.873599
0.568961 0.374492 0.873336
0.568922 0.372873 0.873341
0.568883 0.371254 0.873346
0.568845 0.369635 0.873351
0.568806 0.368016 0.873356
0.568767 0.366398 0.873361
0.568729 0.364779 0.873366
0.56869 0.36316 0.873371
0.568651 0.361541 0.873376
0.568612 0.359922 0.873381
0.568574 0.358303 0.873386
0.568535 0.356685 0.873391
0.568496 0.355066 0.873396
0.568458 0.353447 0.873401
0.568419 0.351828 0.873406
0.56838 0.350209 0.873411
0.568341 0.348591 0.873416
0.567331 0.346848 0.873689
0.567292 0.345231 0.873694
0.567254 0.343614 0.873699
0.567215 0.341997 0.873704
0.567176 0.34038 0.873709
0.565195 0.338534 0.87425
0.565156 0.33692 0.874255
0.565118 0.335307 0.87426
0.565079 0.333693 0.874265
0.565041 0.33208 0.87427
0.565002 0.330466 0.874275
0.564964 0.328852 0.87428
0.564925 0.327239 0.874285
0.564886 0.325625 0.87429
0.564848 0.324012 0.874295
0.564809 0.322398 0.8743
0.5638 0.320689 0.874573
0.563761 0.319078 0.874578
0.563723 0.317466 0.874583
0.562713 0.315764 0.874856
0.562675 0.314154 0.874861
0.562636 0.312544 0.874866
0.562598 0.310934 0.874871
0.562559 0.309324 0.874876
0.562521 0.307714 0.874881
0.562482 0.306104 0.874886
0.562444 0.304493 0.874891
0.562405 0.302883 0.874896
0.562367 0.301273 0.874901
0.562328 0.299663 0.874906
0.56229 0.298053 0.874911
0.563222 0.296512 0.874648
0.563183 0.2949 0.874653
0.563144 0.293289 0.874658
0.564076 0.29174 0.874395
0.564038 0.290127 0.8744
0.565939 0.288634 0.87387
0.566871 0.287075 0.873607
0.566832 0.285456 0.873612
0.566793 0.283837 0.873617
0.566754 0.282219 0.873622
0.566716 0.2806 0.873627
0.566677 0.278981 0.873632
0.566638 0.277362 0.873637
0.5666 0.275743 0.873642
0.566561 0.274124 0.873647
0.566522 0.272506 0.873652
0.566483 0.270887 0.873657
0.566445 0.269268 0.873662
0.565437 0.267612 0.873935
0.565398 0.265995 0.87394
0.565359 0.264378 0.873945
0.563382 0.262696 0.874485
0.563343 0.261083 0.87449
0.563304 0.259469 0.874495
0.563266 0.257856 0.8745
0.563227 0.256242 0.874505
0.56222 0.254605 0.874778
0.562181 0.252993 0.874783
0.562142 0.251381 0.874788
0.562104 0.24977 0.874793
0.562065 0.248158 0.874798
0.562027 0.246546 0.874803
0.570395 0.45868 0.871563
0.570356 0.457061 0.871568
0.570317 0.455442 0.871573
0.572226 0.454302 0.871038
0.572187 0.452679 0.871043
0.572148 0.451057 0.871048
0.57211 0.449435 0.871053
0.572071 0.447812 0.871058
0.572032 0.44619 0.871063
0.571993 0.444568 0.871068
0.571955 0.442945 0.871073
0.571916 0.441323 0.871078
0.571877 0.439701 0.871084
0.572811 0.4383 0.870819
0.572773 0.436676 0.870824
0.571761 0.434834 0.871099
0.571722 0.433211 0.871104
0.571683 0.431589 0.871109
0.572617 0.430179 0.870844
0.572578 0.428555 0.870849
0.571567 0.426722 0.871124
0.571528 0.4251 0.871129
0.571489 0.423477 0.871134
0.57145 0.421855 0.871139
0.571411 0.420233 0.871144
0.571373 0.41861 0.871149
0.571334 0.416988 0.871154
0.571295 0.415366 0.871159
0.571256 0.413743 0.871164
0.569272 0.411734 0.871709
0.569233 0.410115 0.871714
0.569195 0.408496 0.871719
0.569156 0.406877 0.871724
0.569117 0.405259 0.871729
0.569079 0.40364 0.871734
0.56904 0.402021 0.871739
0.569001 0.400402 0.871744
0.568962 0.398783 0.871749
0.568924 0.397165 0.871754
0.567913 0.39537 0.872028
0.567874 0.393753 0.872033
0.567835 0.392136 0.872038
0.567797 0.390518 0.872043
0.567758 0.388901 0.872048
0.567719 0.387284 0.872053
0.567681 0.385667 0.872058
0.567642 0.38405 0.872063
0.567603 0.382433 0.872068
0.567565 0.380816 0.872073
0.567526 0.379199 0.872078
0.567487 0.377582 0.872083
0.567449 0.375965 0.872089
0.568382 0.374501 0.871824
0.568343 0.372882 0.871829
0.568304 0.371263 0.871834
0.568266 0.369644 0.871839
0.568227 0.368026 0.871844
0.568188 0.366407 0.871849
0.56815 0.364788 0.871854
0.570054 0.363451 0.87132
0.570015 0.361829 0.871325
0.569976 0.360206 0.87133
0.569937 0.358584 0.871335
0.569899 0.356962 0.87134
0.56986 0.355339 0.871345
0.569821 0.353717 0.87135
0.569782 0.352095 0.871355
0.567801 0.350219 0.871899
0.567763 0.3486 0.871904
0.567724 0.346981 0.871909
0.567685 0.345362 0.871914
0.567646 0.343743 0.871919
0.566637 0.342006 0.872194
0.566598 0.340389 0.872199
0.56656 0.338772 0.872204
0.564579 0.336929 0.872748
0.564541 0.335316 0.872753
0.564502 0.333702 0.872758
0.564464 0.332089 0.872763
0.564425 0.330475 0.872768
0.564386 0.328862 0.872773
0.564348 0.327248 0.872778
0.564309 0.325634 0.872783
0.564271 0.324021 0.872788
0.564232 0.322407 0.872793
0.563223 0.320698 0.873067
0.563185 0.319087 0.873072
0.563146 0.317475 0.873077
0.562137 0.315773 0.873352
0.562099 0.314163 0.873357
0.56206 0.312553 0.873362
0.562022 0.310943 0.873367
0.561983 0.309333 0.873372
0.561945 0.307723 0.873377
0.561906 0.306113 0.873382
0.561868 0.304503 0.873387
0.561829 0.302892 0.873392
0.561791 0.301282 0.873397
0.561752 0.299672 0.873402
0.561714 0.298062 0.873407
0.562645 0.296521 0.873142
0.562607 0.294909 0.873147
0.562568 0.293298 0.873152
0.563499 0.29175 0.872888
0.563461 0.290136 0.872893
0.565361 0.288643 0.872359
0.565322 0.287026 0.872364
0.565284 0.285409 0.872369
0.566214 0.283847 0.872105
0.566176 0.282228 0.87211
0.566137 0.280609 0.872115
0.566098 0.27899 0.87212
0.566059 0.277371 0.872125
0.566021 0.275752 0.87213
0.565982 0.274134 0.872135
0.565943 0.272515 0.87214
0.565905 0.270896 0.872145
0.565866 0.269277 0.87215
0.564858 0.267621 0.872424
0.56482 0.266004 0.872429
0.564781 0.264387 0.872434
0.562805 0.262705 0.872978
0.562766 0.261092 0.872983
0.562727 0.259478 0.872988
0.562689 0.257865 0.872993
0.56265 0.256251 0.872998
0.561643 0.254614 0.873272
0.561605 0.253002 0.873277
0.561566 0.251391 0.873282
0.561527 0.249779 0.873287
0.561489 0.248167 0.873292
0.56145 0.246555 0.873297
0.569816 0.458689 0.870051
0.569777 0.45707 0.870056
0.569738 0.455451 0.870061
0.571646 0.454311 0.869523
0.571607 0.452689 0.869528
0.571568 0.451066 0.869533
0.57153 0.449444 0.869538
0.571491 0.447822 0.869543
0.571452 0.446199 0.869548
0.571413 0.444577 0.869553
0.571374 0.442955 0.869558
0.571336 0.441332 0.869563
0.571297 0.43971 0.869568
0.571258 0.438088 0.869573
0.571219 0.436465 0.869578
0.57118 0.434843 0.869583
0.571142 0.433221 0.869588
0.571103 0.431598 0.869593
0.571064 0.429976 0.869598
0.571025 0.428354 0.869603
0.570986 0.426731 0.869608
0.570948 0.425109 0.869613
0.570909 0.423487 0.869618
0.57087 0.421864 0.869623
0.570831 0.420242 0.869628
0.570792 0.41862 0.869633
0.570754 0.416997 0.869638
0.570715 0.415375 0.869643
0.570676 0.413753 0.869648
0.568693 0.411743 0.870196
0.568654 0.410124 0.870201
0.568616 0.408505 0.870206
0.568577 0.406887 0.870211
0.568538 0.405268 0.870216
0.5685 0.403649 0.870221
0.568461 0.40203 0.870226
0.568422 0.400411 0.870231
0.568384 0.398793 0.870236
0.568345 0.397174 0.870241
0.567335 0.395379 0.870518
0.567296 0.393762 0.870523
0.567257 0.392145 0.870528
0.567219 0.390528 0.870533
0.56718 0.388911 0.870538
0.567141 0.387293 0.870543
0.567103 0.385676 0.870548
0.567064 0.384059 0.870553
0.567025 0.382442 0.870558
0.566987 0.380825 0.870563
0.566948 0.379208 0.870568
0.566909 0.377591 0.870573
0.566871 0.375974 0.870578
0.567803 0.37451 0.870312
0.567764 0.372891 0.870317
0.567726 0.371272 0.870322
0.567687 0.369654 0.870327
0.567648 0.368035 0.870332
0.567609 0.366416 0.870337
0.567571 0.364797 0.870342
0.567532 0.363178 0.870347
0.569435 0.361838 0.869809
0.569396 0.360215 0.869814
0.569357 0.358593 0.869819
