ply
format ascii 1.0
comment PCL generated
element vertex 1450
property float x
property float y
property float z
element camera 0
property float view_px
property float view_py
property float view_pz
property float x_axisx
property float x_axisy
property float x_axisz
property float y_axisx
property float y_axisy
property float y_axisz
property float z_axisx
property float z_axisy
property float z_axisz
property float focal
property float scalex
property float scaley
property float centerx
property float centery
property int viewportx
property int viewporty
property float k1
property float k2
end_header
0.84419245 0.40694436 0.6081835
0.84413898 0.40470994 0.60819048
0.84224468 0.40220964 0.60900193
0.84219134 0.3999787 0.60900885
0.84213799 0.39774776 0.60901576
0.84208465 0.39551684 0.60902268
0.8420313 0.3932859 0.60902959
0.83921748 0.39068249 0.6102432
0.83916426 0.38845679 0.61025006
0.83911103 0.38623115 0.61025697
0.83905786 0.38400546 0.61026388
0.83900464 0.38177982 0.6102708
0.83895141 0.37955412 0.61027765
0.83889818 0.37732846 0.61028457
0.83884495 0.37510279 0.61029148
0.83879173 0.37287712 0.6102984
0.83873856 0.37065145 0.61030525
0.83868533 0.36842579 0.61031216
0.83863211 0.36620012 0.61031908
0.83857888 0.36397445 0.61032593
0.83852565 0.36174878 0.61033285
0.84123117 0.35982195 0.6091333
0.84117782 0.357591 0.60914022
0.84112448 0.35536009 0.60914713
0.84291017 0.35331783 0.60834974
0.84285676 0.3510834 0.60835665
0.8428033 0.34884897 0.60836357
0.84274989 0.34661454 0.60837048
0.84269649 0.34438008 0.60837746
0.84264302 0.34214565 0.60838437
0.84534723 0.34016269 0.60718501
0.84529364 0.33792299 0.60719192
0.84524012 0.33568329 0.60719889
0.84518653 0.33344358 0.60720581
0.84513301 0.33120388 0.60721278
0.84507942 0.32896417 0.6072197
0.8450259 0.32672447 0.60722667
0.84497231 0.32448477 0.60723358
0.84491879 0.32224509 0.6072405
0.84210879 0.31980127 0.60845363
0.84205532 0.31756681 0.60846055
0.84200191 0.31533238 0.60846746
0.84194851 0.31309795 0.60847437
0.84005761 0.31074148 0.60928541
0.84000427 0.30851054 0.60929233
0.83995092 0.3062796 0.60929924
0.83989757 0.30404869 0.60930616
0.83708876 0.30165571 0.61051911
0.83703554 0.29943004 0.61052603
0.83698237 0.29720438 0.61053294
0.83692914 0.29497871 0.61053979
0.83687592 0.29275304 0.61054671
0.83682269 0.29052737 0.61055362
0.83401465 0.28817126 0.61176646
0.83396161 0.28595087 0.61177337
0.8339085 0.28373045 0.61178023
0.83385539 0.28151003 0.61178714
0.83380228 0.27928963 0.61179399
0.83374923 0.27706921 0.61180091
0.83369613 0.27484882 0.61180776
0.83364302 0.2726284 0.61181462
0.83358991 0.270408 0.61182153
0.83353686 0.26818758 0.61182839
0.83348376 0.26596719 0.6118353
0.83343065 0.26374677 0.61184216
0.8333776 0.26152638 0.61184907
0.83332449 0.25930595 0.61185592
0.83327138 0.25708556 0.61186284
0.83321828 0.25486514 0.61186969
0.83316523 0.25264475 0.61187661
0.83311212 0.25042433 0.61188346
0.83305901 0.24820393 0.61189038
0.83117104 0.2459632 0.612701
0.83111799 0.2437463 0.61270785
0.831065 0.24152941 0.61271471
0.83101201 0.2393125 0.61272162
0.83095896 0.23709559 0.61272848
0.83090597 0.2348787 0.61273533
0.83085299 0.2326618 0.61274219
0.83079994 0.23044491 0.6127491
0.83074695 0.228228 0.61275595
0.83069396 0.2260111 0.61276281
0.83064091 0.22379421 0.61276972
0.83058792 0.2215773 0.61277658
0.83053493 0.21936041 0.61278343
0.83048195 0.21714351 0.61279029
0.83226264 0.21489781 0.61199355
0.83220953 0.2126774 0.61200047
0.83215648 0.210457 0.61200732
0.83210337 0.20823659 0.61201423
0.83480042 0.20595196 0.61081576
0.8347472 0.20372629 0.61082262
0.83469397 0.20150062 0.61082953
0.83464074 0.19927496 0.61083645
0.83458757 0.19704929 0.61084336
0.83453435 0.19482361 0.61085021
0.83448112 0.19259794 0.61085713
0.83717704 0.19027121 0.60965884
0.83895653 0.1879694 0.60886222
0.83890313 0.18573496 0.60886914
0.83884972 0.18350053 0.60887605
0.83879626 0.18126608 0.60888302
0.83874285 0.17903166 0.60888994
0.84143782 0.17666458 0.60769176
0.83863598 0.17456277 0.60890377
0.8484754 0.4278281 0.60401404
0.84842175 0.42558491 0.60402101
0.84836811 0.42334169 0.60402799
0.84647417 0.42080453 0.60484284
0.84642059 0.41856486 0.60484976
0.84636706 0.41632515 0.60485673
0.84631348 0.41408545 0.60486364
0.84625995 0.41184574 0.60487062
0.84344679 0.40919143 0.60608929
0.84339339 0.406957 0.60609621
0.84333992 0.40472257 0.60610312
0.84144688 0.40222225 0.60691786
0.84139353 0.3999913 0.60692477
0.84134018 0.39776036 0.60693169
0.84128684 0.39552945 0.6069386
0.84123349 0.39329851 0.60694551
0.83842158 0.39069507 0.60816401
0.83836836 0.3884694 0.60817093
0.83831513 0.38624373 0.60817784
0.8382619 0.38401806 0.60818475
0.83820868 0.3817924 0.60819161
0.83815545 0.37956673 0.60819852
0.83810222 0.37734106 0.60820544
0.83804905 0.37511539 0.60821235
0.83799583 0.37288973 0.60821921
0.8379426 0.37066403 0.60822612
0.83788937 0.36843839 0.60823303
0.83783615 0.3662127 0.60823995
0.83778292 0.36398706 0.6082468
0.83772975 0.36176136 0.60825372
0.84043336 0.35983455 0.60704929
0.84038001 0.35760361 0.6070562
0.84032667 0.3553727 0.60706311
0.84211111 0.35333046 0.60626239
0.8420577 0.35109603 0.60626936
0.84200424 0.3488616 0.60627627
0.84195083 0.34662718 0.60628319
0.84189737 0.34439272 0.6062901
0.84184396 0.34215829 0.60629702
0.84454626 0.34017536 0.60509276
0.84449267 0.33793566 0.60509968
0.84443915 0.33569595 0.60510665
0.84438556 0.33345625 0.60511357
0.84433204 0.33121654 0.60512048
0.84427845 0.32897684 0.60512745
0.84422493 0.32673714 0.60513437
0.84417135 0.32449743 0.60514134
0.84411782 0.32225776 0.60514826
0.84130967 0.31981391 0.60636628
0.84125626 0.31757945 0.60637319
0.84120286 0.31534502 0.60638016
0.84114939 0.31311059 0.60638708
0.8392598 0.31075409 0.6072014
0.83920646 0.30852315 0.60720831
0.83915311 0.30629224 0.60721523
0.83909976 0.30406129 0.60722214
0.83629286 0.30166832 0.60843998
0.83623964 0.29944265 0.6084469
0.83618641 0.29721698 0.60845375
0.83613318 0.29499131 0.60846066
0.83607996 0.29276565 0.60846758
0.83602679 0.29053998 0.60847449
0.8332206 0.28818381 0.60969228
0.83316755 0.28596342 0.60969913
0.83311445 0.28374299 0.60970598
0.83306134 0.2815226 0.6097129
0.83300823 0.27930218 0.60971975
0.83295518 0.27708179 0.60972667
0.83290207 0.27486137 0.60973352
0.83284897 0.27264097 0.60974044
0.83279586 0.27042055 0.60974729
0.83274281 0.26820016 0.6097542
0.8326897 0.26597974 0.60976106
0.83263659 0.26375934 0.60976797
0.83258355 0.26153892 0.60977483
0.83253044 0.25931853 0.60978174
0.83247733 0.25709811 0.6097886
0.83242422 0.25487772 0.60979545
0.83237118 0.25265729 0.60980237
0.83231807 0.2504369 0.60980922
0.83226496 0.24821648 0.60981613
0.83037823 0.24597573 0.61063004
0.83032525 0.24375884 0.61063689
0.8302722 0.24154194 0.6106438
0.83021921 0.23932503 0.61065066
0.83016622 0.23710814 0.61065751
0.83011317 0.23489124 0.61066443
0.83006018 0.23267435 0.61067128
0.8300072 0.23045744 0.61067814
0.82995415 0.22824053 0.61068499
0.82990116 0.22602364 0.61069191
0.82984817 0.22380674 0.61069876
0.82979512 0.22158985 0.61070561
0.82974213 0.21937294 0.61071247
0.82968915 0.21715604 0.61071938
0.8296361 0.21493915 0.61072624
0.82958311 0.21272224 0.61073309
0.82953012 0.21050535 0.61074001
0.82947707 0.20828845 0.61074686
0.83125621 0.20602874 0.60994691
0.8312031 0.20380834 0.60995376
0.83115005 0.20158793 0.60996068
0.83109695 0.19936752 0.60996753
0.83379161 0.19706187 0.60876417
0.83373839 0.1948362 0.60877109
0.83368516 0.19261053 0.608778
0.83363199 0.19038486 0.60878491
0.83632588 0.18805291 0.60758168
0.83627254 0.18582197 0.60758859
0.83621919 0.18359104 0.6075955
0.8379972 0.18127872 0.60679567
0.83794379 0.17904429 0.60680258
0.84063685 0.17667724 0.60559952
0.83783692 0.1745754 0.60681647
0.84767318 0.4278408 0.60191852
0.84761953 0.42559758 0.60192549
0.84756589 0.42335439 0.60193241
0.8456732 0.42081723 0.6027506
0.84561968 0.41857752 0.60275751
0.84556609 0.41633782 0.60276449
0.84551257 0.41409811 0.6027714
0.84545898 0.41185841 0.60277838
0.84264773 0.40920407 0.60400194
0.84259427 0.40696964 0.60400885
0.84070241 0.40446579 0.60482693
0.84064907 0.40223485 0.60483384
0.84059572 0.40000391 0.60484076
0.84054238 0.397773 0.60484767
0.84048903 0.39554209 0.60485458
0.84043568 0.39331114 0.6048615
0.84038234 0.3910802 0.60486841
0.84032899 0.38884926 0.60487533
0.83751917 0.38625631 0.60609871
0.83746594 0.38403064 0.60610563
0.83741277 0.38180497 0.60611248
0.83735955 0.37957931 0.60611939
0.83730632 0.37735364 0.60612631
0.83725309 0.37512797 0.60613322
0.83719987 0.3729023 0.60614008
0.83714664 0.37067664 0.60614699
0.83709347 0.36845097 0.60615391
0.83979559 0.36653996 0.60494447
0.83974224 0.36430904 0.60495138
0.8396889 0.3620781 0.6049583
0.83963555 0.35984719 0.60496521
0.84141886 0.35781199 0.6041612
0.84136546 0.35557756 0.60416818
0.84131205 0.3533431 0.60417509
0.84125859 0.35110867 0.604182
0.84120518 0.34887424 0.60418892
0.84115177 0.34663981 0.60419583
0.84109831 0.34440535 0.60420281
0.8410449 0.34217092 0.60420972
0.84374529 0.34018803 0.60300052
0.84369177 0.33794832 0.60300744
0.84363818 0.33570862 0.60301441
0.84358466 0.33346891 0.60302132
0.84353107 0.33122921 0.6030283
0.84347755 0.32898954 0.60303521
0.84342396 0.3267498 0.60304213
0.84337044 0.3245101 0.6030491
0.84331685 0.32227042 0.60305601
0.84051061 0.31982654 0.60427898
0.8404572 0.31759208 0.6042859
0.8404038 0.31535766 0.60429281
0.84035033 0.31312323 0.60429972
0.838462 0.3107667 0.60511732
0.83840865 0.30853575 0.60512424
0.8383553 0.30630484 0.60513115
0.83830196 0.3040739 0.60513806
0.8354969 0.30168089 0.60636085
0.83544368 0.29945523 0.60636777
0.83539051 0.29722956 0.60637462
0.83533728 0.29500389 0.60638154
0.83528405 0.29277822 0.60638845
0.83523083 0.29055256 0.60639536
0.83242655 0.28819638 0.60761803
0.8323735 0.28597596 0.60762489
0.83232039 0.28375557 0.6076318
0.83226728 0.28153515 0.60763866
0.83221418 0.27931476 0.60764557
0.83216113 0.27709433 0.60765243
0.83210802 0.27487391 0.60765934
0.83205491 0.27265352 0.60766619
0.83200181 0.27043313 0.60767311
0.83194876 0.26821271 0.60767996
0.83189565 0.26599231 0.60768682
0.83184254 0.26377189 0.60769373
0.83178949 0.2615515 0.60770059
0.83173639 0.25933108 0.6077075
0.83168328 0.25711069 0.60771435
0.83163017 0.25489026 0.60772127
0.83157712 0.25266987 0.60772812
0.83152401 0.25044945 0.60773504
0.83147091 0.24822904 0.60774189
0.82958543 0.24598828 0.60855907
0.82953244 0.24377137 0.60856599
0.8294794 0.24155448 0.60857284
0.82942641 0.23933758 0.6085797
0.82937342 0.23712067 0.60858661
0.82932037 0.23490378 0.60859346
0.82926738 0.23268688 0.60860032
0.82921439 0.23046997 0.60860717
0.82916135 0.22825308 0.60861409
0.82910836 0.22603618 0.60862094
0.82905537 0.22381929 0.6086278
0.82900232 0.22160238 0.60863471
0.82894933 0.21938547 0.60864156
0.82889634 0.21716858 0.60864842
0.8288433 0.21495168 0.60865527
0.82879031 0.21273477 0.60866219
0.82873732 0.21051788 0.60866904
0.82868427 0.20830098 0.6086759
0.83046216 0.20604131 0.60787266
0.83040905 0.2038209 0.60787952
0.830356 0.20160049 0.60788643
0.83030289 0.19938008 0.60789329
0.83299571 0.19707446 0.60668504
0.83294249 0.19484879 0.60669196
0.83288926 0.19262312 0.60669887
0.83283603 0.19039746 0.60670578
0.83552808 0.18806551 0.60549766
0.83547473 0.18583459 0.60550457
0.83542138 0.18360366 0.60551149
0.83719814 0.18129136 0.60470837
0.83714467 0.17905693 0.60471529
0.83983594 0.17668992 0.60350728
0.83703786 0.17458804 0.60472912
0.84681731 0.42561027 0.59982997
0.84676367 0.42336705 0.59983695
0.84487224 0.42082989 0.60065836
0.84481871 0.41859019 0.60066527
0.84476513 0.41635048 0.60067225
0.8447116 0.41411078 0.60067916
0.84465802 0.41187108 0.60068613
0.84184867 0.4092167 0.60191458
0.84179521 0.40698227 0.60192156
0.83990461 0.4044784 0.60274285
0.83985126 0.40224749 0.60274976
0.83979791 0.40001655 0.60275668
0.83974457 0.3977856 0.60276359
0.83969122 0.39555469 0.60277051
0.83963788 0.39332375 0.60277742
0.83958453 0.39109281 0.60278434
0.83953118 0.38886189 0.60279125
0.83947784 0.38663095 0.60279816
0.83942449 0.38440004 0.60280508
0.83937114 0.3821691 0.60281199
0.8393178 0.37993819 0.60281891
0.83926445 0.37770724 0.60282582
0.83921111 0.3754763 0.60283273
0.83915776 0.37324536 0.60283965
0.83910441 0.37101445 0.60284656
0.83905107 0.3687835 0.60285348
0.83899772 0.36655259 0.60286039
0.83894438 0.36432165 0.60286731
0.83889103 0.36209074 0.60287422
0.84067327 0.36005905 0.60206699
0.8406198 0.35782462 0.60207391
0.8405664 0.35559019 0.60208082
0.84051299 0.35335574 0.60208774
0.84045953 0.35112131 0.60209465
0.84040612 0.34888688 0.60210162
0.84035265 0.34665245 0.60210854
0.84029925 0.34441799 0.60211545
0.84299791 0.34244037 0.60090131
0.84294432 0.34020069 0.60090828
0.8428908 0.33796099 0.60091519
0.84283721 0.33572128 0.60092217
0.84278369 0.33348158 0.60092908
0.8427301 0.33124188 0.600936
0.84267658 0.3290022 0.60094297
0.842623 0.32676247 0.60094988
0.84256947 0.32452276 0.60095686
0.84251595 0.32228309 0.60096377
0.83971155 0.31983918 0.60219163
0.83965814 0.31760475 0.60219854
0.83960468 0.31537029 0.60220546
0.83955127 0.31313586 0.60221243
0.83766419 0.31077933 0.60303324
0.83761084 0.30854839 0.60304016
0.83755749 0.30631745 0.60304713
0.83750415 0.30408654 0.60305405
0.834701 0.3016935 0.60428172
0.83464777 0.2994678 0.60428858
0.83459455 0.29724213 0.60429549
0.83454132 0.29501647 0.60430241
0.83448809 0.2927908 0.60430932
0.83443487 0.29056513 0.60431617
0.83163249 0.28820893 0.60554379
0.83157945 0.28598854 0.60555071
0.83152634 0.28376812 0.60555756
0.83147323 0.2815477 0.60556448
0.83142012 0.2793273 0.60557133
0.83136708 0.27710688 0.60557824
0.83131397 0.27488649 0.6055851
0.83126086 0.2726661 0.60559195
0.83120775 0.27044567 0.60559887
0.8311547 0.26822528 0.60560572
0.8311016 0.26600486 0.60561264
0.83104849 0.26378444 0.60561949
0.83099544 0.26156405 0.6056264
0.83094233 0.25934362 0.60563326
0.83088923 0.25712323 0.60564017
0.83083612 0.25490281 0.60564703
0.83078307 0.25268242 0.60565394
0.83072996 0.250462 0.6056608
0.83067685 0.2482416 0.60566771
0.82879263 0.24600081 0.60648817
0.82873964 0.24378391 0.60649502
0.82868659 0.24156702 0.60650188
0.82863361 0.23935011 0.60650879
0.82858062 0.23713322 0.60651565
0.82852757 0.23491631 0.6065225
0.82847458 0.23269941 0.60652936
0.82842159 0.23048252 0.60653627
0.82836854 0.22826561 0.60654312
0.82831556 0.22604872 0.60654998
0.82826257 0.22383182 0.60655689
0.82820952 0.22161491 0.60656375
0.82815653 0.21939802 0.6065706
0.82810354 0.21718112 0.60657746
0.82805049 0.21496421 0.60658437
0.82799751 0.21274732 0.60659122
0.82794452 0.21053042 0.60659808
0.82789147 0.20831352 0.60660493
0.82783848 0.20609662 0.60661185
0.82778549 0.20387971 0.6066187
0.82773244 0.20166282 0.60662556
0.82767946 0.19944592 0.60663247
0.82945573 0.19717222 0.60582596
0.83214653 0.19486138 0.60461283
0.8320933 0.1926357 0.60461974
0.83204007 0.19041003 0.6046266
0.83473027 0.18807814 0.60341358
0.83467692 0.18584721 0.6034205
0.83462358 0.18361628 0.60342741
0.83639908 0.18130399 0.60262102
0.83634561 0.17906956 0.60262793
0.83903497 0.17670259 0.60141504
0.8362388 0.17460068 0.60264176
0.8460151 0.42562297 0.59773445
0.84596151 0.42337975 0.59774137
0.84407133 0.42084256 0.59856611
0.84401774 0.41860285 0.59857303
0.84396422 0.41636315 0.59858
0.84391063 0.41412345 0.59858692
0.84385711 0.41188374 0.59859389
0.84104955 0.40922934 0.59982729
0.84099615 0.40699491 0.5998342
0.8391068 0.40449104 0.60065883
0.83905345 0.40226009 0.60066575
0.83900011 0.40002915 0.60067266
0.83894676 0.39779821 0.60067958
0.83889341 0.3955673 0.60068649
0.83884007 0.39333636 0.6006934
0.83878672 0.39110544 0.60070032
0.83873338 0.3888745 0.60070723
0.83868003 0.38664359 0.60071415
0.83862668 0.38441265 0.60072106
0.83857334 0.3821817 0.60072798
0.83851999 0.37995079 0.60073489
0.83846664 0.37771985 0.6007418
0.8384133 0.37548894 0.60074872
0.83835995 0.37325799 0.60075563
0.83830661 0.37102708 0.60076255
0.83825326 0.36879614 0.60076946
0.83819991 0.3665652 0.60077637
0.83814657 0.36433426 0.60078329
0.83809322 0.36210334 0.6007902
0.83987415 0.36007172 0.59997964
0.83982074 0.35783726 0.59998655
0.83976734 0.35560283 0.59999347
0.83971387 0.35336837 0.60000044
0.83966047 0.35113394 0.60000736
0.83960706 0.34889951 0.60001427
0.83955359 0.34666508 0.60002118
0.83950019 0.34443063 0.6000281
0.84219694 0.34245306 0.59880906
0.84214342 0.34021336 0.59881604
0.84208983 0.33797365 0.59882295
0.84203631 0.33573395 0.59882987
0.84198272 0.33349425 0.59883684
0.8419292 0.33125454 0.59884375
0.84187561 0.32901487 0.59885073
0.84182209 0.32677513 0.59885764
0.8417685 0.32453543 0.59886461
0.84171498 0.32229576 0.59887153
0.83891249 0.31985182 0.60010427
0.83885908 0.31761739 0.60011125
0.83880562 0.31538293 0.60011816
0.83875221 0.3131485 0.60012507
0.83686632 0.31079194 0.60094923
0.83681297 0.308561 0.60095614
0.83675969 0.30633008 0.60096306
0.83670634 0.30409914 0.60096997
0.83390504 0.30170608 0.60220259
0.83385181 0.29948041 0.60220945
0.83379859 0.29725474 0.60221636
0.83374542 0.29502907 0.60222328
0.83369219 0.29280341 0.60223013
0.83363897 0.29057774 0.60223705
0.83358574 0.28835207 0.60224396
0.83353251 0.28612641 0.60225087
0.83073229 0.28378066 0.60348332
0.83067918 0.28156027 0.60349023
0.83062607 0.27933985 0.60349709
0.83057302 0.27711946 0.603504
0.83051991 0.27489904 0.60351086
0.83046681 0.27267864 0.60351777
0.8304137 0.27045822 0.60352463
0.83036065 0.26823783 0.60353154
0.83030754 0.26601741 0.60353839
0.83025444 0.26379701 0.60354531
0.83020139 0.26157659 0.60355216
0.83014828 0.2593562 0.60355908
0.83009517 0.25713578 0.60356593
0.83004206 0.25491539 0.60357279
0.82998902 0.25269496 0.6035797
0.82993591 0.25047457 0.60358655
0.8298828 0.24825417 0.60359347
0.82799983 0.24601336 0.6044172
0.82794684 0.24379645 0.60442406
0.82789379 0.24157955 0.60443097
0.82784081 0.23936266 0.60443783
0.82778782 0.23714575 0.60444468
0.82773477 0.23492885 0.60445154
0.82768178 0.23271196 0.60445845
0.82762879 0.23049505 0.60446531
0.82757574 0.22827816 0.60447216
0.82752275 0.22606125 0.60447901
0.82746977 0.22384435 0.60448593
0.82741672 0.22162746 0.60449278
0.82736373 0.21941055 0.60449964
0.82731074 0.21719366 0.60450655
0.82725769 0.21497676 0.60451341
0.8272047 0.21275985 0.60452026
0.82715172 0.21054296 0.60452712
0.82709867 0.20832606 0.60453403
0.82704568 0.20610915 0.60454088
0.82699269 0.20389226 0.60454774
0.82693964 0.20167536 0.60455465
0.82688665 0.19945846 0.60456151
0.82683367 0.19724156 0.60456836
0.82860863 0.19496438 0.60375863
0.82855552 0.19274397 0.60376549
0.83124417 0.19042262 0.60254747
0.83119094 0.18819696 0.60255438
0.83113772 0.18597129 0.6025613
0.83382577 0.1836289 0.60134333
0.83377242 0.18139796 0.60135025
0.83371907 0.17916703 0.60135716
0.83549315 0.17684776 0.60054755
0.83543968 0.17461333 0.60055447
0.8479659 0.42608723 0.59440744
0.84515929 0.42339244 0.59564584
0.84327036 0.42085522 0.59647387
0.84321678 0.41861552 0.59648079
0.84316325 0.41637582 0.59648776
0.84310967 0.41413611 0.59649467
0.84305614 0.41189641 0.59650165
0.84025049 0.40924197 0.59773993
0.84019709 0.40700755 0.59774685
0.83830893 0.40450364 0.59857476
0.83825558 0.4022727 0.59858167
0.83820224 0.40004179 0.59858859
0.83814895 0.39781085 0.5985955
0.83809561 0.39557993 0.59860241
0.83804226 0.39334899 0.59860933
0.83798891 0.39111805 0.59861624
0.83793557 0.38888711 0.59862316
0.83788222 0.38665619 0.59863007
0.83782887 0.38442525 0.59863698
0.83777553 0.38219434 0.5986439
0.83772218 0.3799634 0.59865081
0.83766884 0.37773249 0.59865773
0.83944911 0.37572542 0.59784383
0.83939564 0.37349096 0.59785074
0.83934224 0.37125653 0.59785765
0.83928883 0.3690221 0.59786463
0.83923537 0.36678764 0.59787154
0.83918196 0.36455321 0.59787846
0.83912855 0.36231878 0.59788537
0.83907509 0.36008435 0.59789228
0.83902168 0.3578499 0.59789926
0.83896828 0.35561547 0.59790617
0.83891481 0.35338101 0.59791309
0.83886141 0.35114658 0.59792
0.83880794 0.34891215 0.59792691
0.84150308 0.34694511 0.59670293
0.84144956 0.3447054 0.59670991
0.84139597 0.34246573 0.59671682
0.84134245 0.34022602 0.59672374
0.84128886 0.33798632 0.59673071
0.84123534 0.33574662 0.59673762
0.84118176 0.33350691 0.5967446
0.84112823 0.33126721 0.59675151
0.84107465 0.32902753 0.59675848
0.84102112 0.3267878 0.5967654
0.8409676 0.32454813 0.59677237
0.84091401 0.32230842 0.59677929
0.83811343 0.31986445 0.59801698
0.83805996 0.31763002 0.59802389
0.83800656 0.31539556 0.59803081
0.83795315 0.31316113 0.59803772
0.83789968 0.31092671 0.59804469
0.83784628 0.30869225 0.59805161
0.83596182 0.30634269 0.59887898
0.83590847 0.30411178 0.59888589
0.83585513 0.30188084 0.59889281
0.83580178 0.29964989 0.59889972
0.83574849 0.29741898 0.59890664
0.83294946 0.29504165 0.60014415
0.83289623 0.29281598 0.600151
0.83284301 0.29059032 0.60015792
0.83278978 0.28836465 0.60016483
0.83273661 0.28613898 0.60017169
0.83268338 0.28391331 0.6001786
0.83263016 0.28168765 0.60018551
0.83257693 0.27946198 0.60019243
0.8325237 0.27723631 0.60019928
0.83247048 0.27501065 0.6002062
0.83241731 0.27278495 0.60021311
0.83236408 0.27055928 0.60022002
0.83231086 0.26833361 0.60022688
0.83225763 0.26610795 0.60023379
0.82946038 0.26380956 0.60147107
0.82940733 0.26158917 0.60147792
0.82935423 0.25936875 0.60148484
0.82930112 0.25714836 0.60149169
0.82924801 0.25492793 0.6014986
0.82919496 0.25270754 0.60150546
0.82914186 0.25048712 0.60151237
0.82908875 0.24826671 0.60151923
0.82903564 0.2460463 0.60152614
0.82898259 0.2438259 0.601533
0.82710099 0.24159209 0.60236001
0.827048 0.23937519 0.60236686
0.82699502 0.23715828 0.60237372
0.82694197 0.23494139 0.60238063
0.82688898 0.23272449 0.60238749
0.82683599 0.2305076 0.60239434
0.82678294 0.22829069 0.60240126
0.82672995 0.22607379 0.60240811
0.82667696 0.2238569 0.60241497
0.82662392 0.22163999 0.60242182
0.82657093 0.21942309 0.60242873
0.82651794 0.21720619 0.60243559
0.82646495 0.21498929 0.60244244
0.8264119 0.2127724 0.60244936
0.82635891 0.21055549 0.60245621
0.82630593 0.20833859 0.60246307
0.82625288 0.2061217 0.60246992
0.82619989 0.20390479 0.60247684
0.8261469 0.2016879 0.60248369
0.82609385 0.199471 0.60249054
0.82604086 0.19725409 0.60249746
0.82781458 0.19497694 0.60168439
0.82776147 0.19275653 0.60169131
0.83044821 0.19043522 0.60046834
0.83039498 0.18820955 0.60047525
0.83034182 0.18598387 0.60048217
0.83302796 0.18364151 0.59925932
0.83297461 0.18141058 0.59926623
0.83292127 0.17917965 0.59927315
0.83469409 0.17686039 0.5984602
0.83464062 0.17462596 0.59846711
0.83458722 0.17239152 0.59847403
0.84716177 0.42609993 0.59230697
0.84435707 0.42340511 0.59355032
0.84246939 0.42086789 0.59438163
0.84241587 0.41862819 0.59438854
0.84236228 0.41638848 0.59439552
0.84230876 0.41414878 0.59440243
0.84225518 0.41190907 0.59440941
0.83945143 0.40925461 0.59565264
0.83939803 0.40702018 0.59565955
0.83934456 0.40478575 0.59566647
0.83745778 0.40228534 0.5964976
0.83740443 0.4000544 0.59650451
0.83735108 0.39782345 0.59651142
0.83729774 0.39559254 0.59651834
0.83724445 0.3933616 0.59652525
0.8371911 0.39113066 0.59653217
0.8389706 0.38914466 0.59571493
0.8389172 0.38691023 0.5957219
0.83886373 0.3846758 0.59572881
0.83881032 0.38244137 0.59573573
0.83875686 0.38020691 0.59574264
0.83870345 0.37797248 0.59574956
0.83865005 0.37573805 0.59575653
0.83859658 0.3735036 0.59576344
0.83854318 0.37126917 0.59577036
0.83848977 0.36903474 0.59577727
0.83843631 0.36680028 0.59578419
0.8383829 0.36456585 0.5957911
0.83832949 0.36233142 0.59579808
0.83827603 0.36009699 0.59580499
0.83822262 0.35786253 0.5958119
0.83816916 0.3556281 0.59581882
0.83811575 0.35339364 0.59582573
0.83806235 0.35115921 0.59583271
0.83800888 0.34892479 0.59583962
0.84070218 0.34695777 0.59461069
0.84064859 0.34471807 0.59461761
0.84059507 0.34247839 0.59462458
0.84054148 0.34023869 0.59463149
0.84048796 0.33799899 0.59463847
0.84043437 0.33575928 0.59464538
0.84038085 0.33351958 0.59465235
0.84032726 0.33127987 0.59465927
0.84027374 0.3290402 0.59466624
0.84022015 0.32680047 0.59467316
0.84016663 0.32456079 0.59468013
0.84011304 0.32232109 0.59468704
0.83731437 0.31987709 0.59592962
0.8372609 0.31764266 0.59593654
0.8372075 0.3154082 0.59594351
0.83715409 0.31317377 0.59595042
0.83710063 0.31093934 0.59595734
0.83704722 0.30870488 0.59596425
0.83516401 0.3063553 0.59679496
0.83511066 0.30412439 0.59680188
0.83505732 0.30189344 0.59680879
0.83500397 0.29966253 0.59681571
0.83495063 0.29743159 0.59682262
0.8321535 0.29505423 0.59806496
0.83210033 0.29282856 0.59807187
0.8320471 0.29060289 0.59807879
0.83199388 0.28837723 0.5980857
0.83194065 0.28615156 0.59809256
0.83188742 0.28392589 0.59809947
0.8318342 0.28170022 0.59810638
0.83178103 0.27947456 0.5981133
0.8317278 0.27724889 0.59812015
0.83167458 0.27502322 0.59812707
0.83162135 0.27279755 0.59813398
0.83156812 0.27057189 0.59814084
0.83151489 0.26834622 0.59814775
0.83146167 0.26612055 0.59815466
0.82866633 0.26382211 0.59939682
0.82861328 0.26160172 0.59940374
0.82856017 0.25938132 0.59941059
0.82850707 0.2571609 0.59941751
0.82845396 0.25494048 0.59942436
0.82840091 0.25272009 0.59943128
0.8283478 0.25049967 0.59943813
0.82829469 0.24827927 0.59944499
0.82824159 0.24605887 0.5994519
0.82818854 0.24383846 0.59945875
0.82630819 0.24160463 0.60028905
0.8262552 0.23938772 0.6002959
0.82620221 0.23717083 0.60030282
0.82614923 0.23495393 0.60030967
0.82609618 0.23273703 0.60031652
0.82604319 0.23052013 0.60032344
0.8259902 0.22830322 0.60033029
0.82593715 0.22608633 0.60033715
0.82588416 0.22386943 0.600344
0.82583117 0.22165252 0.60035092
0.82577813 0.21943563 0.60035777
0.82572514 0.21721873 0.60036463
0.82567215 0.21500184 0.60037154
0.8256191 0.21278493 0.60037839
0.82556611 0.21056803 0.60038525
0.82551312 0.20835114 0.6003921
0.82546008 0.20613423 0.60039902
0.82540709 0.20391734 0.60040587
0.8253541 0.20170043 0.60041273
0.82530105 0.19948353 0.60041958
0.82524806 0.19726664 0.6004265
0.82702053 0.1949895 0.59961021
0.82696742 0.1927691 0.59961706
0.82691431 0.19054869 0.59962398
0.82959908 0.18822213 0.59839612
0.82954586 0.18599646 0.59840298
0.82949263 0.18377079 0.59840989
0.8321768 0.1814232 0.59718215
0.83212346 0.17919226 0.59718907
0.83389497 0.17687303 0.5963729
0.83384156 0.1746386 0.59637982
0.83378816 0.17240416 0.59638673
0.8463577 0.42611265 0.59020656
0.84355485 0.42341781 0.5914548
0.84166843 0.42088056 0.59228939
0.8416149 0.41864085 0.5922963
0.84156132 0.41640115 0.59230328
0.84150779 0.41416144 0.59231019
0.84145427 0.41192174 0.59231716
0.83865237 0.40926725 0.59356529
0.83859897 0.40703282 0.5935722
0.8385455 0.40479839 0.59357911
0.83665997 0.40229794 0.59441358
0.83660662 0.400067 0.59442049
0.83655328 0.39783609 0.59442741
0.83649993 0.39560515 0.59443432
0.83644658 0.39337423 0.59444124
0.83639324 0.39114329 0.59444815
0.83817154 0.3891573 0.59362763
0.83811808 0.38692287 0.59363455
0.83806467 0.38468844 0.59364146
0.83801126 0.38245401 0.59364837
0.8379578 0.38021955 0.59365535
0.83790439 0.37798512 0.59366226
0.83785099 0.37575069 0.59366918
0.83779752 0.37351623 0.59367609
0.83774412 0.3712818 0.593683
0.83769065 0.36904737 0.59368998
0.83763725 0.36681291 0.59369689
0.83758384 0.36457849 0.59370381
0.83753037 0.36234406 0.59371072
0.83747697 0.36010963 0.59371763
0.84016895 0.35816896 0.59248376
0.84011543 0.35592926 0.59249067
0.84006184 0.35368955 0.59249765
0.84000832 0.35144985 0.59250456
0.83995473 0.34921014 0.59251153
0.83990121 0.34697044 0.59251845
0.83984762 0.34473073 0.59252542
0.8397941 0.34249106 0.59253234
0.83974051 0.34025136 0.59253925
0.83968699 0.33801165 0.59254622
0.83963341 0.33577195 0.59255314
0.83957988 0.33353224 0.59256011
0.8395263 0.33129254 0.59256703
0.83947277 0.32905287 0.592574
0.83941925 0.32681313 0.59258091
0.83936566 0.32457346 0.59258789
0.83931214 0.32233375 0.5925948
0.83925855 0.32009405 0.59260178
0.83646184 0.3176553 0.59384924
0.83640844 0.31542084 0.59385616
0.83635497 0.31318641 0.59386307
0.83630157 0.31095198 0.59387004
0.83624816 0.30871755 0.59387696
0.83619469 0.30648309 0.59388387
0.83614129 0.30424866 0.59389079
0.83608788 0.3020142 0.5938977
0.83420616 0.29967514 0.59473163
0.83415282 0.29744419 0.59473854
0.83409947 0.29521328 0.59474546
0.83404613 0.29298234 0.59475237
0.83399278 0.29075143 0.59475929
0.83119792 0.28838983 0.59600651
0.83114475 0.28616416 0.59601343
0.83109152 0.2839385 0.59602034
0.8310383 0.28171283 0.59602726
0.83098507 0.27948713 0.59603411
0.83093184 0.27726147 0.59604102
0.83087862 0.2750358 0.59604794
0.83082539 0.27281013 0.59605485
0.83077222 0.27058446 0.59606171
0.83071899 0.2683588 0.59606862
0.83066577 0.26613313 0.59607553
0.83061254 0.26390746 0.59608245
0.83055931 0.2616818 0.5960893
0.83050609 0.25945613 0.59609622
0.83045292 0.25723046 0.59610313
0.83039969 0.25500479 0.59610999
0.83034647 0.25277913 0.5961169
0.82755375 0.25051224 0.59736389
0.82750064 0.24829184 0.5973708
0.82744753 0.24607143 0.59737766
0.82739449 0.24385102 0.59738457
0.82734138 0.24163061 0.59739143
0.8254624 0.23940027 0.598225
0.82540941 0.23718336 0.59823185
0.82535642 0.23496647 0.59823871
0.82530338 0.23274957 0.59824562
0.82525039 0.23053266 0.59825248
0.8251974 0.22831577 0.59825933
0.82514435 0.22609887 0.59826618
0.82509136 0.22388196 0.5982731
0.82503837 0.22166507 0.59827995
0.82498533 0.21944816 0.59828681
0.82219476 0.21726899 0.59953356
0.82214183 0.21505734 0.59954041
0.82208896 0.21284571 0.59954727
0.82203609 0.21063407 0.59955412
0.82198322 0.20842244 0.59956098
0.82193029 0.20621079 0.59956783
0.82187742 0.20399915 0.59957469
0.82182455 0.20178752 0.59958154
0.82177168 0.19957587 0.59958839
0.82445526 0.19727917 0.59835553
0.82440227 0.19506228 0.59836239
0.82434922 0.19284537 0.5983693
0.82612026 0.19056123 0.59754974
0.82606715 0.18834083 0.59755659
0.8260141 0.18612042 0.59756351
0.82869673 0.18378338 0.59633076
0.831379 0.18143581 0.59509814
0.83132565 0.17920488 0.59510505
0.83309591 0.17688566 0.59428555
0.8330425 0.17465124 0.59429246
0.8329891 0.17241679 0.59429938
0.84555364 0.42612538 0.5881061
0.84275264 0.4234305 0.58935928
0.84086752 0.42089322 0.59019715
0.84081393 0.41865352 0.59020406
0.84076041 0.41641381 0.59021103
0.84070683 0.41417411 0.59021795
0.8406533 0.41193441 0.59022486
0.83785331 0.40927988 0.59147793
0.83779985 0.40704545 0.5914849
0.83774644 0.40481102 0.59149182
0.83769304 0.4025766 0.59149873
0.83763957 0.40034214 0.59150565
0.83758616 0.39810771 0.59151256
0.83753276 0.39587325 0.59151953
0.83747929 0.39363882 0.59152645
0.83742589 0.39140439 0.59153336
0.83737248 0.38916993 0.59154028
0.83731902 0.3869355 0.59154719
0.83726561 0.38470107 0.59155416
0.83721215 0.38246664 0.59156108
0.83715874 0.38023221 0.59156799
0.83710533 0.37799776 0.59157491
0.83979642 0.3760992 0.59033597
0.8397429 0.37385952 0.59034288
0.83968931 0.37161982 0.59034985
0.83963579 0.36938012 0.59035677
0.8395822 0.36714041 0.59036374
0.83952868 0.36490071 0.59037066
0.8394751 0.36266103 0.59037763
0.83942157 0.3604213 0.59038454
0.84119719 0.35837749 0.58956093
0.84114355 0.35613427 0.5895679
0.8410899 0.35389104 0.58957481
0.84103626 0.35164785 0.58958179
0.84098262 0.34940466 0.58958876
0.84092897 0.34716144 0.58959568
0.84087539 0.34491822 0.58960265
0.84082174 0.34267503 0.58960962
0.8407681 0.34043181 0.58961654
0.84071445 0.33818859 0.58962351
0.8388325 0.33578461 0.5904609
0.83877891 0.33354491 0.59046787
0.83872539 0.33130521 0.59047478
0.8386718 0.32906553 0.59048176
0.83861828 0.3268258 0.59048867
0.83856469 0.32458612 0.59049565
0.83851117 0.32234642 0.59050256
0.83845758 0.32010671 0.59050953
0.83840406 0.31786701 0.59051645
0.83835047 0.31562731 0.59052336
0.83555591 0.31319904 0.59177577
0.83550251 0.31096461 0.59178269
0.83544904 0.30873019 0.5917896
0.83539563 0.30649573 0.59179652
0.83534223 0.3042613 0.59180343
0.83528876 0.30202684 0.59181041
0.83523536 0.29979241 0.59181732
0.83518195 0.29755798 0.59182423
0.83512849 0.29532355 0.59183115
0.83507508 0.29308909 0.59183806
0.83502167 0.29085466 0.59184504
0.83314162 0.28853309 0.59268218
0.83308828 0.28630218 0.5926891
0.83303493 0.28407124 0.59269601
0.83298165 0.28184029 0.59270293
0.8329283 0.27960938 0.59270984
0.83287495 0.27737844 0.59271675
0.83008271 0.2750484 0.59396881
0.83002949 0.27282271 0.59397566
0.82997626 0.27059704 0.59398258
0.82992303 0.26837137 0.59398949
0.82986981 0.26614571 0.59399641
0.82981664 0.26392004 0.59400326
0.82976341 0.26169437 0.59401017
0.82971019 0.2594687 0.59401709
0.82965696 0.25724304 0.594024
0.82960373 0.25501737 0.59403086
0.8295505 0.2527917 0.59403777
0.8267597 0.25052479 0.59528971
0.82670659 0.24830438 0.59529656
0.82665354 0.24608397 0.59530348
0.82660043 0.24386357 0.59531033
0.82654732 0.24164316 0.59531724
0.8246696 0.2394128 0.59615403
0.82461661 0.23719591 0.59616089
0.82456362 0.234979 0.5961678
0.82451057 0.2327621 0.59617466
0.82445759 0.23054521 0.59618151
0.8244046 0.2283283 0.59618843
0.82435155 0.22611141 0.59619528
0.82429856 0.22389451 0.59620214
0.82424557 0.2216776 0.59620899
0.82419252 0.21946071 0.5962159
0.8214038 0.21728149 0.59746754
0.82135093 0.21506985 0.5974744
0.82129806 0.21285821 0.59748125
0.82124519 0.21064657 0.59748811
0.82119226 0.20843494 0.59749496
0.8211394 0.20622329 0.59750181
0.82108653 0.20401166 0.59750867
0.82103366 0.20180002 0.59751552
0.82098073 0.19958839 0.59752238
0.82366246 0.19729172 0.59628457
0.82360947 0.19507481 0.59629148
0.82355642 0.19285791 0.59629834
0.8253262 0.1905738 0.59547549
0.8252731 0.18835339 0.59548241
0.82522005 0.18613298 0.59548926
0.82790077 0.18379597 0.59425163
0.83058119 0.18144843 0.59301406
0.83052784 0.1792175 0.59302098
0.83229685 0.1768983 0.59219819
0.83224344 0.17466387 0.59220517
0.83218998 0.17242943 0.59221208
0.84195048 0.42344317 0.58726376
0.84006655 0.42090589 0.5881049
0.84001297 0.41866618 0.58811182
0.83995944 0.41642648 0.58811873
0.83990592 0.41418678 0.58812571
0.83985233 0.41194707 0.58813262
0.83705425 0.40929252 0.58939064
0.83700079 0.40705809 0.58939755
0.83694738 0.40482366 0.58940446
0.83689398 0.40258923 0.58941138
0.83684051 0.40035477 0.58941835
0.8367871 0.39812034 0.58942527
0.83673364 0.39588591 0.58943218
0.83668023 0.39365146 0.58943909
0.83662683 0.39141703 0.58944601
0.83657336 0.38918257 0.58945298
0.83651996 0.38694814 0.5894599
0.83646655 0.38471371 0.58946681
0.83641309 0.38247928 0.58947372
0.83635968 0.38024485 0.58948064
0.83630627 0.37801039 0.58948761
0.83899546 0.37611187 0.58824372
0.83894193 0.37387219 0.58825064
0.83888841 0.37163249 0.58825761
0.83883482 0.36939278 0.58826452
0.8387813 0.36715308 0.5882715
0.83872771 0.36491337 0.58827841
0.83867419 0.3626737 0.58828539
0.8386206 0.36043397 0.5882923
0.84039497 0.35839015 0.58746541
0.84034133 0.35614696 0.58747238
0.84028769 0.35390374 0.58747929
0.84023404 0.35166055 0.58748627
0.84018046 0.34941733 0.58749324
0.84012681 0.34717414 0.58750015
0.84007317 0.34493092 0.58750713
0.84001952 0.3426877 0.5875141
0.83996588 0.34044451 0.58752102
0.83991224 0.33820128 0.58752799
0.83803153 0.33579728 0.58836865
0.83797795 0.33355758 0.58837563
0.83792442 0.33131787 0.58838254
0.8378709 0.3290782 0.58838952
0.83781731 0.32683846 0.58839643
0.83776379 0.32459879 0.5884034
0.8377102 0.32235909 0.58841032
0.83765668 0.32011938 0.58841723
0.83760309 0.31787968 0.58842421
0.83754957 0.31563997 0.58843112
0.83475685 0.31321168 0.58968842
0.83470345 0.31097725 0.58969533
0.83464998 0.30874282 0.58970231
0.83459657 0.30650836 0.58970922
0.83454317 0.30427393 0.58971614
0.8344897 0.30203947 0.58972305
0.8344363 0.29980505 0.58972996
0.83438289 0.29757062 0.58973688
0.83432943 0.29533619 0.58974385
0.83427602 0.29310173 0.58975077
0.83422256 0.2908673 0.58975768
0.83234382 0.28854573 0.59059811
0.83229047 0.28631479 0.59060502
0.83223712 0.28408384 0.59061193
0.83218378 0.28185293 0.59061885
0.83213043 0.27962199 0.59062576
0.83207709 0.27739108 0.59063268
0.82928675 0.27506098 0.59188968
0.82923353 0.27283531 0.59189653
0.82918036 0.27060965 0.59190345
0.82912713 0.26838398 0.59191036
0.82907391 0.26615831 0.59191728
0.82902068 0.26393265 0.59192413
0.82896745 0.26170698 0.59193105
0.82891423 0.25948131 0.59193796
0.828861 0.25725564 0.59194481
0.82880783 0.25502995 0.59195173
0.8287546 0.25280428 0.59195864
0.82596564 0.25053737 0.59321547
0.82591254 0.24831694 0.59322232
0.82585949 0.24609654 0.59322923
0.82580638 0.24387613 0.59323609
0.82392985 0.24164224 0.59407622
0.8238768 0.23942533 0.59408307
0.82382381 0.23720844 0.59408998
0.82377082 0.23499154 0.59409684
0.82371777 0.23277465 0.59410369
0.82366478 0.23055774 0.59411055
0.8236118 0.22834085 0.59411746
0.82355875 0.22612394 0.59412432
0.82350576 0.22390704 0.59413117
0.82071865 0.22171727 0.59538776
0.82066578 0.21950564 0.59539461
0.82061291 0.21729399 0.59540147
0.82056004 0.21508236 0.59540832
0.82050711 0.21287072 0.59541517
0.82045424 0.21065909 0.59542203
0.82040137 0.20844744 0.59542888
0.8203485 0.20623581 0.59543574
0.82029563 0.20402417 0.59544259
0.8202427 0.20181254 0.59544945
0.82018983 0.19960089 0.5954563
0.82286966 0.19730425 0.59421366
0.82281667 0.19508734 0.59422052
0.82276362 0.19287045 0.59422737
0.82453215 0.19058636 0.59340125
0.82447904 0.18836595 0.59340817
0.824426 0.18614554 0.59341502
0.82710487 0.18380855 0.5921725
0.82978332 0.18146105 0.59092999
0.82972997 0.17923012 0.5909369
0.83149779 0.17691094 0.5901109
0.83144438 0.17467651 0.59011781
0.83139092 0.17244206 0.59012473
0.84389168 0.42390233 0.58391219
0.84109461 0.42121267 0.58517522
0.84104097 0.41896945 0.58518219
0.83915848 0.41643915 0.58602649
0.83910495 0.41419944 0.58603346
0.83905137 0.41195974 0.58604038
0.83899784 0.40972003 0.58604735
0.83894426 0.40748036 0.58605427
0.83614832 0.4048363 0.58731717
0.83609486 0.40260187 0.58732408
0.83604145 0.40036741 0.587331
0.83598804 0.39813298 0.58733791
0.83593458 0.39589855 0.58734483
0.83588117 0.39366409 0.5873518
0.83582777 0.39142966 0.58735871
0.83851588 0.38956273 0.58610982
0.83846229 0.38732305 0.58611673
0.83840877 0.38508335 0.5861237
0.83835518 0.38284364 0.58613062
0.83830166 0.38060394 0.58613759
0.83824807 0.37836424 0.58614451
0.84002185 0.3763485 0.58531427
0.8399682 0.3741053 0.58532125
0.83991462 0.37186208 0.58532816
0.83986098 0.36961889 0.58533514
0.83980733 0.36737567 0.58534211
0.83975369 0.36513248 0.58534902
0.83970004 0.36288926 0.585356
0.8396464 0.36064607 0.58536291
0.83959275 0.35840285 0.58536988
0.83953911 0.35615963 0.58537686
0.83948553 0.35391644 0.58538377
0.83943188 0.35167325 0.58539075
0.83937824 0.34943002 0.58539772
0.83932459 0.3471868 0.58540463
0.83927095 0.34494361 0.58541161
0.83921731 0.34270039 0.58541858
0.83916366 0.34045717 0.5854255
0.83911002 0.33821398 0.58543247
0.83905637 0.33597076 0.58543944
0.83900279 0.33372757 0.58544636
0.83894914 0.33148435 0.58545333
0.83706993 0.32909086 0.58629727
0.83701634 0.32685116 0.58630419
0.83696282 0.32461146 0.5863111
0.83690923 0.32237175 0.58631808
0.83685571 0.32013205 0.58632499
0.83680212 0.31789234 0.58633196
0.8367486 0.31565264 0.58633888
0.83669502 0.31341293 0.58634585
0.83664149 0.31117326 0.58635277
0.83658797 0.30893356 0.58635974
0.83379751 0.306521 0.58762187
0.83374405 0.30428657 0.58762878
0.83369064 0.30205211 0.5876357
0.83363724 0.29981768 0.58764267
0.83358377 0.29758325 0.58764958
0.83353037 0.29534882 0.5876565
0.83347696 0.29311436 0.58766341
0.8334235 0.29087994 0.58767033
0.83337009 0.28864551 0.5876773
0.83331662 0.28641105 0.58768421
0.83326322 0.28417662 0.58769113
0.83138597 0.28186554 0.58853477
0.83133262 0.27963462 0.58854169
0.83127928 0.27740368 0.5885486
0.83122593 0.27517274 0.58855551
0.83117259 0.27294183 0.58856243
0.8283844 0.27062222 0.58982432
0.82833117 0.26839656 0.58983123
0.82827795 0.26617089 0.58983809
0.82822472 0.26394522 0.589845
0.82817155 0.26171955 0.58985192
0.82811832 0.25949389 0.58985883
0.8280651 0.25726822 0.58986568
0.82801187 0.25504255 0.5898726
0.82795864 0.25281689 0.58987951
0.82517159 0.25054991 0.59114122
0.82511848 0.24832951 0.59114814
0.82506543 0.2461091 0.59115499
0.82501233 0.24388869 0.59116191
0.82313704 0.24165478 0.59200525
0.823084 0.23943788 0.59201217
0.82303101 0.23722097 0.59201902
0.82297802 0.23500408 0.59202588
0.82292497 0.23278718 0.59203273
0.82287198 0.23057029 0.59203964
0.82281899 0.22835338 0.5920465
0.82276595 0.22613648 0.59205335
0.82271296 0.22391959 0.59206027
0.81992775 0.22172979 0.59332174
0.81987488 0.21951814 0.5933286
0.81982195 0.21730651 0.59333545
0.81976908 0.21509486 0.5933423
0.81971622 0.21288323 0.59334916
0.81966335 0.21067159 0.59335601
0.81961048 0.20845996 0.59336287
0.81955755 0.20624831 0.59336972
0.81950468 0.20403668 0.59337658
0.81945181 0.20182504 0.59338343
0.81939894 0.19961341 0.59339029
0.82207686 0.19731678 0.5921427
0.82202387 0.19509989 0.59214956
0.82197088 0.19288298 0.59215641
0.8237381 0.19059891 0.59132707
0.82368499 0.1883785 0.59133393
0.82363194 0.18615809 0.59134084
0.82630891 0.18382114 0.59009337
0.82898551 0.18147367 0.58884597
0.82893217 0.17924273 0.58885288
0.83069873 0.17692357 0.58802354
0.83064526 0.17468914 0.58803046
0.83059186 0.1724547 0.58803743
0.84308761 0.42391506 0.58181179
0.84029239 0.42122537 0.5830797
0.84023875 0.41898215 0.58308667
0.83835751 0.41645181 0.58393425
0.83830398 0.41421211 0.58394122
0.83825046 0.4119724 0.58394814
0.83819687 0.4097327 0.58395511
0.83814335 0.40749303 0.58396202
0.83808976 0.40525332 0.583969
0.83803624 0.40301362 0.58397591
0.83798265 0.40077391 0.58398288
0.83792913 0.39853421 0.5839898
0.83787555 0.3962945 0.58399677
0.83782202 0.3940548 0.58400369
0.83776844 0.39181513 0.5840106
0.83954149 0.38982043 0.58317703
0.83948785 0.38757724 0.583184
0.83943421 0.38533404 0.58319092
0.83938056 0.38309082 0.58319789
0.83932692 0.3808476 0.58320487
0.83927327 0.37860441 0.58321178
0.83921969 0.37636119 0.58321875
0.83916605 0.374118 0.58322573
0.8391124 0.37187478 0.58323264
0.83905876 0.36963159 0.58323961
0.83900511 0.36738837 0.58324659
0.83895147 0.36514518 0.5832535
0.83889782 0.36290196 0.58326048
0.83884418 0.36065874 0.58326745
0.8387906 0.35841554 0.58327436
0.83873695 0.35617232 0.58328134
0.83868331 0.3539291 0.58328825
0.83862966 0.35168591 0.58329523
0.83857602 0.34944272 0.5833022
0.83852237 0.3471995 0.58330911
0.83846873 0.34495628 0.58331609
0.83841509 0.34271309 0.58332306
0.83836144 0.34046987 0.58332998
0.83830786 0.33822668 0.58333695
0.83825421 0.33598346 0.58334392
0.83820057 0.33374026 0.58335084
0.83814692 0.33149704 0.58335781
0.83809328 0.32925385 0.58336478
0.83803964 0.32701063 0.5833717
0.83798599 0.32476741 0.58337867
0.83793235 0.32252422 0.58338565
0.83787876 0.320281 0.58339256
0.83782512 0.31803781 0.58339953
0.83777148 0.31579459 0.58340645
0.83589411 0.3134256 0.58425361
0.83584052 0.31118593 0.58426052
0.835787 0.30894622 0.5842675
0.83573341 0.30670652 0.58427441
0.83567989 0.30446681 0.58428138
0.8356263 0.30222711 0.5842883
0.83557278 0.29998741 0.58429527
0.83551919 0.2977477 0.58430219
0.83546567 0.29550803 0.5843091
0.83267784 0.293127 0.58557612
0.83262444 0.29089257 0.58558303
0.83257103 0.28865814 0.58558995
0.83251756 0.28642368 0.58559686
0.83246416 0.28418925 0.58560377
0.83241075 0.28195482 0.58561075
0.83235729 0.27972037 0.58561766
0.83230388 0.27748594 0.58562458
0.83042812 0.27518538 0.5864715
0.83037478 0.27295443 0.58647841
0.83032143 0.27072352 0.58648533
0.82753527 0.26840913 0.5877521
0.82748204 0.2661835 0.58775896
0.82742882 0.2639578 0.58776587
0.82737559 0.26173213 0.58777279
0.82732236 0.25950646 0.58777964
0.82726914 0.2572808 0.58778656
0.82721591 0.25505513 0.58779347
0.82716274 0.25282946 0.58780038
0.82437754 0.25056246 0.58906704
0.82432443 0.24834207 0.5890739
0.82427138 0.24612164 0.58908081
0.82421827 0.24390125 0.58908767
0.82234424 0.24166732 0.58993435
0.8222912 0.23945041 0.5899412
0.82223821 0.23723352 0.58994806
0.82218522 0.23501661 0.58995491
0.82213217 0.23279971 0.58996183
0.82207918 0.23058282 0.58996868
0.82202619 0.22836591 0.58997554
0.82197315 0.22614902 0.58998245
0.82192016 0.22393212 0.5899893
0.8191368 0.22174229 0.59125572
0.81908393 0.21953066 0.59126258
0.81903106 0.21731901 0.59126943
0.81897819 0.21510738 0.59127629
0.81892532 0.21289574 0.59128314
0.81887239 0.21068411 0.59129
0.81881952 0.20847246 0.59129685
0.81876665 0.20626083 0.59130371
0.81871378 0.20404918 0.59131056
0.81866091 0.20183755 0.59131742
0.81860799 0.19962591 0.59132427
0.82128406 0.19732933 0.59007174
0.82123107 0.19511242 0.59007859
0.82117808 0.19289552 0.59008551
0.82294405 0.19061147 0.58925283
0.82289094 0.18839106 0.58925974
0.82283789 0.18617065 0.5892666
0.82278478 0.18395025 0.58927351
0.82545978 0.18160807 0.5880211
0.82540655 0.17938238 0.58802801
0.82808101 0.17702442 0.58677572
0.82802767 0.1747935 0.58678263
0.82797432 0.17256255 0.58678955
0.84228349 0.42392775 0.57971132
0.83949018 0.42123803 0.58098418
0.83943659 0.41899484 0.58099115
0.8375566 0.41646448 0.58184201
0.83750302 0.41422477 0.58184898
0.83744949 0.41198507 0.58185589
0.83739591 0.40974537 0.58186287
0.83734238 0.40750569 0.58186978
0.8372888 0.40526599 0.58187675
0.83723527 0.40302628 0.58188367
0.83718169 0.40078658 0.58189064
0.83712816 0.39854687 0.58189756
0.83707464 0.39630717 0.58190453
0.83702105 0.39406747 0.58191144
0.83696753 0.39182779 0.58191842
0.83873928 0.38983312 0.58108151
0.83868563 0.38758993 0.58108848
0.83863199 0.38534671 0.5810954
0.83857834 0.38310352 0.58110237
0.83852476 0.3808603 0.58110934
0.83847111 0.37861708 0.58111626
0.83841747 0.37637389 0.58112323
0.83836383 0.37413067 0.58113021
0.83831018 0.37188748 0.58113712
0.83825654 0.36964425 0.58114409
0.83820289 0.36740106 0.58115107
0.83814925 0.36515784 0.58115798
0.83809566 0.36291465 0.58116496
0.83804202 0.36067143 0.58117187
0.83798838 0.35842821 0.58117884
0.83793473 0.35618502 0.58118582
0.83788109 0.3539418 0.58119273
0.83782744 0.35169861 0.58119971
0.8377738 0.34945539 0.58120668
0.83772016 0.3472122 0.58121359
0.83766651 0.34496897 0.58122057
0.83761293 0.34272575 0.58122754
0.83755928 0.34048256 0.58123446
0.83750564 0.33823934 0.58124143
0.83745199 0.33599615 0.5812484
0.83739835 0.33375293 0.58125532
0.83734471 0.33150974 0.58126229
0.83729106 0.32926652 0.58126926
0.83723742 0.32702333 0.58127618
0.83718383 0.32478011 0.58128315
0.83713019 0.32253689 0.58129007
0.83707654 0.32029369 0.58129704
0.8370229 0.31805047 0.58130401
0.83696926 0.31580728 0.58131093
0.83509314 0.31343827 0.58216137
0.83503962 0.31119859 0.58216828
0.83498603 0.30895889 0.58217525
0.83493251 0.30671918 0.58218217
0.83487892 0.30447948 0.58218914
0.8348254 0.30223978 0.58219606
0.83477181 0.30000007 0.58220303
0.83471829 0.29776037 0.58220994
0.8346647 0.29552069 0.58221692
0.83187878 0.29313964 0.58348876
0.83182538 0.29090521 0.58349568
0.83177197 0.28867078 0.58350265
0.8317185 0.28643635 0.58350956
0.8316651 0.28420189 0.58351648
0.83161163 0.28196746 0.58352339
0.83155823 0.279733 0.58353031
0.83150482 0.27749857 0.58353722
0.82963032 0.27519798 0.58438742
0.82957697 0.27296704 0.58439434
0.82952362 0.27073613 0.58440125
0.82673931 0.26842174 0.58567291
0.82668608 0.26619607 0.58567983
0.82663286 0.2639704 0.58568674
0.82657963 0.26174474 0.58569366
0.82652646 0.25951907 0.58570051
0.82647324 0.2572934 0.58570743
0.82642001 0.25506774 0.58571434
0.82363659 0.25279543 0.58698589
0.82358348 0.25057504 0.5869928
0.82353038 0.24835461 0.58699965
0.82347733 0.24613421 0.58700657
0.82160443 0.24389675 0.58785653
0.82155144 0.24167985 0.58786339
0.82149845 0.23946296 0.58787024
0.82144541 0.23724605 0.58787715
0.82139242 0.23502915 0.58788401
0.82133943 0.23281226 0.58789086
0.82128638 0.23059535 0.58789772
0.82123339 0.22837846 0.58790463
0.8211804 0.22616155 0.58791149
0.82112736 0.22394465 0.58791834
0.82107437 0.22172776 0.58792526
0.82102138 0.21951085 0.58793211
0.82096833 0.21729396 0.58793896
0.81818724 0.21511988 0.58921027
0.81813437 0.21290824 0.58921713
0.8180815 0.21069661 0.58922398
