ply
format ascii 1.0
comment PCL generated
element vertex 1451
property float x
property float y
property float z
element camera 0
property float view_px
property float view_py
property float view_pz
property float x_axisx
property float x_axisy
property float x_axisz
property float y_axisx
property float y_axisy
property float y_axisz
property float z_axisx
property float z_axisy
property float z_axisz
property float focal
property float scalex
property float scaley
property float centerx
property float centery
property int viewportx
property int viewporty
property float k1
property float k2
end_header
0.77187288 0.5692786 0.65125227
0.77183378 0.56715 0.651191
0.77179468 0.56502146 0.65112972
0.77175558 0.56289285 0.65106845
0.77171648 0.56076425 0.65100724
0.77167737 0.55863571 0.65094596
0.77163827 0.55650711 0.65088469
0.77159917 0.55437851 0.65082341
0.77156007 0.55224997 0.65076214
0.77152097 0.55012131 0.65070093
0.77148187 0.54799277 0.65063965
0.77144283 0.54586416 0.65057838
0.77140373 0.54373556 0.65051711
0.77136463 0.54160702 0.65045589
0.77132553 0.53947842 0.65039462
0.77128643 0.53734982 0.65033334
0.77124733 0.53522122 0.65027207
0.77120823 0.53309268 0.6502108
0.77116913 0.53096408 0.65014958
0.77113003 0.52883548 0.65008831
0.73086619 0.78445393 0.67434031
0.73082864 0.78240955 0.67428142
0.73264802 0.78132886 0.67346436
0.7326104 0.77928096 0.67340541
0.73257279 0.777233 0.67334652
0.73439193 0.77613825 0.67252904
0.7343542 0.77408677 0.67246997
0.73431653 0.77203536 0.67241096
0.73613548 0.77092665 0.67159301
0.73609775 0.76887167 0.67153388
0.73884457 0.76822025 0.67033619
0.73880672 0.76616007 0.67027688
0.73876888 0.76409984 0.67021763
0.74058735 0.76296479 0.6693989
0.74054945 0.76090109 0.66933954
0.74051154 0.75883734 0.66928017
0.74047363 0.75677371 0.66922075
0.74043572 0.75470996 0.66916138
0.74039781 0.75264627 0.66910195
0.74221575 0.75148666 0.66828263
0.74217778 0.74941939 0.66822314
0.74213982 0.74735218 0.66816366
0.74210185 0.74528497 0.66810411
0.74020833 0.74232769 0.668805
0.74017042 0.740264 0.66874558
0.74013251 0.73820025 0.66868621
0.7400946 0.73613656 0.66862684
0.74005669 0.7340728 0.66856742
0.74001878 0.73200917 0.66850805
0.73998088 0.72994542 0.66844863
0.73994297 0.72788173 0.66838926
0.73990506 0.72581798 0.66832983
0.73801208 0.7228958 0.66903174
0.73797423 0.72083557 0.66897249
0.73793638 0.71877539 0.66891319
0.73975343 0.71756315 0.66809231
0.73971558 0.71549946 0.66803288
0.73967767 0.71343571 0.66797352
0.74149436 0.71220952 0.66715223
0.73960185 0.70930833 0.66785473
0.73956394 0.70724463 0.6677953
0.74138045 0.7060079 0.66697377
0.74134248 0.70394063 0.66691428
0.74130452 0.70187342 0.66685474
0.74312073 0.70062268 0.66603279
0.7430827 0.69855195 0.66597319
0.74582583 0.69769531 0.66476959
0.74578774 0.69561934 0.66470981
0.74574959 0.69354337 0.66465008
0.74571145 0.6914674 0.66459036
0.7456733 0.68939143 0.66453058
0.74748898 0.68810731 0.66370767
0.74745077 0.68602782 0.66364783
0.74741256 0.68394834 0.66358799
0.74737436 0.68186885 0.66352814
0.74733615 0.67978936 0.6634683
0.747298 0.67770988 0.66340846
0.74911314 0.67640126 0.66258478
0.7518549 0.67546928 0.66137898
0.75181657 0.67338103 0.6613189
0.75177819 0.67129278 0.66125882
0.75173986 0.66920447 0.66119868
0.75355458 0.66786957 0.66037434
0.75351614 0.6657778 0.66031414
0.75347769 0.66368604 0.66025394
0.75529224 0.66233706 0.65942907
0.75525379 0.66024178 0.65936875
0.75521529 0.6581465 0.65930849
0.75702947 0.65678352 0.65848327
0.75699091 0.65468472 0.65842289
0.75509983 0.65186071 0.65912759
0.75506133 0.64976543 0.65906727
0.75502288 0.64767015 0.65900695
0.75498438 0.64557487 0.65894669
0.75494587 0.64347965 0.65888637
0.75490743 0.64138436 0.65882605
0.75486892 0.63928908 0.65876573
0.75483042 0.6371938 0.65870547
0.75479198 0.63509858 0.65864515
0.75475347 0.63300329 0.65858483
0.75471497 0.63090801 0.65852457
0.75652832 0.62949944 0.65769804
0.75648981 0.62740064 0.65763766
0.75645125 0.6253019 0.65757722
0.7591902 0.62421733 0.65636706
0.75915158 0.62211329 0.65630651
0.75911289 0.62000924 0.65624595
0.76092571 0.61857086 0.65541857
0.76366413 0.61745656 0.65420753
0.76362532 0.61534375 0.65414673
0.76358652 0.61323094 0.65408593
0.76354772 0.61111814 0.65402514
0.76536 0.60965347 0.65319699
0.76532114 0.60753715 0.65313607
0.76528227 0.60542083 0.65307516
0.76524341 0.60330451 0.6530143
0.76705539 0.60182232 0.65218568
0.76701647 0.59970248 0.65212464
0.76975369 0.59852326 0.65091175
0.76971465 0.59639823 0.65085059
0.76967561 0.59427309 0.65078938
0.76963657 0.59214807 0.65072823
0.76959753 0.59002298 0.65066707
0.77140892 0.58850741 0.64983749
0.77136981 0.58637881 0.64977622
0.77133071 0.58425027 0.64971501
0.77129161 0.58212167 0.64965373
0.77125257 0.57999307 0.64959246
0.77121347 0.57786453 0.64953119
0.77117437 0.57573593 0.64946997
0.77113527 0.57360733 0.6494087
0.77109617 0.57147872 0.64934742
0.77105707 0.56935018 0.64928615
0.77101797 0.56722158 0.64922488
0.77097887 0.56509298 0.64916366
0.77093977 0.56296444 0.64910239
0.77090067 0.56083584 0.64904112
0.77086157 0.55870724 0.64897984
0.77082247 0.5565787 0.64891863
0.77078336 0.55445009 0.64885736
0.77074426 0.55232149 0.64879608
0.77070516 0.55019289 0.64873481
0.77066612 0.54806429 0.64867353
0.77062702 0.54593575 0.64861232
0.77058792 0.54380715 0.64855105
0.77054882 0.54167855 0.64848977
0.77050972 0.53955001 0.6484285
0.77047062 0.53742141 0.64836729
0.77043152 0.5352928 0.64830601
0.77039242 0.53316426 0.64824474
0.77035332 0.53103566 0.64818347
0.77031422 0.52890706 0.64812225
0.77027512 0.52677846 0.64806098
0.76838756 0.52414554 0.64877117
0.76834852 0.52202052 0.64871001
0.76830947 0.51989537 0.64864886
0.73008263 0.78452271 0.67245191
0.73004508 0.78247833 0.67239308
0.73186314 0.7813977 0.6715728
0.73182553 0.7793498 0.67151386
0.73178792 0.77730185 0.67145491
0.73360568 0.77620721 0.67063421
0.73356801 0.7741558 0.67057514
0.73353028 0.77210438 0.67051613
0.73534793 0.77099574 0.66969496
0.7353102 0.76894075 0.66963583
0.73805499 0.76828951 0.66843325
0.73801714 0.76622933 0.668374
0.73797929 0.7641691 0.6683147
0.7397964 0.76303416 0.66749275
0.74161333 0.7618922 0.66667068
0.74157536 0.75982499 0.66661119
0.74153739 0.75775784 0.66655171
0.74149942 0.75569057 0.66649222
0.74146146 0.75362337 0.66643274
0.74142349 0.75155616 0.66637319
0.74138552 0.74948889 0.66631371
0.74134755 0.74742174 0.66625422
0.74130958 0.74535447 0.66619474
0.74127162 0.74328727 0.66613525
0.74123365 0.74122006 0.66607577
0.74119568 0.73915279 0.66601628
0.74115771 0.73708564 0.66595674
0.74111974 0.73501843 0.66589725
0.73922783 0.73207855 0.6666019
0.73918992 0.7300148 0.66654247
0.73915201 0.72795111 0.6664831
0.73911411 0.72588736 0.66642368
0.73722249 0.72296506 0.66712886
0.73718464 0.72090483 0.66706955
0.73714679 0.71884465 0.66701025
0.73896253 0.71763253 0.66618609
0.73892462 0.71556884 0.66612673
0.73888671 0.71350509 0.6660673
0.74070203 0.71227902 0.66524285
0.74066406 0.71021181 0.66518337
0.7406261 0.70814461 0.66512382
0.74058813 0.7060774 0.66506433
0.74055016 0.70401013 0.66500485
0.74236512 0.70276302 0.66417974
0.74232709 0.7006923 0.66412014
0.74228907 0.69862157 0.66406059
0.74503022 0.69776517 0.66285205
0.74499208 0.69568914 0.66279233
0.74495393 0.69361317 0.6627326
0.74491578 0.6915372 0.66267282
0.7448777 0.68946123 0.66261309
0.74669194 0.68817723 0.66178691
0.7466538 0.68609774 0.66172707
0.74661559 0.68401825 0.66166723
0.74657738 0.68193877 0.66160738
0.74653918 0.67985928 0.66154754
0.74650097 0.67777979 0.6614877
0.74831486 0.67647129 0.6606608
0.75105458 0.67553949 0.65945017
0.7510162 0.67345124 0.65939009
0.75097787 0.671363 0.65932995
0.75093949 0.66927469 0.65926987
0.75275284 0.6679399 0.65844226
0.75271446 0.66584814 0.65838206
0.75267601 0.66375637 0.65832186
0.75448924 0.66240752 0.65749377
0.75445074 0.66031224 0.65743345
0.75441223 0.65821695 0.65737313
0.75622511 0.65685409 0.65654474
0.75618654 0.65475529 0.65648431
0.75429678 0.65193117 0.65719223
0.75425833 0.64983588 0.65713197
0.75421983 0.6477406 0.65707165
0.75418133 0.64564532 0.65701133
0.75414288 0.6435501 0.65695107
0.75410438 0.64145482 0.65689075
0.75406587 0.63935953 0.65683043
0.75402743 0.63726425 0.65677017
0.75398892 0.63516897 0.65670985
0.75395042 0.63307369 0.65664953
0.75391197 0.63097841 0.65658927
0.75572395 0.62957001 0.65575951
0.75568539 0.62747121 0.65569907
0.75564688 0.62537247 0.65563869
0.75838381 0.62428808 0.65442365
0.75834519 0.62218404 0.6543631
0.7583065 0.62007999 0.65430254
0.76011795 0.61864173 0.65347195
0.76285434 0.6175276 0.65225601
0.76281554 0.6154148 0.65219522
0.76277673 0.61330199 0.65213442
0.76273793 0.61118919 0.65207362
0.7645489 0.60972464 0.65124226
0.76451004 0.60760832 0.65118134
0.76447117 0.605492 0.65112042
0.76443231 0.60337567 0.65105951
0.76624292 0.6018936 0.65022767
0.766204 0.59977376 0.65016663
0.7689392 0.59859473 0.64894891
0.76890016 0.59646964 0.64888769
0.76886117 0.59434456 0.64882654
0.76882213 0.59221947 0.64876539
0.76878309 0.59009445 0.64870423
0.77059311 0.588579 0.64787143
0.77055401 0.5864504 0.64781016
0.77051491 0.5843218 0.64774889
0.7704758 0.58219326 0.64768761
0.77043676 0.58006465 0.6476264
0.77039766 0.57793605 0.64756513
0.77035856 0.57580751 0.64750385
0.77031946 0.57367891 0.64744258
0.77028036 0.57155031 0.64738137
0.77024126 0.56942171 0.64732009
0.77020216 0.56729317 0.64725882
0.77016306 0.56516457 0.64719754
0.77012396 0.56303596 0.64713627
0.77008486 0.56090742 0.64707506
0.77004576 0.55877882 0.64701378
0.77000666 0.55665022 0.64695251
0.76996756 0.55452168 0.64689124
0.76992846 0.55239308 0.64683002
0.76988941 0.55026448 0.64676875
0.76985031 0.54813588 0.64670748
0.76981121 0.54600728 0.6466462
0.76977211 0.54387873 0.64658493
0.76973301 0.54175013 0.64652371
0.76969391 0.53962153 0.64646244
0.76965481 0.53749299 0.64640117
0.76961571 0.53536439 0.64633989
0.76957661 0.53323579 0.64627868
0.76953751 0.53110725 0.64621741
0.76949841 0.52897865 0.64615613
0.76945931 0.52685004 0.64609486
0.76757312 0.52421701 0.64680833
0.76753408 0.52209193 0.64674717
0.76749504 0.51996684 0.64668602
0.767456 0.51784176 0.6466248
0.76741695 0.51571673 0.64656365
0.76460767 0.51286125 0.64766532
0.72929913 0.78459144 0.67056358
0.72926158 0.78254706 0.67050475
0.72922403 0.78050262 0.67044592
0.7310406 0.77941865 0.66962224
0.73100299 0.77737069 0.66956329
0.73096538 0.77532274 0.6695044
0.73278177 0.77422476 0.66868031
0.73274404 0.77217335 0.6686213
0.73456037 0.77106482 0.66779691
0.73452258 0.76900983 0.66773772
0.73726535 0.76835877 0.66653037
0.73722756 0.76629859 0.66647106
0.73718971 0.76423836 0.66641176
0.73900551 0.76310354 0.66558659
0.740821 0.7619617 0.6647613
0.74078304 0.75989449 0.66470182
0.74074507 0.75782734 0.66464227
0.7407071 0.75576007 0.66458279
0.74066913 0.75369287 0.6645233
0.74063116 0.75162566 0.66446382
0.74059319 0.74955839 0.66440433
0.74055523 0.74749124 0.66434485
0.74051726 0.74542397 0.66428536
0.74047929 0.74335676 0.66422582
0.74044132 0.74128956 0.66416633
0.74040335 0.73922229 0.66410685
0.74036539 0.73715514 0.66404736
0.74032742 0.73508793 0.66398787
0.73843688 0.73214793 0.66469568
0.73839903 0.73008418 0.66463631
0.73836112 0.72802049 0.66457695
0.73832321 0.72595674 0.66451752
0.73643285 0.72303432 0.66522592
0.73639506 0.72097409 0.66516662
0.73635721 0.71891391 0.66510731
0.73817158 0.71770191 0.66427994
0.73813367 0.71563822 0.66422057
0.73809576 0.71357447 0.66416115
0.73990977 0.71234852 0.66333342
0.7398718 0.71028131 0.66327393
0.73983383 0.7082141 0.66321445
0.73979586 0.7061469 0.66315496
0.7397579 0.70407969 0.66309547
0.74157149 0.70283264 0.66226709
0.74153346 0.70076191 0.66220754
0.74149543 0.69869119 0.66214794
0.74423456 0.69783497 0.66093457
0.74419641 0.69575894 0.66087484
0.74415827 0.69368297 0.66081506
0.74597138 0.69240612 0.6599859
0.74593318 0.69032663 0.65992606
0.74589497 0.68824714 0.65986621
0.74585676 0.68616766 0.65980637
0.74581861 0.68408817 0.65974647
0.74578041 0.68200868 0.65968663
0.74759299 0.68070734 0.65885675
0.74755478 0.67862427 0.65879679
0.7502926 0.67769796 0.65758145
0.75025421 0.67560971 0.65752131
0.75021589 0.67352146 0.65746123
0.7501775 0.67143315 0.65740114
0.75013918 0.6693449 0.657341
0.75195116 0.66801023 0.65651017
0.75191277 0.66591847 0.65644997
0.75187433 0.6638267 0.65638977
0.75368619 0.66247797 0.65555847
0.75549781 0.6611222 0.65472698
0.75545925 0.6590234 0.6546666
0.75542068 0.65692466 0.65460616
0.75538218 0.65482587 0.65454578
0.75349379 0.65200162 0.65525693
0.75345528 0.64990634 0.65519667
0.75341678 0.64781106 0.65513635
0.75337833 0.64571577 0.65507603
0.75333983 0.64362049 0.65501571
0.75330132 0.64152521 0.65495545
0.75326288 0.63942999 0.65489513
0.75507379 0.63803566 0.65406257
0.75503522 0.63593686 0.65400213
0.75499666 0.63383812 0.65394175
0.75495815 0.63173932 0.65388137
0.75491959 0.62964052 0.65382093
0.75765473 0.62856692 0.65260136
0.75761604 0.62646288 0.6525408
0.75757742 0.62435883 0.65248024
0.75938767 0.62292773 0.65164661
0.75934893 0.62082016 0.65158594
0.76208341 0.61971146 0.65036529
0.76204461 0.61759859 0.6503045
0.76200581 0.61548579 0.6502437
0.76381558 0.61402839 0.64940929
0.76377666 0.61191207 0.64934838
0.76558626 0.61044413 0.64851367
0.7683199 0.60929155 0.64729184
0.76828086 0.60716647 0.64723068
0.76824182 0.60504138 0.64716953
0.770051 0.60355067 0.64633417
0.7700119 0.60142207 0.6462729
0.7699728 0.59929347 0.64621162
0.7699337 0.59716493 0.64615035
0.7698946 0.59503633 0.64608914
0.7698555 0.59290773 0.64602786
0.7698164 0.59077919 0.64596659
0.7697773 0.58865052 0.64590532
0.77158588 0.58712828 0.64506906
0.77154672 0.58499616 0.64500773
0.77150756 0.58286405 0.64494634
0.7714684 0.58073199 0.644885
0.77142924 0.57859987 0.64482361
0.76954275 0.57587904 0.64553779
0.76950365 0.5737505 0.64547652
0.76946455 0.57162189 0.64541525
0.76942545 0.56949329 0.64535397
0.76938635 0.56736475 0.64529276
0.77119428 0.56580734 0.64445543
0.77115512 0.56367522 0.6443941
0.76926905 0.56097895 0.64510894
0.76922995 0.55885041 0.64504766
0.76919085 0.55672181 0.64498645
0.76915175 0.55459321 0.64492518
0.76911271 0.55246466 0.6448639
0.76907361 0.550336 0.64480263
0.7690345 0.54820746 0.64474142
0.7689954 0.54607886 0.64468014
0.7689563 0.54395026 0.64461887
0.7689172 0.54182172 0.6445576
0.7688781 0.53969312 0.64449638
0.768839 0.53756452 0.64443511
0.7687999 0.53543597 0.64437383
0.7687608 0.53330737 0.64431256
0.7687217 0.53117877 0.64425129
0.7686826 0.52905023 0.64419007
0.7686435 0.52692163 0.6441288
0.76675862 0.52428848 0.64484549
0.76671958 0.52216339 0.64478433
0.76668054 0.52003831 0.64472312
0.76664156 0.51791322 0.64466196
0.76660252 0.51578814 0.64460081
0.7637952 0.51293254 0.64570737
0.76375628 0.5108127 0.64564633
0.76371735 0.50869286 0.64558536
0.76367843 0.50657308 0.64552432
0.72851557 0.78466016 0.66867524
0.72847801 0.78261578 0.66861641
0.72844046 0.78057134 0.66855758
0.73025572 0.77948749 0.66773069
0.73021811 0.77743953 0.66767174
0.7301805 0.77539158 0.66761279
0.73199552 0.77429372 0.66678548
0.73195785 0.77224231 0.66672647
0.73377275 0.77113396 0.6658988
0.73373502 0.76907897 0.66583967
0.73647577 0.76842803 0.66462743
0.73829037 0.76730037 0.66379923
0.73825246 0.76523662 0.66373986
0.73821455 0.76317292 0.66368043
0.74002874 0.7620312 0.66285187
0.73999077 0.75996399 0.66279238
0.74180478 0.75881183 0.66196352
0.74176675 0.75674105 0.66190392
0.74172872 0.75467032 0.66184431
0.7416907 0.7525996 0.66178477
0.74165267 0.75052893 0.66172516
0.74161464 0.74845815 0.66166556
0.74157661 0.74638742 0.66160595
0.74153852 0.7443167 0.66154635
0.7415005 0.74224597 0.66148674
0.74146247 0.74017531 0.6614272
0.73957312 0.73722464 0.66213799
0.73953515 0.73515743 0.66207844
0.73949718 0.73309016 0.66201895
0.73945922 0.73102295 0.66195947
0.73942125 0.72895581 0.66189998
0.73753226 0.72602612 0.66261137
0.73749435 0.72396249 0.662552
0.73745644 0.72189873 0.66249257
0.73741853 0.71983504 0.66243321
0.73738062 0.71777129 0.66237378
0.73734272 0.7157076 0.66231441
0.73730481 0.71364385 0.66225499
0.7391175 0.71241802 0.66142404
0.73907954 0.71035081 0.66136456
0.73904157 0.7082836 0.66130501
0.74085397 0.70704371 0.66047364
0.74081594 0.70497298 0.66041404
0.74077785 0.70290226 0.6603545
0.74351519 0.70205671 0.65913659
0.74347705 0.69998074 0.65907681
0.7434389 0.69790477 0.65901709
0.74525076 0.69663501 0.65818483
0.74521255 0.69455558 0.65812498
0.74517435 0.69247603 0.65806514
0.7451362 0.69039655 0.6580053
0.74509799 0.68831706 0.65794545
0.74505979 0.68623757 0.65788561
0.74502158 0.68415809 0.65782577
0.74683297 0.68286031 0.65699273
0.7467947 0.68077737 0.65693277
0.74675643 0.67869431 0.65687281
0.74949223 0.67776817 0.65565258
0.7494539 0.67567992 0.6555925
0.74941552 0.67359167 0.65553242
0.75122631 0.67226404 0.65469849
0.75118792 0.67017227 0.65463829
0.75114948 0.66808057 0.65457809
0.75111103 0.6659888 0.65451789
0.75107265 0.66389704 0.65445769
0.75288314 0.66254842 0.6536231
0.75469345 0.66119277 0.6527884
0.75465488 0.65909398 0.65272802
0.75461632 0.65699524 0.65266764
0.75457776 0.65489644 0.6526072
0.75269073 0.65207201 0.65332162
0.75265223 0.64997679 0.6532613
0.75261378 0.64788151 0.65320104
0.75257528 0.64578623 0.65314072
0.75253677 0.64369094 0.6530804
0.75249833 0.64159566 0.65302014
0.75430793 0.64020503 0.65218443
0.75426936 0.63810623 0.65212399
0.75423086 0.63600743 0.65206361
0.75419229 0.63390869 0.65200317
0.75415373 0.63180989 0.65194279
0.75688696 0.63074166 0.65071845
0.75684828 0.62863761 0.65065795
0.75680965 0.62653363 0.65059739
0.75861859 0.6251061 0.6497606
0.75857991 0.62299854 0.64969993
0.75854117 0.62089097 0.64963931
0.76127368 0.61978245 0.64841384
0.76308221 0.61833215 0.64757639
0.76304334 0.61621583 0.64751548
0.76485169 0.61475503 0.64667773
0.76481271 0.6126352 0.6466167
0.76754451 0.6114881 0.64539015
0.7693525 0.610008 0.64455187
0.7693134 0.6078794 0.6444906
0.76927429 0.6057508 0.64442933
0.76923519 0.6036222 0.64436805
0.76919609 0.60149366 0.64430684
0.77100372 0.59999245 0.6434679
0.77096456 0.5978604 0.64340657
0.7709254 0.59572828 0.64334518
0.77365601 0.59452158 0.6421169
0.77361679 0.59238422 0.64205539
0.77357751 0.59024686 0.64199388
0.77353823 0.58810955 0.64193237
0.77072954 0.58506787 0.64303839
0.77069038 0.58293575 0.642977
0.77065122 0.58080363 0.64291567
0.77061206 0.57867157 0.64285427
0.7705729 0.57653952 0.64279294
0.77053374 0.5744074 0.64273161
0.77049458 0.57227528 0.64267021
0.77045542 0.57014322 0.64260888
0.77041626 0.56801111 0.64254749
0.7703771 0.56587905 0.64248616
0.77033794 0.56374693 0.64242476
0.77029878 0.56161481 0.64236343
0.76841414 0.55892193 0.64308161
0.76837504 0.55679339 0.64302033
0.76833594 0.55466479 0.64295906
0.7682969 0.55253619 0.64289784
0.7682578 0.55040759 0.64283657
0.7682187 0.54827899 0.6427753
0.7681796 0.54615045 0.64271402
0.76814049 0.54402184 0.64265281
0.76810139 0.54189324 0.64259154
0.76806229 0.5397647 0.64253026
0.76802319 0.5376361 0.64246899
0.76798409 0.5355075 0.64240777
0.76794499 0.53337896 0.6423465
0.76790589 0.53125036 0.64228523
0.76786679 0.52912176 0.64222395
0.76782769 0.52699322 0.64216268
0.76594418 0.52435994 0.64288265
0.76590514 0.52223486 0.64282143
0.7658661 0.52010977 0.64276028
0.76582706 0.51798469 0.64269912
0.76578802 0.5158596 0.64263797
0.76298279 0.51300377 0.64374936
0.7629438 0.51088399 0.64368832
0.76290488 0.50876415 0.64362735
0.76286596 0.50664437 0.64356631
0.76282704 0.50452453 0.64350533
0.76278806 0.50240469 0.6434443
0.76274914 0.50028485 0.64338332
0.727732 0.78472888 0.66678691
0.72769445 0.7826845 0.66672802
0.7276569 0.78064007 0.66666919
0.72947085 0.77955639 0.66583908
0.72943324 0.77750844 0.66578013
0.72939563 0.77546048 0.66572118
0.73120928 0.77436268 0.66489065
0.73117161 0.77231127 0.66483164
0.7329852 0.77120304 0.66400075
0.73294741 0.76914805 0.66394162
0.73568618 0.76849729 0.66272449
0.73749942 0.76736975 0.66189307
0.73746151 0.765306 0.66183364
0.7374236 0.7632423 0.66177428
0.73923647 0.7621007 0.66094249
0.73919851 0.76003355 0.66088301
0.74101114 0.75888145 0.66005087
0.74097311 0.75681067 0.65999132
0.74093509 0.75473994 0.65993172
0.74089706 0.75266922 0.65987211
0.74085903 0.75059855 0.65981251
0.740821 0.74852777 0.65975291
0.74078298 0.74645704 0.6596933
0.74074495 0.74438632 0.6596337
0.74070686 0.74231565 0.65957415
0.74066883 0.74024493 0.65951455
0.73878086 0.73729414 0.66022855
0.73874289 0.73522693 0.66016906
0.73870486 0.73315966 0.66010958
0.73866689 0.73109245 0.66005009
0.73862892 0.7290253 0.65999055
0.7367413 0.72609556 0.66070521
0.7367034 0.72403187 0.66064578
0.73666549 0.72196811 0.66058642
0.73662758 0.71990442 0.66052705
0.73658967 0.71784067 0.66046762
0.73655176 0.71577698 0.66040826
0.73651385 0.71371329 0.66034883
0.73832518 0.71248752 0.65951461
0.73828721 0.71042031 0.65945512
0.73824924 0.7083531 0.65939564
0.74006033 0.70711333 0.65856099
0.7400223 0.7050426 0.65850145
0.73998427 0.70297188 0.65844184
0.74271953 0.7021265 0.65721905
0.74268138 0.70005053 0.65715933
0.74264324 0.69797456 0.6570996
0.74445379 0.69670492 0.65626413
0.74441558 0.6946255 0.65620422
0.74437737 0.69254595 0.65614438
0.74433917 0.69046646 0.65608454
0.74430102 0.68838698 0.65602469
0.74426281 0.68630749 0.65596485
0.74422461 0.684228 0.65590501
0.74603462 0.68293035 0.65506876
0.74599636 0.68084741 0.65500879
0.74595809 0.67876434 0.65494883
0.74869186 0.67783839 0.65372378
0.74865353 0.67575014 0.65366364
0.74861515 0.67366183 0.65360355
0.75042462 0.67233437 0.65276641
0.75038618 0.67024261 0.65270621
0.75034779 0.6681509 0.65264601
0.75030935 0.66605914 0.6525858
0.75027096 0.66396731 0.6525256
0.75208014 0.66261882 0.6516878
0.75388902 0.66126335 0.65084988
0.75385052 0.65916455 0.65078944
0.75381196 0.65706575 0.65072906
0.75377339 0.65496701 0.65066868
0.75188768 0.65214247 0.65138632
0.75184923 0.65004724 0.651326
0.75181073 0.64795196 0.65126568
0.75177222 0.64585668 0.65120542
0.75173378 0.6437614 0.6511451
0.75169528 0.64166611 0.65108478
0.75350356 0.6402756 0.65024585
0.753465 0.6381768 0.65018547
0.75342643 0.636078 0.65012503
0.75338793 0.63397926 0.65006465
0.75334936 0.63188046 0.65000421
0.75608057 0.63081241 0.64877504
0.75604188 0.62870836 0.64871454
0.75600326 0.62660432 0.64865398
0.75781089 0.62517697 0.64781392
0.75777215 0.62306941 0.6477533
0.75773346 0.62096184 0.64769262
0.76046389 0.6198535 0.64646232
0.76227111 0.61840332 0.64562166
0.76223224 0.61628699 0.64556074
0.76403922 0.61482626 0.64471972
0.7640003 0.61270648 0.64465874
0.76673001 0.61155957 0.64342731
0.76853669 0.61007953 0.64258575
0.76849759 0.60795099 0.64252448
0.76845849 0.60582238 0.64246327
0.76841938 0.60369378 0.64240199
0.76838028 0.60156518 0.64234072
0.77018654 0.60006416 0.64149857
0.77014738 0.5979321 0.64143723
0.77010822 0.59579998 0.64137584
0.77283686 0.59459347 0.64014274
0.77279758 0.5924561 0.64008123
0.77275836 0.59031874 0.64001971
0.77271909 0.58818138 0.6399582
0.76991242 0.58513951 0.64106905
0.76987326 0.58300745 0.64100772
0.7698341 0.58087534 0.64094633
0.76979494 0.57874328 0.640885
0.76975578 0.57661116 0.6408236
0.76971662 0.5744791 0.64076227
0.76967746 0.57234699 0.64070088
0.7696383 0.57021487 0.64063954
0.76959914 0.56808281 0.64057815
0.76955998 0.56595069 0.64051682
0.76952082 0.56381863 0.64045542
0.76948166 0.56168652 0.64039409
0.76759833 0.55899352 0.64111555
0.76755923 0.55686492 0.64105427
0.76752019 0.55473638 0.640993
0.76748109 0.55260777 0.64093173
0.76744199 0.55047917 0.64087045
0.76740289 0.54835057 0.64080924
0.76736379 0.54622197 0.64074796
0.76732469 0.54409343 0.64068669
0.76728559 0.54196483 0.64062542
0.76724648 0.53983623 0.6405642
0.76720738 0.53770769 0.64050293
0.76716828 0.53557909 0.64044166
0.76712918 0.53345048 0.64038038
0.76524681 0.5308066 0.64110327
0.76520777 0.52868152 0.64104211
0.76516873 0.52655643 0.64098096
0.76512969 0.52443135 0.64091974
0.7650907 0.52230632 0.64085859
0.76505166 0.52018118 0.64079744
0.76501262 0.51805615 0.64073628
0.76497358 0.51593107 0.64067513
0.76217031 0.51307505 0.64179134
0.76213139 0.51095521 0.64173037
0.76209247 0.50883543 0.64166933
0.76205349 0.5067156 0.64160836
0.76201457 0.50459576 0.64154732
0.76197565 0.50247598 0.64148635
0.76193672 0.50035614 0.64142531
0.76189774 0.49823633 0.64136434
0.76185882 0.49611652 0.6413033
0.7618199 0.49399668 0.64124233
0.76178098 0.4918769 0.64118129
0.72694844 0.78479761 0.66489851
0.72691089 0.78275323 0.66483968
0.72687334 0.78070879 0.66478086
0.72868592 0.77962524 0.66394746
0.7286483 0.77757728 0.66388857
0.72861069 0.77552933 0.66382962
0.73042303 0.77443165 0.66299582
0.73038536 0.77238023 0.66293681
0.73219758 0.77127212 0.6621027
0.73215985 0.76921713 0.66204357
0.7348966 0.76856655 0.66082156
0.73670846 0.76743913 0.65998691
0.73667055 0.76537538 0.65992749
0.73848212 0.76423746 0.65909255
0.73844415 0.7621702 0.65903306
0.73840618 0.76010305 0.65897357
0.74021751 0.75895107 0.65813828
0.74295342 0.75824791 0.65691471
0.74291527 0.75617188 0.65685499
0.74287713 0.75409591 0.6567952
0.74283904 0.75201994 0.65673548
0.74280089 0.74994391 0.65667576
0.74276274 0.74786794 0.65661597
0.7427246 0.74579191 0.65655625
0.74268651 0.743716 0.65649652
0.74264836 0.74163997 0.65643674
0.74261022 0.739564 0.65637702
0.73979914 0.73617303 0.65748268
0.73976111 0.73410237 0.65742314
0.73972309 0.73203164 0.65736353
0.73968506 0.72996092 0.65730393
0.73779869 0.72702754 0.65802169
0.73776072 0.72496033 0.6579622
0.73772275 0.72289312 0.65790272
0.73768479 0.72082591 0.65784317
0.73764682 0.7187587 0.65778369
0.73760885 0.71669149 0.6577242
0.73757088 0.71462423 0.65766472
0.73938078 0.71339512 0.65682715
0.73934275 0.71132439 0.65676755
0.73930472 0.70925367 0.656708
0.73926669 0.70718294 0.6566484
0.73922867 0.70511222 0.65658879
0.74196202 0.70427227 0.65536129
0.74192387 0.7021963 0.65530157
0.74188572 0.70012033 0.65524185
0.74369496 0.69885433 0.65440321
0.74365681 0.69677484 0.65434337
0.74361861 0.69469541 0.65428352
0.74542755 0.6934154 0.65344447
0.74538928 0.6913324 0.65338457
0.74535108 0.6892494 0.6533246
0.74531281 0.68716639 0.65326464
0.74527454 0.68508339 0.65320468
0.74523628 0.68300039 0.65314478
0.74519801 0.68091744 0.65308481
0.74515975 0.67883438 0.65302485
0.74973822 0.67868 0.65101492
0.74969977 0.67658824 0.65095472
0.74966133 0.67449647 0.65089452
0.74962294 0.67240471 0.65083432
0.7495845 0.67031294 0.65077412
0.74954611 0.66822124 0.65071392
0.75135404 0.66687983 0.64987308
0.75131553 0.66478455 0.64981282
0.75127709 0.66268927 0.6497525
0.75308466 0.66133392 0.6489113
0.7530461 0.65923512 0.64885092
0.75300759 0.65713632 0.64879054
0.75296903 0.65503758 0.6487301
0.75108463 0.65221292 0.64945102
0.75104618 0.6501177 0.6493907
0.75100768 0.64802241 0.64933038
0.75096917 0.64592713 0.64927012
0.75093073 0.64383185 0.6492098
0.75089222 0.64173657 0.64914948
0.7526992 0.64034611 0.64830726
0.75266063 0.63824737 0.64824688
0.75262207 0.63614857 0.6481865
0.75535142 0.63509125 0.64695275
0.7553128 0.6329872 0.64689219
0.75527418 0.63088316 0.64683163
0.75523549 0.62877911 0.64677107
0.75519687 0.62667507 0.64671057
0.75700313 0.62524778 0.64586729
0.75696445 0.62314028 0.64580661
0.7569257 0.62103271 0.64574599
0.76149887 0.62059075 0.64372778
0.76146001 0.61847448 0.64366686
0.76142114 0.61635816 0.64360595
0.76599365 0.61588115 0.64158678
0.76595461 0.61375606 0.64152563
0.76591557 0.61163098 0.64146447
0.76772088 0.61015111 0.6406197
0.76768178 0.60802251 0.64055842
0.7694869 0.60653216 0.63971335
0.772214 0.60535204 0.63847607
0.77217472 0.60321468 0.63841456
0.7721355 0.60107738 0.63835305
0.77209622 0.59894001 0.63829154
0.77205694 0.59680265 0.63823003
0.77201772 0.59466529 0.63816851
0.77197844 0.59252799 0.638107
0.77193916 0.59039056 0.63804549
0.77189994 0.58825326 0.63798398
0.77186066 0.5861159 0.63792247
0.77182144 0.58397853 0.63786095
0.77178216 0.58184123 0.63779944
0.77174288 0.57970381 0.63773793
0.7689386 0.57668287 0.63885427
0.76889944 0.57455075 0.63879293
0.76886028 0.57241869 0.63873154
0.76882112 0.57028657 0.63867021
0.76878196 0.56815451 0.63860887
0.7687428 0.5660224 0.63854748
0.76870364 0.56389028 0.63848615
0.76866448 0.56175822 0.63842475
0.76678252 0.5590651 0.63914943
0.76674348 0.5569365 0.63908815
0.76670438 0.5548079 0.63902694
0.76666528 0.55267936 0.63896567
0.76662618 0.55055076 0.63890439
0.76658708 0.54842216 0.63884312
0.76654798 0.54629356 0.63878191
0.76650888 0.54416496 0.63872063
0.76646978 0.54203641 0.63865936
0.76643068 0.53990781 0.63859808
0.76639158 0.53777921 0.63853681
0.76635247 0.53565067 0.6384756
0.76631337 0.53352207 0.63841432
0.76443237 0.53087807 0.63914043
0.76439333 0.52875292 0.63907921
0.76435429 0.5266279 0.63901806
0.76431525 0.52450281 0.6389569
0.76427621 0.52237773 0.63889575
0.76423717 0.52025265 0.6388346
0.76419812 0.51812756 0.63877344
0.76415914 0.51600254 0.63871229
0.7641201 0.51387739 0.63865113
0.76408106 0.51175237 0.63858998
0.76128 0.50890666 0.63971138
0.76124108 0.50678688 0.63965034
0.76120216 0.50466704 0.63958937
0.76116318 0.5025472 0.63952833
0.76112425 0.50042742 0.63946736
0.76108533 0.49830762 0.63940632
0.76104641 0.49618778 0.63934535
0.76100743 0.49406797 0.63928431
0.76096851 0.49194816 0.63922328
0.76092958 0.48982835 0.6391623
0.76089066 0.48770851 0.63910127
0.76085168 0.48558867 0.63904029
0.72616494 0.78486639 0.66301018
0.72612739 0.78282201 0.66295135
0.72608984 0.78077757 0.66289252
0.72790104 0.77969408 0.66205591
0.72786343 0.77764612 0.66199696
0.72782582 0.77559817 0.66193801
0.72963679 0.77450061 0.66110104
0.72959912 0.77244925 0.66104198
0.73141003 0.7713412 0.66020465
0.7313723 0.76928622 0.66014546
0.73410696 0.76863587 0.65891862
0.73591751 0.76750851 0.65808076
0.7358796 0.76544482 0.65802133
0.73768985 0.76430696 0.65718317
0.73949999 0.76316208 0.65634477
0.73946196 0.76109141 0.65628523
0.7421959 0.76039362 0.65505695
0.74215776 0.75831771 0.65499723
0.74211961 0.75624168 0.65493745
0.74392927 0.75507051 0.65409833
0.74389106 0.75299102 0.65403849
0.74385285 0.75091153 0.65397865
0.74381465 0.74883205 0.6539188
0.7437765 0.7467525 0.65385896
0.74189085 0.7437858 0.65457898
0.7418527 0.74170977 0.65451926
0.74181455 0.7396338 0.65445948
0.74177647 0.73755783 0.65439975
0.74173832 0.73548186 0.65434003
0.73892945 0.73210126 0.65545088
0.73889142 0.73003054 0.65539128
0.73885339 0.72795975 0.65533167
0.73696846 0.72502983 0.65605277
0.73693049 0.72296262 0.65599328
0.73689252 0.72089541 0.6559338
0.73870128 0.71967685 0.65509331
0.7386632 0.71760619 0.65503371
0.73862517 0.71553546 0.6549741
0.73858714 0.71346474 0.6549145
0.73854911 0.71139401 0.65485495
0.74128073 0.71057004 0.65362304
0.74124265 0.70849407 0.65356332
0.7412045 0.7064181 0.65350354
0.74301255 0.70516276 0.65266204
0.7429744 0.70308328 0.65260214
0.74293619 0.70100379 0.65254229
0.744744 0.69973439 0.65170038
0.74470574 0.69765145 0.65164042
0.74466747 0.69556844 0.65158045
0.74462926 0.69348544 0.65152049
0.744591 0.69140244 0.65146059
0.74455273 0.68931943 0.65140063
0.74451447 0.68723643 0.65134066
0.7444762 0.68515342 0.6512807
0.74443793 0.68307042 0.6512208
0.74716789 0.68215531 0.64998627
0.74712956 0.68006706 0.64992619
0.74893647 0.67875034 0.64908284
0.74889809 0.67665857 0.64902264
0.74885964 0.67456681 0.64896244
0.75066644 0.67323607 0.64811867
0.75062799 0.67114079 0.64805841
0.75058949 0.66904557 0.64799809
0.75055099 0.66695029 0.64793777
0.75051254 0.664855 0.64787751
0.75231886 0.66350323 0.64703315
0.75228029 0.66140449 0.64697278
0.75224173 0.65930569 0.64691234
0.75497013 0.65830642 0.64567542
0.75493151 0.65620238 0.64561486
0.7521261 0.65300936 0.64673114
0.75208753 0.65091056 0.64667076
0.75204897 0.64881182 0.64661032
0.75201046 0.64671302 0.64654994
0.7519719 0.64461422 0.64648956
0.75193334 0.64251548 0.64642912
0.75189477 0.64041668 0.64636874
0.75462234 0.63937008 0.64513046
0.75458372 0.63726604 0.6450699
0.75454503 0.635162 0.64500934
0.75450641 0.63305795 0.64494878
0.75446773 0.63095391 0.64488822
0.7544291 0.62884986 0.64482766
0.75439048 0.62674582 0.64476711
0.75619537 0.62531865 0.64392066
0.75892198 0.62422121 0.64268088
0.75888318 0.6221084 0.64262009
0.76068777 0.62066191 0.64177305
0.76249218 0.61920851 0.64092577
0.76245326 0.61708868 0.64086479
0.76517916 0.61595261 0.63962394
0.76698327 0.61447984 0.63877612
0.76694417 0.61235124 0.63871485
0.76690507 0.6102227 0.63865358
0.76686597 0.6080941 0.63859236
0.76866972 0.6066038 0.63774401
0.77139485 0.60542393 0.63650191
0.77135557 0.60328656 0.6364404
0.77131629 0.6011492 0.63637888
0.77127707 0.5990119 0.63631737
0.77123779 0.59687448 0.63625586
0.77119851 0.59473717 0.63619435
0.77115929 0.59259981 0.63613284
0.77296239 0.59107268 0.63528347
0.77292305 0.58893186 0.63522184
0.77104151 0.58618772 0.6359483
0.77100223 0.58405042 0.63588679
0.77096301 0.58191305 0.63582528
0.77092373 0.57977569 0.63576376
0.76812148 0.57675457 0.63688499
0.76808232 0.57462245 0.63682359
0.76804316 0.57249033 0.63676226
0.768004 0.57035828 0.63670087
0.76796484 0.56822616 0.63663954
0.76792568 0.5660941 0.63657814
0.76788652 0.56396198 0.63651681
0.76784736 0.56182986 0.63645542
0.76596677 0.55913669 0.63718337
0.76592767 0.55700809 0.63712209
0.76588857 0.55487949 0.63706082
0.76584947 0.55275089 0.63699955
0.76581037 0.55062228 0.63693833
0.76577127 0.54849374 0.63687706
0.76573217 0.54636514 0.63681579
0.76569307 0.54423654 0.63675451
0.76565397 0.542108 0.6366933
0.76561487 0.5399794 0.63663203
0.763735 0.53732473 0.63736105
0.76369596 0.53519964 0.6372999
0.76365691 0.53307456 0.63723874
0.76361787 0.53094947 0.63717753
0.76357883 0.52882439 0.63711637
0.76353979 0.5266993 0.63705522
0.76350081 0.52457428 0.63699406
0.76346177 0.5224492 0.63693291
0.76342273 0.52032411 0.63687176
0.76338369 0.51819903 0.6368106
0.76334465 0.51607394 0.63674945
0.7633056 0.51394886 0.63668829
0.76326656 0.51182377 0.63662714
0.76046753 0.50897795 0.63775337
0.76042861 0.50685817 0.63769239
0.76038969 0.50473833 0.63763136
0.76035076 0.50261849 0.63757038
0.76031184 0.50049865 0.63750935
0.76027286 0.49837887 0.63744831
0.76023394 0.49625906 0.63738734
0.76019502 0.49413922 0.6373263
0.7601561 0.49201944 0.63726532
0.76011711 0.48989961 0.63720429
0.76007819 0.4877798 0.63714331
0.76003927 0.48565996 0.63708228
0.76000035 0.48354015 0.6370213
0.75996137 0.48142034 0.63696027
0.75992244 0.4793005 0.63689929
0.72538137 0.78493512 0.66112185
0.72534382 0.78289074 0.66106302
0.72530627 0.7808463 0.66100419
0.72711617 0.77976292 0.6601643
0.72707856 0.77771497 0.66010535
0.72704095 0.77566701 0.66004646
0.72885054 0.77456963 0.65920621
0.72881287 0.77251822 0.65914714
0.73062241 0.77141029 0.65830654
0.73058468 0.7693553 0.65824741
0.73054695 0.76730037 0.65818828
0.73327953 0.76664495 0.65695643
0.73324168 0.76458472 0.65689713
0.73689759 0.76437646 0.6552738
0.73870635 0.76323169 0.65443218
0.73866832 0.76116103 0.65437257
0.74140024 0.76046342 0.65313947
0.74136209 0.75838751 0.65307975
0.74132395 0.75631148 0.65301996
0.74313223 0.75514042 0.65217763
0.74309409 0.753061 0.65211773
0.74305588 0.75098145 0.65205789
0.74301767 0.74890196 0.65199804
0.74297947 0.74682242 0.6519382
0.74109519 0.7438556 0.6526615
0.74105704 0.74177957 0.65260172
0.74101895 0.7397036 0.652542
0.7409808 0.73762763 0.65248227
0.74094266 0.73555166 0.65242249
0.73813581 0.73217088 0.65353823
0.73809779 0.73010015 0.65347862
0.73805976 0.72802937 0.65341902
0.73617613 0.72509933 0.65414339
0.73613816 0.72303218 0.65408391
0.7361002 0.72096491 0.65402442
0.73790765 0.71974647 0.65318066
0.73786962 0.71767581 0.65312105
0.73783153 0.71560508 0.65306145
0.73779351 0.71353436 0.6530019
0.73775548 0.71146363 0.6529423
0.74048513 0.71063983 0.65170556
0.74044698 0.70856386 0.65164578
0.74040884 0.70648789 0.65158606
0.74221557 0.70523268 0.65074128
0.74217737 0.70315319 0.65068144
0.74213922 0.70107371 0.65062159
0.74394566 0.69980443 0.6497764
0.74390739 0.69772148 0.64971644
0.74386919 0.69563848 0.64965647
0.74383092 0.69355547 0.64959651
0.74379265 0.69147247 0.64953661
0.74375439 0.68938947 0.64947665
0.74371612 0.68730646 0.64941669
0.74367785 0.68522346 0.64935672
0.74363959 0.68314046 0.64929682
0.74636757 0.68222553 0.64805746
0.74632919 0.68013728 0.64799732
0.74813479 0.67882067 0.64715081
0.74809641 0.6767289 0.64709061
0.74805796 0.67463714 0.64703041
0.74986345 0.67330652 0.64618337
0.74982494 0.67121124 0.64612305
0.74978644 0.66911602 0.64606279
0.74974799 0.66702074 0.64600247
0.74970949 0.66492546 0.64594215
0.75151443 0.6635738 0.64509463
0.75147593 0.66147506 0.64503419
0.75143737 0.65937626 0.64497381
0.75416374 0.65837711 0.64373201
0.75412512 0.65627313 0.64367145
0.75132173 0.65307993 0.64479262
0.75128317 0.65098113 0.64473218
0.7512446 0.64888239 0.6446718
0.75120604 0.64678359 0.64461142
0.75116754 0.64468479 0.64455098
0.75112897 0.64258605 0.6444906
0.75109041 0.64048725 0.64443016
0.75381595 0.63944083 0.64318705
0.75377727 0.63733679 0.64312649
0.75373864 0.63523275 0.64306593
0.75370002 0.6331287 0.64300537
0.75366133 0.63102466 0.64294481
0.75362271 0.62892061 0.64288425
0.75358409 0.62681657 0.6428237
0.75538766 0.62538952 0.64197397
0.75811225 0.62429219 0.64072937
0.75807345 0.62217945 0.64066857
0.75987667 0.62073308 0.63981831
0.76167977 0.61927974 0.63896781
0.76164085 0.61715996 0.63890678
0.76436472 0.61602408 0.6376611
0.76616746 0.61455142 0.63681
0.76612836 0.61242282 0.63674879
0.76608926 0.61029422 0.63668752
0.76605016 0.60816568 0.63662624
0.7678526 0.60667551 0.63577467
0.77057564 0.60549581 0.63452774
0.77053642 0.60335839 0.63446623
0.77049714 0.60122108 0.63440472
0.77045786 0.59908372 0.63434321
0.77041864 0.59694636 0.63428169
0.77037936 0.59480906 0.63422018
0.77034009 0.59267169 0.63415867
0.77214187 0.59114468 0.63330603
0.77210253 0.5890038 0.6332444
0.7720632 0.58686298 0.63318282
0.77018309 0.58412224 0.63391262
0.77014381 0.58198494 0.63385111
0.77010459 0.57984757 0.6337896
0.7673043 0.57682621 0.63491565
0.76726514 0.57469416 0.63485426
0.76722598 0.57256204 0.63479292
0.76718682 0.57042992 0.63473153
0.76714766 0.56829786 0.6346702
0.7671085 0.56616575 0.63460886
0.76706934 0.56403369 0.63454747
0.76703018 0.56190157 0.63448614
0.76699102 0.55976945 0.63442475
0.76695186 0.55763739 0.63436341
0.7669127 0.55550534 0.63430202
0.76687354 0.55337322 0.63424069
0.76499456 0.55069387 0.63497221
0.76495546 0.54856527 0.63491094
0.76491636 0.54643673 0.63484973
0.76487726 0.54430813 0.63478845
0.76483816 0.54217952 0.63472718
0.76479906 0.54005098 0.63466591
0.7629205 0.53739619 0.63539821
0.76288146 0.53527111 0.63533705
0.76284248 0.53314602 0.63527584
0.76280344 0.53102094 0.63521469
0.76276439 0.52889585 0.63515353
0.76272535 0.52677077 0.63509238
0.76268631 0.52464569 0.63503122
0.76264727 0.52252066 0.63497007
0.75984979 0.51964831 0.63610041
0.75981086 0.51752847 0.63603944
0.75977194 0.51540869 0.6359784
0.75973296 0.51328886 0.63591743
0.75969404 0.51116908 0.63585639
0.75965512 0.50904924 0.63579541
0.7596162 0.50692946 0.63573438
0.75957721 0.50480962 0.6356734
0.75953829 0.50268978 0.63561237
0.75949937 0.50056994 0.63555133
0.75946045 0.49845016 0.63549036
0.75942147 0.49633032 0.63542932
0.75938255 0.49421051 0.63536835
0.76210082 0.49276954 0.63411385
0.76206183 0.49064448 0.63405269
0.76202279 0.48851937 0.63399154
0.76198375 0.48639432 0.63393039
0.75918788 0.48361143 0.63506329
0.75914896 0.4814916 0.63500232
0.75911003 0.47937179 0.63494128
0.75907105 0.47725198 0.63488024
0.75903213 0.47513217 0.63481927
0.75899321 0.47301233 0.63475823
0.72271401 0.7819913 0.65995872
0.72452271 0.78091502 0.65911579
0.72448516 0.77887058 0.65905696
0.72444761 0.7768262 0.65899813
0.72625601 0.77573586 0.65815485
0.7280643 0.77463859 0.65731138
0.72802663 0.77258718 0.65725231
0.72798896 0.77053577 0.6571933
0.72795129 0.76848429 0.65713423
0.72975934 0.76736951 0.65629023
0.73248994 0.76671422 0.6550535
0.73245209 0.76465398 0.65499419
0.73425984 0.76351988 0.65414959
0.73791271 0.76330131 0.65251952
0.73787469 0.76123065 0.65245992
0.74060458 0.76053321 0.65122199
0.74056649 0.7584573 0.65116221
0.74052835 0.75638127 0.65110248
0.74233526 0.75521034 0.65025687
0.74229705 0.75313091 0.65019703
0.74225891 0.75105137 0.65013719
0.74406558 0.74986643 0.64929116
0.74402732 0.74778336 0.6492312
0.74398905 0.74570042 0.64917129
0.74395078 0.74361742 0.64911133
0.74206793 0.74065387 0.64983791
0.74202973 0.73857445 0.64977807
0.74199152 0.7364949 0.64971823
0.74195331 0.73441541 0.64965838
0.74191511 0.73233598 0.64959854
0.74003261 0.72939348 0.65032578
0.73999453 0.72731751 0.65026605
0.73995638 0.72524148 0.65020627
0.73715204 0.72188687 0.65132761
0.73711401 0.71981609 0.65126801
0.73707598 0.71774542 0.6512084
0.73703796 0.7156747 0.65114886
0.7397657 0.71486163 0.64990753
0.73972762 0.7127856 0.64984781
0.73968947 0.71070963 0.64978808
0.74149501 0.70946157 0.64894021
0.74145681 0.70738208 0.64888036
0.74326211 0.70612347 0.64803225
0.74322385 0.70404047 0.64797229
0.74318558 0.70195746 0.64791232
0.74314737 0.69987446 0.64785242
0.74587405 0.69900179 0.64660943
0.74583566 0.69691354 0.64654928
0.74579734 0.69482529 0.6464892
0.74575895 0.69273704 0.64642912
0.74572062 0.69064873 0.64636898
0.74568224 0.68856049 0.6463089
0.74564391 0.68647224 0.64624882
0.74560553 0.68438399 0.64618874
0.7455672 0.68229574 0.64612859
0.74552882 0.68020749 0.64606851
0.74733311 0.678891 0.64521873
0.74913734 0.67756754 0.64436865
0.7490989 0.67547226 0.64430839
0.74906039 0.67337698 0.64424807
0.74902189 0.6712817 0.64418775
0.74898344 0.66918647 0.64412749
0.75355059 0.66896802 0.64209139
0.75351191 0.66686404 0.64203084
0.75347328 0.66475999 0.64197028
0.75343466 0.66265595 0.64190972
0.75339597 0.66055191 0.64184916
0.75335735 0.65844786 0.6417886
0.75331873 0.65634382 0.64172804
0.75328004 0.65423977 0.64166749
0.75324142 0.65213579 0.64160693
0.7532028 0.65003175 0.64154643
0.75316411 0.6479277 0.64148587
0.75312549 0.64582366 0.64142531
0.75308681 0.64371961 0.64136475
0.75304818 0.64161557 0.64130419
0.75300956 0.63951153 0.64124364
0.75297087 0.63740748 0.64118308
0.75293225 0.6353035 0.64112252
0.75289363 0.63319945 0.64106196
0.75285494 0.63109541 0.6410014
0.75465733 0.62967551 0.64014864
0.75461859 0.62756795 0.64008802
0.7545799 0.62546039 0.64002734
0.75730246 0.62436324 0.63877785
0.75726366 0.62225044 0.63871706
0.75906557 0.62080425 0.63786352
0.7608673 0.61935103 0.6370098
0.76082838 0.61723119 0.63694882
0.76355022 0.61609548 0.63569826
0.76535165 0.61462295 0.63484395
0.76531255 0.61249441 0.63478267
0.76711375 0.61101133 0.63392812
0.76707458 0.60887927 0.63386673
0.76979578 0.607705 0.63261503
0.7697565 0.60556763 0.63255352
0.76971722 0.60343027 0.63249201
0.769678 0.60129291 0.63243049
0.77147865 0.59978008 0.63157505
0.77143931 0.59763926 0.63151348
0.77139997 0.59549838 0.63145185
0.7713607 0.5933575 0.63139021
0.77132136 0.59121668 0.63132864
0.77128202 0.5890758 0.63126701
0.77124268 0.58693498 0.63120538
0.7712034 0.5847941 0.63114375
0.77116406 0.58265322 0.63108218
0.77112472 0.5805124 0.63102055
0.76924616 0.57778209 0.63175386
0.76920688 0.57564473 0.63169235
0.7691676 0.57350737 0.63163084
0.76912838 0.57137001 0.63156933
0.7690891 0.56923264 0.63150781
0.76904988 0.56709534 0.6314463
0.7690106 0.56495798 0.63138479
0.76897132 0.56282061 0.63132328
0.7661739 0.55984116 0.63245541
0.76613474 0.5577091 0.63239408
0.76609558 0.55557698 0.63233268
0.76605642 0.55344492 0.63227135
0.76417875 0.55076545 0.63300616
0.76413965 0.54863685 0.63294488
0.76410055 0.54650825 0.63288361
0.76406145 0.54437971 0.63282233
0.76402235 0.54225111 0.63276112
0.76398325 0.54012251 0.63269985
0.76210606 0.53746766 0.63343537
0.76206702 0.53534251 0.63337415
0.76202798 0.53321749 0.633313
0.76198894 0.53109241 0.63325185
0.7619499 0.52896732 0.63319069
0.76191092 0.52684224 0.63312954
0.76187187 0.52471715 0.63306838
0.76183283 0.52259207 0.63300723
0.75903732 0.5197196 0.63414246
0.75899839 0.51759976 0.63408142
0.75895947 0.51547992 0.63402045
0.75892055 0.51336014 0.63395941
0.75888163 0.5112403 0.63389844
0.75884265 0.50912052 0.6338374
0.75880373 0.50700068 0.63377637
0.7587648 0.50488091 0.63371539
0.75872588 0.50276107 0.63365436
0.7586869 0.50064123 0.63359338
0.75864798 0.49852142 0.63353235
0.75860906 0.49640161 0.63347137
0.76132542 0.49496606 0.63221216
0.76128638 0.49284098 0.63215101
0.76124734 0.49071592 0.63208985
0.7612083 0.48859084 0.6320287
0.76116925 0.48646575 0.63196754
0.76113027 0.4843407 0.63190639
0.76109123 0.48221558 0.63184518
0.76105219 0.48009053 0.63178402
0.76101315 0.47796544 0.63172287
0.76097411 0.47584039 0.63166171
0.75818074 0.47308362 0.63280028
0.75814182 0.47096378 0.63273925
0.75810289 0.468844 0.63267827
0.75806397 0.46672416 0.63261724
0.72193182 0.78205991 0.6580736
0.72373915 0.78098375 0.65722746
0.7237016 0.77893931 0.65716863
0.72366405 0.77689493 0.6571098
0.72547114 0.77580476 0.65626329
0.72727805 0.77470756 0.65541655
0.72724038 0.77265614 0.65535748
0.72720271 0.77060473 0.65529847
0.72716504 0.76855326 0.6552394
0.72897178 0.76743859 0.65439212
0.73170036 0.76678348 0.65315056
0.73166251 0.76472324 0.65309131
0.73346889 0.76358926 0.65224344
0.73711908 0.76337093 0.65060687
0.73708105 0.76130027 0.65054727
0.73980892 0.76060307 0.64930445
0.73977083 0.7585271 0.64924473
0.73973268 0.75645107 0.649185
0.74338204 0.75618541 0.64754701
0.74334377 0.75410241 0.6474871
0.7433055 0.75201946 0.64742714
0.74326724 0.74993646 0.64736718
0.74322897 0.7478534 0.64730722
0.74319071 0.74577045 0.64724731
0.74315244 0.74368745 0.64718735
0.74311417 0.74160451 0.64712739
0.74123275 0.73864436 0.64785737
0.74119455 0.73656482 0.64779752
0.74115634 0.73448533 0.64773768
0.74111813 0.7324059 0.64767778
0.74107993 0.73032635 0.64761794
0.73919886 0.72738731 0.64834851
0.73916072 0.72531128 0.64828879
0.73912263 0.72323537 0.648229
0.73908448 0.72115934 0.64816928
0.73904634 0.71908337 0.64810956
0.73900819 0.7170074 0.64804977
0.7408126 0.71576995 0.64719903
0.74077439 0.71369046 0.64713919
0.74073619 0.71161097 0.64707935
0.7425403 0.71035951 0.64622819
0.74250203 0.70827651 0.64616823
0.74246377 0.70619351 0.64610827
0.74518877 0.70533675 0.64486086
0.74515039 0.7032485 0.64480078
0.74511206 0.70116025 0.64474064
0.74507368 0.699072 0.64468056
0.74503535 0.69698375 0.64462048
0.74499696 0.69489551 0.6445604
0.74495864 0.69280726 0.64450026
0.74492025 0.69071895 0.64444017
0.74488193 0.6886307 0.64438009
0.74484354 0.68654245 0.64431995
0.74480522 0.6844542 0.64425987
0.74476683 0.68236595 0.64419979
0.74472851 0.68027771 0.64413965
0.74653143 0.67896134 0.64328665
0.74833429 0.67763799 0.64243335
0.74829584 0.67554271 0.64237303
0.74825734 0.67344743 0.64231277
0.74821883 0.67135215 0.64225245
0.75002134 0.67001128 0.64139873
0.7527442 0.66903877 0.64014798
0.75270551 0.66693473 0.64008743
0.75266689 0.66483074 0.64002687
0.75262827 0.6627267 0.63996631
0.75258958 0.66062266 0.63990575
0.75255096 0.65851861 0.63984519
0.75251234 0.65641457 0.63978463
0.75247365 0.65431052 0.63972408
0.75243503 0.65220648 0.63966352
0.75239635 0.65010244 0.63960302
0.75235772 0.64799845 0.63954246
0.7523191 0.64589441 0.6394819
0.75228041 0.64379036 0.63942134
0.75224179 0.64168632 0.63936079
0.75220317 0.63958228 0.63930023
0.75216448 0.63747823 0.63923967
0.75212586 0.63537419 0.63917911
0.75208718 0.63327014 0.63911855
0.75204855 0.63116616 0.63905799
0.75384957 0.62974638 0.63820201
0.75381088 0.62763882 0.63814133
0.75377214 0.62553126 0.63808072
0.75649273 0.62443429 0.63682634
0.75645393 0.62232149 0.63676554
0.75825447 0.62087536 0.63590878
0.76005489 0.61942232 0.63505185
0.7600159 0.61730248 0.63499081
0.76273578 0.61616695 0.63373536
0.76453584 0.61469454 0.63287789
0.76449674 0.61256593 0.63281661
0.76629663 0.61108303 0.63195878
0.76625746 0.60895097 0.63189739
0.76897657 0.60777682 0.63064086
