ply
format ascii 1.0
comment PCL generated
element vertex 1436
property float x
property float y
property float z
element camera 0
property float view_px
property float view_py
property float view_pz
property float x_axisx
property float x_axisy
property float x_axisz
property float y_axisx
property float y_axisy
property float y_axisz
property float z_axisx
property float z_axisy
property float z_axisz
property float focal
property float scalex
property float scaley
property float centerx
property float centery
property int viewportx
property int viewporty
property float k1
property float k2
end_header
1.4217705 0.068649225 0.82987219
1.4208778 0.06757056 0.82954752
-0.23057835 -0.4486838 0.40874195
1.4190962 0.065417662 0.82889962
1.4219595 0.065510966 0.82953179
1.4225711 0.064902171 0.82959038
1.4175539 0.062547058 0.82821637
1.4174145 0.061707679 0.82808411
1.4191462 0.061447218 0.82842791
1.4178836 0.060260892 0.82800996
1.4143864 0.058387157 0.82702398
1.4179788 0.058699008 0.82784075
1.4185872 0.058090713 0.82789874
1.4184476 0.057252552 0.82776666
1.4186821 0.056529321 0.82772958
1.4181687 0.055577349 0.82750255
1.4191511 0.055082865 0.82765549
1.4197599 0.054473747 0.82771343
1.41962 0.053636406 0.82758135
1.4176116 0.052231524 0.82697517
1.4185928 0.051735941 0.82712764
1.4203235 0.051466718 0.82747018
1.4171944 0.049726088 0.82658017
1.4192955 0.049568221 0.82701659
1.4180355 0.048395101 0.82660079
1.4208868 0.048461035 0.827227
1.416639 0.046390831 0.82605439
1.4179912 0.046005338 0.82630074
1.4171065 0.044948626 0.82598054
1.4192058 0.044785507 0.82641584
1.4190663 0.04395204 0.82628429
1.4174352 0.042674199 0.82577533
1.4172964 0.041842368 0.8256442
1.4175301 0.041121591 0.82560724
1.4173912 0.040290285 0.82547611
1.4179974 0.039680038 0.82553339
1.4182311 0.038959261 0.82549644
1.4184648 0.038238484 0.82545948
1.4190713 0.037627619 0.82551676
1.4185593 0.036687214 0.82529145
1.4180479 0.035747658 0.82506639
1.4190266 0.035245989 0.8252176
1.4155402 0.033435848 0.8242417
1.4139193 0.032174733 0.82373703
1.4145225 0.031564705 0.82379371
1.4162395 0.031278878 0.82413119
1.4161012 0.030451836 0.82400072
1.4152212 0.029409681 0.82368326
1.4154541 0.02869134 0.82364643
1.415687 0.027972998 0.82360965
1.4155492 0.027147476 0.82347941
1.415782 0.026429296 0.82344258
1.4167569 0.025924897 0.82359266
1.4162476 0.024992937 0.82336903
1.4164804 0.024274757 0.82333219
1.4170843 0.023662949 0.82338876
1.4169462 0.022838401 0.82325858
1.417179 0.022120221 0.8232218
1.4170407 0.021296183 0.82309169
1.4172735 0.020578166 0.82305491
1.4163936 0.019543838 0.82273841
1.417739 0.019142129 0.8229813
1.4176008 0.018318968 0.82285124
1.4156098 0.016972123 0.82225591
1.4169536 0.016569039 0.82249826
1.4179279 0.016060771 0.82264775
1.4185317 0.015447541 0.82270414
1.4169099 0.014208625 0.82220191
1.4160316 0.013180023 0.82188648
1.4166341 0.012567096 0.82194263
1.417978 0.012161111 0.82218468
1.4145104 0.010411303 0.82122016
1.4151118 0.0097986069 0.82127613
1.4149743 0.0089801 0.82114685
1.4152064 0.0082644997 0.82111019
1.4154384 0.0075488971 0.82107353
1.4160399 0.0069355606 0.82112938
1.4155329 0.0060156561 0.82090765
1.4161344 0.0054020947 0.8209635
1.4163663 0.0046864953 0.82092685
1.4165984 0.0039708922 0.82089019
1.4164608 0.003153895 0.82076102
1.4166927 0.0024384547 0.82072437
1.4169247 0.0017230144 0.82068771
1.4145728 0.00030241057 0.82000512
1.417019 0.00019143861 0.82052201
1.414299 -0.0013266554 0.81974781
1.4178524 -0.0011387466 0.82054108
1.4173449 -0.0020546182 0.82031971
1.4175767 -0.0027697328 0.82028306
1.4137522 -0.0045804046 0.81923378
1.4158251 -0.004797251 0.81965685
1.4142147 -0.0060071223 0.8191607
1.4155508 -0.0064236685 0.81939971
1.4150455 -0.0073351045 0.81917942
1.4141726 -0.0083442153 0.8188675
1.4147718 -0.0089589199 0.8189227
1.4146351 -0.0097702956 0.81879443
1.4141306 -0.010679238 0.81857461
1.4147294 -0.011294196 0.81862968
1.4153285 -0.011909417 0.81868482
1.4151917 -0.012719958 0.81855667
1.4146872 -0.013627347 0.81833696
1.4152859 -0.014242848 0.81839198
1.4147815 -0.015149382 0.81817245
1.415748 -0.015668284 0.81831896
1.4152434 -0.016574189 0.81809944
1.4154743 -0.017286586 0.8180629
1.4142355 -0.018383509 0.81766099
1.4148334 -0.01899937 0.81771582
1.4146969 -0.019807048 0.81758809
1.4145604 -0.020614373 0.81746036
1.4133238 -0.021707129 0.8170594
1.4153893 -0.021942347 0.81747866
1.41562 -0.022654112 0.81744218
1.4136486 -0.023934742 0.81685913
1.4138792 -0.024645561 0.81682271
1.4141096 -0.025356371 0.81678629
1.4136069 -0.026255526 0.81656802
1.4138373 -0.026966026 0.8165316
1.412969 -0.027957754 0.81622285
1.4146646 -0.028293347 0.81654966
1.4137955 -0.029284429 0.81624079
1.4129277 -0.030274155 0.81593233
1.414989 -0.030518521 0.81634957
1.4148527 -0.03132201 0.81622237
1.4154497 -0.031939518 0.81627679
1.4134822 -0.033205461 0.8156963
1.4129807 -0.034099527 0.81547892
1.4154072 -0.034255698 0.81598604
1.4130751 -0.035609853 0.81531584
1.4162345 -0.035584051 0.81600398
1.4128039 -0.037211012 0.81506246
1.4152286 -0.037371233 0.81556869
1.4161917 -0.037898086 0.81571347
1.4142245 -0.039155241 0.81513417
1.4126272 -0.040318374 0.81464648
1.4128569 -0.041026659 0.81461018
1.4127215 -0.041825324 0.81448376
1.4125862 -0.04262362 0.81435746
1.4135458 -0.043151528 0.81450135
1.4130453 -0.044039562 0.81428486
1.4125452 -0.044926837 0.81406862
1.4160635 -0.044827852 0.81484348
1.4137338 -0.046163484 0.81417602
1.4132334 -0.047049817 0.81395984
1.4134629 -0.04775748 0.8139236
1.4140574 -0.048376288 0.81397724
1.4139217 -0.049172793 0.81385106
1.4141512 -0.049880452 0.81381476
1.4121932 -0.051117498 0.81323993
1.41461 -0.051295772 0.81374228
1.4144744 -0.052091446 0.81361616
1.4121523 -0.05341287 0.8129521
1.4142032 -0.053681757 0.81336409
1.4144324 -0.054388948 0.81332785
1.4135679 -0.05535781 0.81302261
1.4127043 -0.056325417 0.8127178
1.411842 -0.057291735 0.81241339
1.4124345 -0.057911009 0.81246662
1.411936 -0.058789589 0.81225175
1.4121648 -0.059495207 0.81221563
1.4120301 -0.06028679 0.81209016
1.4118954 -0.061078005 0.81196481
1.4121242 -0.061783317 0.81192869
1.4123528 -0.062488634 0.81189257
1.4129449 -0.063108668 0.81194556
1.4128101 -0.063899256 0.81182027
1.4130387 -0.064604566 0.81178415
1.4132674 -0.065309882 0.81174797
1.4131325 -0.066099815 0.81162274
1.4129977 -0.06688939 0.81149751
1.4139534 -0.067425817 0.81163955
1.4130914 -0.068383478 0.81133628
1.4111426 -0.069591105 0.81076694
1.412096 -0.070127882 0.81090844
1.4148681 -0.070247069 0.81149501
1.413642 -0.071286291 0.81110287
1.4109683 -0.072655767 0.81035674
1.4137355 -0.072778724 0.81094176
1.4114244 -0.07406266 0.81028461
1.4105664 -0.075013392 0.80998302
1.4107943 -0.075716376 0.80994701
1.4110222 -0.076419353 0.80991101
1.4112501 -0.077122323 0.80987495
1.411478 -0.077825315 0.80983895
1.411706 -0.078528285 0.80980295
1.4119339 -0.079231277 0.80976689
1.4114377 -0.080096774 0.80955416
1.4113038 -0.080880485 0.80942988
1.4115316 -0.081583008 0.80939388
1.4124832 -0.082124017 0.80953443
1.4119871 -0.082988031 0.80932188
1.4133013 -0.083449148 0.80955076
1.4135292 -0.08415214 0.80951476
1.4133947 -0.084935315 0.80939043
1.4121742 -0.085957929 0.80900151
1.4102339 -0.087137841 0.80843741
1.4119061 -0.087521419 0.80875337
1.4121337 -0.088223316 0.80871737
1.4112769 -0.089162633 0.8084175
1.4107822 -0.090021856 0.80820578
1.410288 -0.090880312 0.80799431
1.4105152 -0.091581136 0.80795842
1.4103818 -0.092360258 0.8078348
1.410609 -0.093060926 0.80779886
1.4137266 -0.093136586 0.8084656
1.4146783 -0.093682192 0.80860567
1.4112904 -0.095162906 0.80769116
1.4111568 -0.095941089 0.8075676
1.4113839 -0.0966416 0.80753171
1.4112504 -0.097419254 0.80740827
1.4114774 -0.098119609 0.80737239
1.4113438 -0.098896794 0.80724895
1.4119315 -0.099520318 0.80730063
1.4125195 -0.10014414 0.80735224
1.4116642 -0.10107375 0.80705386
1.4111704 -0.10192605 0.80684316
1.4117576 -0.10254983 0.80689472
1.4109037 -0.10347702 0.80659688
1.4122114 -0.10394961 0.80682296
1.412799 -0.10457398 0.80687451
1.4123046 -0.10542475 0.80666387
1.4092928 -0.1067997 0.80584377
1.4095192 -0.10749806 0.80580801
1.4101049 -0.10812184 0.80585915
1.4092537 -0.10904356 0.80556262
1.40948 -0.10974161 0.80552685
1.4097064 -0.11043967 0.80549103
1.4099326 -0.11113772 0.80545527
1.4112372 -0.11161441 0.80568022
1.4107445 -0.11246022 0.80547059
1.4109709 -0.11315843 0.80543482
1.4104787 -0.11400321 0.80522543
1.410705 -0.11470111 0.80518967
1.4112905 -0.11532605 0.80524069
1.4115168 -0.11602411 0.80520493
1.4099475 -0.11708511 0.80473572
1.4105324 -0.11771005 0.80478656
1.4082494 -0.11891238 0.80414546
1.4113438 -0.11903282 0.8048017
1.4101342 -0.12001803 0.8044197
1.4114368 -0.12049982 0.80464363
1.4123816 -0.12105395 0.80478114
1.4104533 -0.12218038 0.8042261
1.4092458 -0.12316176 0.80384505
1.4087557 -0.12399976 0.80363691
1.4096973 -0.1245542 0.8037737
1.409565 -0.12532102 0.80365181
1.408717 -0.12622827 0.80335772
1.41145 -0.12643179 0.80392551
1.4095259 -0.12754944 0.8033725
1.4093935 -0.12831514 0.80325079
1.4103351 -0.1288712 0.80338734
1.4102026 -0.12963676 0.80326557
1.4097123 -0.13047141 0.80305785
1.4102956 -0.13109761 0.80310822
1.4105211 -0.13179323 0.80307257
1.4107467 -0.13248885 0.80303693
1.4106143 -0.13325326 0.80291528
1.4101239 -0.13408597 0.80270779
1.4099917 -0.13484955 0.80258632
1.407361 -0.13608964 0.80186522
1.4093701 -0.13644375 0.80225778
1.409238 -0.13720615 0.80213648
1.411967 -0.13742608 0.80270147
1.4100456 -0.13852741 0.80215096
1.4084857 -0.13955864 0.80168748
1.4079975 -0.14038661 0.80148101
1.4085789 -0.14101318 0.8015309
1.4088038 -0.14170684 0.80149537
1.4093854 -0.14233385 0.80154526
1.4085405 -0.14322703 0.8012535
1.4109068 -0.14352226 0.80173069
1.4093466 -0.14454761 0.8012678
1.4088583 -0.14537303 0.80106163
1.4083705 -0.14619774 0.80085558
1.4089514 -0.14682506 0.80090529
1.407396 -0.14784503 0.80044413
1.4083321 -0.14840694 0.80057877
1.4089127 -0.14903447 0.80062842
1.4094937 -0.14966223 0.80067807
1.4086497 -0.15054949 0.80038726
1.409943 -0.15104803 0.80060709
1.4080311 -0.15212759 0.80006135
1.4071892 -0.15301208 0.79977131
1.4074135 -0.15370362 0.79973584
1.4090601 -0.15413965 0.80003989
1.4078618 -0.15508671 0.79966497
1.4066657 -0.15603213 0.79929078
1.406535 -0.15678631 0.79917079
1.4071138 -0.15741403 0.79921997
1.406983 -0.1581679 0.79909998
1.4072069 -0.1588587 0.79906458
1.4084961 -0.15936147 0.79928303
1.4083649 -0.16011529 0.79916292
1.408589 -0.16080639 0.79912752
1.4081028 -0.1616219 0.79892302
1.4079717 -0.16237473 0.79880309
1.4078407 -0.16312723 0.79868323
1.4084195 -0.16375603 0.79873228
1.4079337 -0.16456972 0.79852808
1.4081576 -0.16526008 0.79849273
1.4066091 -0.16625616 0.79803592
1.4226224 0.14846963 0.83896053
1.4224794 0.14759527 0.83882344
1.4234822 0.14713407 0.83898443
1.4221934 0.14584781 0.83854944
1.4239599 0.14566053 0.83890897
1.4238164 0.14478666 0.83877182
1.4244376 0.144187 0.83883345
1.423148 0.14290348 0.83839858
1.4233867 0.14216739 0.83836085
1.4232435 0.14129514 0.83822399
1.422719 0.14028734 0.83798814
1.4225761 0.1394161 0.83785146
1.4247233 0.13935879 0.83830911
1.4203876 0.13699977 0.83708459
1.4206257 0.13626556 0.83704698
1.4220052 0.13593516 0.83730537
1.4222435 0.13520043 0.83726776
1.4228626 0.13460012 0.83732885
1.424245 0.13426825 0.83758765
1.4233391 0.13313033 0.83725351
1.425868 0.13320008 0.83780921
1.4249603 0.13206205 0.83747464
1.424817 0.13119291 0.83733809
1.4250553 0.13045767 0.83730042
1.4226254 0.12879038 0.83657223
1.4247687 0.12872095 0.83702761
1.4227208 0.12718973 0.83639854
1.4233394 0.12658823 0.8364594
1.4231967 0.12572196 0.83632338
1.4211537 0.12419697 0.83569616
1.4236724 0.1242542 0.83624816
1.4235297 0.12338865 0.8361122
1.4245292 0.12291798 0.83627135
1.4247673 0.12218393 0.83623374
1.4250052 0.12144987 0.83619606
1.4248621 0.12058479 0.83606011
1.4254812 0.11998177 0.83612084
1.424576 0.11885578 0.83578831
1.4225322 0.11734099 0.83516216
1.4231496 0.11673833 0.8352226
1.4237672 0.1161354 0.83528304
1.4247657 0.11566194 0.83544165
1.4227225 0.11415224 0.83481628
1.4222008 0.11316202 0.83458316
1.4213008 0.11204407 0.83425272
1.4215379 0.11131272 0.83421522
1.4183712 0.10942931 0.83330137
1.4182304 0.1085719 0.83316684
1.4222492 0.10911865 0.83410281
1.4224863 0.10838729 0.83406532
1.4219654 0.10740086 0.83383286
1.4169147 0.10489312 0.83243555
1.4201688 0.10517696 0.83317411
1.4200275 0.10432035 0.83303958
1.4187541 0.10308532 0.83261406
1.4201229 0.10273443 0.83286768
1.4188497 0.10150115 0.83244246
1.4228662 0.1020312 0.83337593
1.4185684 0.099792339 0.83217418
1.4188046 0.099063657 0.83213681
1.4209279 0.098960698 0.83258379
1.4192771 0.097606286 0.83206213
1.4198905 0.097002298 0.83212155
1.4193726 0.096024439 0.83189076
1.4199858 0.095420241 0.83195013
1.4209769 0.094940007 0.83210629
1.4204583 0.093962871 0.83187544
1.4195633 0.092862912 0.83154827
1.4175411 0.09139473 0.83093244
1.4196585 0.091283239 0.83137709
1.4214033 0.091048144 0.83172607
1.4216396 0.090319455 0.83168876
1.4211209 0.089344874 0.83145821
1.422112 0.088862091 0.83161408
1.4204617 0.087520711 0.83109415
1.4218292 0.08715982 0.83134627
1.4224429 0.086553723 0.83140546
1.4185346 0.084485255 0.83030868
1.4214056 0.084609307 0.83094496
1.4201344 0.083395667 0.8305226
1.4207467 0.082789667 0.83058149
1.4187254 0.081336938 0.82996774
1.4189608 0.080610581 0.82993054
1.4191962 0.079884216 0.82989329
1.4186803 0.078917474 0.82966429
1.4189157 0.078191444 0.8296271
1.4199028 0.077705145 0.82978165
1.4193865 0.076739386 0.82955271
1.4196218 0.076013356 0.82951552
1.4198573 0.075287335 0.82947832
1.4200926 0.074561305 0.82944107
1.4199523 0.073716365 0.82930815
1.4198118 0.072871752 0.82917523
1.4204229 0.072264634 0.82923377
1.4202824 0.071420357 0.82910085
1.4208935 0.070812911 0.82915938
1.421129 0.070087045 0.82912219
1.4209882 0.06924326 0.82898933
1.4193461 0.067929715 0.82847452
1.4165856 0.06626834 0.82767546
1.4164463 0.065428115 0.82754338
1.4166809 0.064704724 0.8275063
1.4229172 0.065848961 0.82899463
1.4178978 0.063490316 0.82762223
1.4173845 0.062534548 0.82739508
1.4179929 0.061926998 0.82745302
1.4178535 0.061087761 0.82732099
1.4177141 0.060248919 0.82718897
1.4179486 0.059525691 0.82715189
1.418557 0.058917582 0.82720977
1.4184176 0.058079232 0.82707781
1.4190261 0.057470795 0.82713562
1.4170181 0.056060389 0.82652992
1.418373 0.055680756 0.82677698
1.4186074 0.054957855 0.82673997
1.4199642 0.054577224 0.82698739
1.4183284 0.053284448 0.82647645
1.4155785 0.051654864 0.82568359
1.4202933 0.052293401 0.82678133
1.4201534 0.051456727 0.82664949
1.4200135 0.050620448 0.8265177
1.4180055 0.049220286 0.82591319
1.4212313 0.049400482 0.8266331
1.4207166 0.048451744 0.8264066
1.420951 0.047728844 0.82636952
1.4174492 0.045884736 0.82538795
1.418429 0.045386966 0.82553953
1.417544 0.044330671 0.82521981
1.4170327 0.043387026 0.82499456
1.4172664 0.042666249 0.82495767
1.4175 0.041945469 0.82492071
1.4177337 0.041224696 0.82488382
1.4164782 0.040062003 0.82447094
1.4182011 0.039783139 0.82480991
1.4184347 0.039062362 0.82477301
1.4186684 0.038341586 0.82473606
1.4181567 0.037401073 0.82451117
1.4191358 0.036900032 0.82466221
1.4186239 0.035960171 0.82443732
1.4151391 0.034148794 0.82346338
1.4168577 0.033865105 0.82380086
1.4156052 0.032711137 0.82338971
1.4165809 0.032209117 0.82353991
1.4164426 0.031381726 0.82340956
1.4185349 0.031203751 0.82384068
1.4165374 0.029835831 0.82324237
1.4163991 0.029009314 0.82311213
1.4155192 0.027968386 0.82279539
1.416494 0.027464682 0.82294512
1.4159849 0.026532028 0.82272178
1.4162177 0.025813848 0.82268494
1.4164506 0.025095668 0.82264817
1.4166834 0.024377488 0.82261133
1.4169163 0.023659308 0.82257456
1.4167781 0.022834925 0.82244456
1.4173819 0.022222951 0.82250094
1.4176147 0.021504771 0.82246417
1.4171054 0.020575218 0.82224113
1.4158555 0.019435806 0.8218323
1.4175708 0.019139506 0.82216752
1.4159502 0.01789644 0.82166594
1.4135946 0.01644725 0.82098031
1.4149351 0.01604435 0.82122147
1.4166476 0.015745291 0.82155573
1.4135526 0.014091666 0.82068527
1.4148924 0.013687356 0.82092613
1.4143858 0.012764038 0.8207044
1.4149872 0.012151717 0.82076019
1.4148499 0.011332513 0.82063103
1.4147125 0.010513664 0.82050192
1.4142064 0.0095923897 0.82028055
1.4151766 0.0090824617 0.82042861
1.4154086 0.0083668623 0.82039189
1.4156406 0.0076512592 0.82035524
1.4158726 0.0069356598 0.82031858
1.4161046 0.0062200567 0.82028192
1.4159671 0.0054025543 0.82015294
1.4165686 0.0047888574 0.82020855
1.4160616 0.0038701529 0.81998736
1.4159241 0.0030535127 0.81985843
1.4161559 0.0023383945 0.81982177
1.4152805 0.001320523 0.81950879
1.4140378 0.00020347265 0.81910431
1.4146377 -0.0004101416 0.81915963
1.4145007 -0.0012245232 0.81903112
1.4169457 -0.0013375105 0.81954646
1.4138591 -0.0029519233 0.81868261
1.4166706 -0.0029673048 0.81928909
1.4161642 -0.0038813211 0.81906855
1.4160268 -0.0046950951 0.81894004
1.4144163 -0.0059050815 0.81844467
1.4179668 -0.0057265726 0.81923461
1.4156154 -0.0071342476 0.81855494
1.4143742 -0.0082422197 0.81815183
1.4146054 -0.0089552598 0.81811529
1.4148365 -0.0096682999 0.81807876
1.4150677 -0.010381341 0.81804222
1.4149308 -0.011192223 0.81791419
1.4170036 -0.01141632 0.81833547
1.4157612 -0.012520462 0.81793261
1.4159924 -0.013233502 0.81789607
1.4158553 -0.014043747 0.81776804
1.4131466 -0.015531322 0.81700134
1.4163176 -0.01546951 0.81769502
1.4161805 -0.016279057 0.81756711
1.4145731 -0.017473685 0.81707424
1.4155389 -0.01799329 0.81722015
1.4150347 -0.018897535 0.81700128
1.4148982 -0.019705234 0.81687367
1.4162316 -0.020130025 0.81711066
1.4146252 -0.021319548 0.81661862
1.4141219 -0.022221319 0.81640023
1.4147193 -0.022837466 0.81645477
1.4138495 -0.023833066 0.81614566
1.4148135 -0.024354715 0.81629092
1.4139439 -0.025349058 0.81598204
1.4149076 -0.025871277 0.81612718
1.4140381 -0.026864395 0.81581849
1.413902 -0.0276687 0.81569141
1.4097474 -0.029499594 0.81457013
1.4088843 -0.030486777 0.81426358
1.4138602 -0.029986264 0.81540102
1.4148232 -0.030510059 0.8155458
1.4139544 -0.031499211 0.81523776
1.4156505 -0.031837888 0.81556362
1.4151474 -0.03273375 0.815346
1.4124502 -0.034182467 0.81458652
1.413411 -0.034707312 0.8147307
1.4114497 -0.035967324 0.81415337
1.4157017 -0.035666455 0.81510997
1.4130042 -0.037109628 0.81435108
1.4150629 -0.037361261 0.81476599
1.4156592 -0.03797942 0.81481999
1.4173564 -0.038323801 0.81514543
1.4135578 -0.04003552 0.81411564
1.4137875 -0.04074413 0.81407934
1.4132867 -0.041633632 0.81386298
1.4127862 -0.042522348 0.81364685
1.4130158 -0.043230321 0.81361055
1.4106945 -0.044566374 0.81294608
1.4131099 -0.044735949 0.81344813
1.4089721 -0.046515033 0.8123368
1.4135689 -0.04615159 0.81337559
1.412704 -0.047126818 0.81307006
1.4114764 -0.048189532 0.81267542
1.4124337 -0.048718948 0.81281835
1.4137568 -0.049160231 0.81305104
1.4125279 -0.05022138 0.81265628
1.4142156 -0.05057523 0.81297851
1.412622 -0.051723126 0.81249434
1.4154047 -0.051814128 0.81308544
1.4149036 -0.052697744 0.81286979
1.4136738 -0.05375576 0.8124752
1.4135385 -0.05455 0.8123495
1.4152266 -0.054907627 0.81267136
1.4121763 -0.056398153 0.8118304
1.412769 -0.057017382 0.81188345
1.4115433 -0.058069471 0.81149054
1.4128629 -0.058515962 0.81172186
1.4120007 -0.05948041 0.81141824
1.4122294 -0.060185876 0.81138211
1.4124582 -0.060891341 0.81134593
1.411597 -0.061853547 0.81104279
1.4125521 -0.062387742 0.81118459
1.4095157 -0.063859127 0.81034899
1.4122827 -0.063968547 0.81093442
1.413238 -0.06450367 0.81107616
1.4123765 -0.065463275 0.81077325
1.4122419 -0.066252664 0.81064832
1.4113818 -0.06721025 0.81034595
1.4126989 -0.067662038 0.81057608
1.4125642 -0.068450756 0.81045121
1.4109792 -0.06957411 0.80997187
1.4112072 -0.070277862 0.80993581
1.4121605 -0.070814818 0.81007689
1.4123888 -0.071518883 0.81004083
1.411167 -0.07255514 0.80965066
1.4110329 -0.073341399 0.80952621
1.410899 -0.074127287 0.80940181
1.411127 -0.07483042 0.80936575
1.410993 -0.075615823 0.80924141
1.4112209 -0.076318793 0.80920541
1.4114487 -0.07702177 0.80916941
1.4116766 -0.077724755 0.80913335
1.4119046 -0.078427732 0.80909735
1.4121325 -0.079130717 0.80906135
1.4123604 -0.079833694 0.80902529
1.4122261 -0.08061783 0.80890107
1.412454 -0.081320651 0.80886501
1.4119577 -0.082185037 0.80865276
1.413272 -0.082645617 0.80888122
1.4131376 -0.083429128 0.80875701
1.4137279 -0.084051579 0.80880916
1.4135933 -0.084834784 0.80868495
1.4105655 -0.086256556 0.80785722
1.4115154 -0.086798772 0.80799693
1.4117429 -0.087500513 0.80796099
1.4148674 -0.08756648 0.80862904
1.4147326 -0.088348903 0.80850488
1.4109803 -0.089921564 0.80750209
1.409765 -0.090937324 0.80711579
1.4099921 -0.091637835 0.80707991
1.4109404 -0.092181697 0.80721909
1.4104463 -0.093038842 0.80700809
1.4139249 -0.093036182 0.80776113
1.4112612 -0.09436202 0.80702382
1.4151045 -0.094283953 0.8078649
1.4113548 -0.095840886 0.8068645
1.4115819 -0.096541397 0.80682862
1.409647 -0.097704522 0.80626875
1.4116753 -0.098019429 0.80666941
1.4108208 -0.098950244 0.80637151
1.4114082 -0.099573508 0.80642295
1.4076788 -0.10111291 0.8054291
1.4075465 -0.10188723 0.80530649
1.4099281 -0.10213014 0.80579233
1.4101548 -0.10282926 0.80575651
1.4093027 -0.10375527 0.80545974
1.4120486 -0.10392517 0.80603325
1.4093964 -0.10522787 0.80530125
1.4099823 -0.10585129 0.80535233
1.4102088 -0.10654994 0.80531651
1.4097165 -0.10739816 0.80510706
1.4095837 -0.1081711 0.80498445
1.409451 -0.10894371 0.80486196
1.4096773 -0.10964176 0.8048262
1.4099035 -0.11033982 0.80479044
1.4101299 -0.11103787 0.80475467
1.4107156 -0.11166214 0.80480558
1.4105825 -0.11243399 0.80468309
1.4090142 -0.1134989 0.80421448
1.4106759 -0.11390338 0.80452496
1.4112614 -0.11452814 0.8045758
1.4114877 -0.11522621 0.80454004
1.4106363 -0.11614265 0.80424452
1.4108624 -0.11684024 0.80420882
1.4114478 -0.11746539 0.80425954
1.4102378 -0.11845218 0.80387795
1.4108227 -0.11907724 0.80392861
1.4085397 -0.12027726 0.80328894
1.410557 -0.12061533 0.80368441
1.4100658 -0.12145536 0.80347615
1.408859 -0.12243716 0.80309582
1.4105176 -0.12284873 0.80340475
1.4093103 -0.1238293 0.80302447
1.409178 -0.12459613 0.80290276
1.4090458 -0.12536262 0.80278111
1.4089136 -0.12612876 0.80265951
1.409139 -0.12682439 0.80262387
1.409007 -0.12759005 0.80250233
1.409948 -0.12814571 0.80263853
1.4098157 -0.12891124 0.80251694
1.4096833 -0.12967645 0.8023954
1.4099089 -0.13037191 0.80235976
1.4094189 -0.13120587 0.80215251
1.4096442 -0.13190104 0.80211693
1.4087975 -0.1328028 0.80182421
1.4072387 -0.13384046 0.80136091
1.4103204 -0.13398652 0.80201006
1.4101881 -0.13475013 0.8018887
1.408627 -0.13578613 0.80142516
1.4092091 -0.13641241 0.80147511
1.4101489 -0.13697106 0.80161059
1.407519 -0.1382069 0.80089152
1.4095274 -0.13856316 0.80128288
1.4079686 -0.1395939 0.80082047
1.4081935 -0.14028741 0.80078495
1.4091315 -0.140847 0.80091995
1.4082868 -0.14174116 0.8006286
1.4085116 -0.14243451 0.80059308
1.40838 -0.14319427 0.80047238
1.4107455 -0.14348941 0.80094844
1.4098994 -0.14438222 0.80065697
1.4090542 -0.14527388 0.80036587
1.4089226 -0.14603287 0.80024523
1.4095037 -0.14666027 0.80029482
1.4079473 -0.14768067 0.79983413
1.4095966 -0.14811203 0.80013865
1.4098213 -0.14880507 0.80010313
1.409333 -0.14962812 0.79989761
1.4067121 -0.15083852 0.79918349
1.4097822 -0.15101361 0.79982662
1.4085824 -0.1519642 0.79945159
1.40774 -0.15284899 0.79916191
1.4079642 -0.15354069 0.79912645
1.4085439 -0.1541685 0.79917568
1.4073468 -0.15511511 0.79880172
1.407571 -0.15580636 0.79876631
1.4070849 -0.15662426 0.79856187
1.4073089 -0.15731519 0.79852647
1.407533 -0.15800613 0.79849106
1.4074022 -0.15875989 0.79837126
1.4090469 -0.15919985 0.79867369
1.408205 -0.16007897 0.79838485
1.4094951 -0.16058265 0.79860288
1.408298 -0.16152309 0.79822963
1.4085219 -0.16221388 0.79819423
1.4087459 -0.16290466 0.79815882
1.4086146 -0.16365723 0.79803908
1.4088386 -0.16434787 0.79800367
1.4087074 -0.16509993 0.79788405
1.4089313 -0.16579044 0.79784864
1.4213042 0.14802364 0.83782476
1.4211617 0.1471502 0.83768803
1.4229262 0.14696419 0.83804655
1.423165 0.14622776 0.83800882
1.4230218 0.14535414 0.83787197
1.4228787 0.14448093 0.83773518
1.4231174 0.14374484 0.83769751
1.4225929 0.14273573 0.83746183
1.424741 0.14268222 0.83791929
1.4219259 0.14085615 0.8370899
1.4221643 0.14012091 0.83705223
1.4243106 0.14006443 0.83750886
1.4237854 0.13905701 0.83727336
1.424024 0.13832127 0.83723563
1.4208331 0.13637058 0.83631003
1.4222128 0.13604026 0.83656794
1.422451 0.13530552 0.83653027
1.4223084 0.13443646 0.83639413
1.4229275 0.13383608 0.83645499
1.4235468 0.13323545 0.8365159
1.4260759 0.13330534 0.83707058
1.4228802 0.13136461 0.8361451
1.4223568 0.13036349 0.83591068
1.4229754 0.1297626 0.83597142
1.4235945 0.12916145 0.83603221
1.4230708 0.12816134 0.83579785
1.4236896 0.12755994 0.83585858
1.4235468 0.12669323 0.83572263
1.4237847 0.12595919 0.83568501
1.4240227 0.12522513 0.8356474
1.4242607 0.12449108 0.83560979
1.4241178 0.1236253 0.83547395
1.4247366 0.12302298 0.83553457
1.4249747 0.12228893 0.83549696
1.4259753 0.12181756 0.83565587
1.4254506 0.12082083 0.83542168
1.4249264 0.11982504 0.83518773
1.4232615 0.11843885 0.83466011
1.4200847 0.11653684 0.83374351
1.4233565 0.11684313 0.8344872
1.4216958 0.11546229 0.83396113
1.4219331 0.11473043 0.83392364
1.4206544 0.11348247 0.83349615
1.4231668 0.11352478 0.83404386
1.4215074 0.11214869 0.83351862
1.4217445 0.11141734 0.83348113
1.4216027 0.11055771 0.83334631
1.4222187 0.10995463 0.83340621
1.4224558 0.10922327 0.83336872
1.4215561 0.1081088 0.83303928
1.4225509 0.10763295 0.8331964
1.4208945 0.10626549 0.83267289
1.4226459 0.10604338 0.8330242
1.419856 0.10429817 0.83221006
1.4216048 0.10407443 0.83256066
1.4229778 0.10372367 0.83281457
1.4186786 0.10147965 0.83161408
1.4196693 0.10100207 0.83177012
1.4187742 0.099896573 0.83144277
1.4190105 0.099167891 0.83140546
1.4196239 0.098564245 0.83146471
1.4198601 0.097835399 0.83142734
1.4197192 0.096981838 0.8312934
1.4199555 0.096253157 0.83125609
1.4201918 0.095524475 0.83121878
1.4204279 0.094795786 0.83118141
1.4206642 0.094067104 0.83114409
1.4205232 0.093214579 0.83101022
1.4211367 0.092609741 0.83106941
1.4209955 0.091757543 0.8309356
1.4197235 0.090536229 0.83051276
1.4218454 0.090423688 0.83095735
1.4220817 0.089695007 0.83092004
1.4166714 0.08712966 0.82944065
1.4221765 0.088114962 0.83074892
1.4193969 0.086408436 0.82994175
1.4211392 0.086169124 0.83028901
1.4232628 0.086051591 0.83073336
1.4216112 0.084713422 0.83021444
1.4203399 0.083499685 0.82979268
1.4224606 0.083379187 0.83023602
1.4219419 0.082408637 0.83000636
1.4202942 0.081076495 0.82948899
1.4186502 0.079747356 0.82897282
1.4188855 0.079021327 0.82893556
1.4191209 0.078295298 0.82889837
1.420108 0.077809043 0.82905263
1.4199675 0.076962948 0.82891965
1.419827 0.07611721 0.82878679
1.4196868 0.075271919 0.82865399
1.4202977 0.074665159 0.82871234
1.4205332 0.07393913 0.82867515
1.4207685 0.0732131 0.82863796
1.4210039 0.072487071 0.82860076
1.4182361 0.070814803 0.82780027
1.4210987 0.070916735 0.82843083
1.421334 0.070190877 0.82839364
1.4219455 0.069582954 0.82845193
1.4214286 0.068621367 0.82822376
1.4209121 0.067660652 0.82799572
1.4222753 0.067287423 0.82824486
1.4176331 0.065041289 0.82696998
1.418242 0.064434029 0.82702786
1.4177283 0.063477613 0.82680094
1.4175888 0.062638022 0.82666904
1.4178234 0.06191463 0.82663196
1.4180579 0.061191238 0.82659489
1.4182924 0.060467843 0.82655782
1.418527 0.059744451 0.82652074
1.4183874 0.058905914 0.82638896
1.4186219 0.058182687 0.82635188
1.4188564 0.057459455 0.82631487
1.4179691 0.056392547 0.82599384
1.4182035 0.055669811 0.82595682
1.4188116 0.055061258 0.8260144
1.4156871 0.053314116 0.82512778
1.415921 0.052592687 0.82509083
1.4150379 0.051531725 0.82477146
1.4178805 0.051602572 0.82539392
1.4188616 0.051106855 0.82554573
1.4157391 0.049368907 0.8246606
1.4200779 0.04988791 0.82566053
1.4191905 0.048826914 0.82534027
1.4179311 0.04765496 0.8249262
1.4185382 0.047045548 0.82498342
1.4210151 0.046996962 0.82551241
1.4178869 0.045266643 0.82462704
1.4181207 0.044545379 0.82459009
1.4172363 0.043490127 0.82427114
1.41747 0.04276935 0.82423419
1.4177037 0.042048573 0.82419729
1.4179374 0.041327797 0.82416034
1.4170538 0.040275455 0.82384193
1.4184047 0.039886244 0.82408649
1.4186385 0.039165463 0.82404953
1.4188721 0.03844469 0.82401258
1.4191058 0.03772391 0.82397568
1.4193394 0.037003133 0.82393873
1.4195732 0.036282361 0.82390183
1.4179436 0.03501489 0.82339621
1.4178048 0.034185916 0.82326573
1.4176662 0.033357296 0.82313532
1.4152993 0.031878479 0.82244486
1.4155322 0.031159975 0.82240808
1.4168789 0.030765584 0.82265103
1.417112 0.030046593 0.82261419
1.4166023 0.029112114 0.82239079
1.416093 0.028178506 0.82216763
1.4163259 0.027460167 0.8221308
1.4165587 0.026741825 0.82209402
1.4160498 0.025809705 0.82187104
1.4166535 0.025198398 0.82192731
1.4172574 0.0245868 0.82198358
1.4171191 0.023762038 0.8218537
1.417352 0.023043862 0.82181692
1.4175849 0.022325682 0.82178015
1.413744 0.020445256 0.82072264
1.4180505 0.020889323 0.82170653
1.417912 0.020065565 0.82157671
1.4185162 0.019452963 0.82163292
1.4183776 0.018629529 0.82150316
1.4141661 0.016654119 0.82035416
1.414029 0.015833737 0.82022506
1.4138919 0.015013706 0.82009602
1.4144932 0.01440189 0.82015169
1.4139868 0.013478428 0.81993032
1.4142188 0.012762829 0.81989366
1.4148201 0.01215066 0.81994933
1.4154216 0.011538204 0.82000494
1.4149148 0.010616027 0.81978369
1.4147775 0.0097975349 0.81965476
1.4153788 0.0091848243 0.81971031
1.4159803 0.008571852 0.81976593
1.4151043 0.0075488663 0.8194527
1.4160748 0.0070380219 0.81960034
1.4159373 0.0062203337 0.81947148
1.4161693 0.0055048931 0.81943482
1.4167708 0.0048912195 0.81949031
1.4166331 0.0040740129 0.81936151
1.4146503 0.0027508596 0.81877285
1.4156197 0.0022384552 0.81892008
1.4158515 0.0015236593 0.81888348
1.4142395 0.00030560492 0.81838769
1.4166842 0.00019468076 0.81890213
1.4124951 -0.001722856 0.817765
1.4160402 -0.0015360125 0.81855321
1.4173795 -0.0019501959 0.81879222
1.4179809 -0.0025651464 0.81884754
1.4141554 -0.0043763211 0.81780177
1.415123 -0.0048911208 0.81794834
1.41425 -0.0059020845 0.81763721
1.4196484 -0.0052267141 0.81888491
1.415817 -0.0070321606 0.81783861
1.4149437 -0.0080416873 0.81752759
1.4148068 -0.0088532642 0.81739962
1.415038 -0.0095663043 0.81736308
1.4152691 -0.010279345 0.81732655
1.4155004 -0.010992385 0.81729001
1.4157315 -0.011705426 0.81725347
1.4159627 -0.012418467 0.81721693
1.4161938 -0.013131507 0.8171804
1.416425 -0.013844548 0.81714386
1.4159198 -0.014751663 0.81692475
1.4161508 -0.015464385 0.81688821
1.4171185 -0.015983669 0.81703424
1.4158769 -0.017082777 0.81663287
1.4135368 -0.018467976 0.81595951
1.415971 -0.018603656 0.81646878
1.4128982 -0.020177314 0.81561434
1.417169 -0.019836552 0.81657797
1.413359 -0.021598943 0.81554151
1.413223 -0.022404777 0.81541443
1.4130871 -0.023210274 0.81528741
1.415151 -0.023447013 0.81570441
1.4135478 -0.024631271 0.81521457
1.4137782 -0.02534177 0.81517816
1.4143751 -0.025958065 0.81523234
1.4142388 -0.026762761 0.81510538
1.4100823 -0.0285965 0.81398541
1.4121373 -0.028838607 0.81439984
1.4141968 -0.029081253 0.81481516
1.4122318 -0.030350456 0.81423694
1.4150239 -0.030408449 0.81483287
1.4137889 -0.031490531 0.81443495
1.4147514 -0.032014769 0.81457925
1.4120556 -0.033464435 0.81382126
1.4144793 -0.033619657 0.81432587
1.4143432 -0.034421571 0.81419921
1.4123796 -0.03568254 0.8136223
1.4140713 -0.036024328 0.81394619
1.4128391 -0.037099745 0.8135497
1.4148972 -0.03735131 0.81396359
1.4158598 -0.037877899 0.81410766
1.4146252 -0.038952384 0.81371075
1.4126625 -0.040206477 0.81313485
1.415085 -0.040370535 0.81363809
1.4131217 -0.041622739 0.81306225
1.4129864 -0.042421076 0.81293625
1.4132159 -0.043129049 0.81289995
1.4134454 -0.043837022 0.81286371
1.4133099 -0.044634704 0.8127377
1.4135394 -0.04534252 0.81270146
1.414134 -0.045960944 0.81275487
1.4132686 -0.046936512 0.81244969
1.4131333 -0.047732987 0.81232387
1.4137274 -0.048351523 0.81237715
1.4146868 -0.048881605 0.81252009
1.4127276 -0.050120264 0.81194681
1.4136857 -0.050650679 0.81208938
1.4153752 -0.051005062 0.81241131
1.4152393 -0.051800981 0.81228542
1.4161997 -0.052332718 0.81242836
1.4124166 -0.054004621 0.81140864
1.4141027 -0.054361518 0.81172949
1.4125106 -0.055504192 0.81124711
1.4141964 -0.055862349 0.81156772
1.4118773 -0.057176467 0.8109076
1.4124696 -0.057795595 0.81096041
1.4130623 -0.058414981 0.81101334
1.4122001 -0.059379499 0.81071013
1.4124287 -0.060084965 0.81067401
1.4126575 -0.060790431 0.81063789
1.4125227 -0.061581533 0.81051284
1.4131149 -0.06220137 0.81056559
1.4129801 -0.062992163 0.81044054
1.4132087 -0.063697472 0.81040442
1.4116212 -0.064827308 0.8099246
1.413666 -0.065108098 0.81033212
1.4131676 -0.065982699 0.81011844
1.4119436 -0.067025237 0.80972767
1.4136248 -0.067392707 0.8100462
1.4113121 -0.068685822 0.80939001
1.4122658 -0.069222175 0.80953085
1.4128569 -0.069842748 0.80958331
1.4105477 -0.071130924 0.80892843
1.4111378 -0.07175108 0.80898064
1.4110037 -0.072537512 0.80885631
1.4105079 -0.073406316 0.80864394
1.4110976 -0.074026711 0.80869609
1.4116877 -0.074647382 0.80874825
1.4115536 -0.075432971 0.80862403
1.4114195 -0.07621824 0.80849981
1.4116474 -0.07692121 0.80846381
1.4118754 -0.077624202 0.80842781
1.4121032 -0.078327172 0.80839175
1.414144 -0.078622252 0.8087967
1.412559 -0.079733141 0.80831975
1.412787 -0.080436125 0.80828369
1.4115667 -0.081462942 0.80789566
1.4125183 -0.08200375 0.80803561
1.412384 -0.082787052 0.80791163
1.4136986 -0.083248034 0.80813962
1.4128395 -0.084192082 0.80783963
1.4123434 -0.085054845 0.80762786
1.4089606 -0.086554505 0.80671549
1.4106302 -0.086937219 0.80702966
1.4094149 -0.087955825 0.80664366
1.4103631 -0.088498227 0.80678266
1.4102297 -0.089278191 0.80665928
1.4108176 -0.089900166 0.80671084
1.4103235 -0.090758473 0.80650008
1.4098297 -0.091616057 0.80628943
1.4104172 -0.092238128 0.80634087
1.4106443 -0.092938639 0.80630499
1.4112321 -0.093561128 0.80635643
1.4110985 -0.094339661 0.80623323
1.4113256 -0.095040172 0.80619729
1.4115527 -0.095740683 0.8061614
1.4088985 -0.097059153 0.80542839
1.4116461 -0.097218893 0.80600238
1.4122341 -0.097842202 0.80605376
1.411379 -0.09877333 0.80575615
1.4072911 -0.10039093 0.80467725
1.4096724 -0.10063188 0.80516225
1.4077438 -0.10178735 0.80460566
1.4079702 -0.10248556 0.8045699
1.4117926 -0.1024256 0.80540264
1.4087818 -0.10380646 0.80458504
1.4111656 -0.10405196 0.80507004
1.4088756 -0.1052784 0.80442679
1.4098203 -0.10582647 0.80456436
1.4100467 -0.10652498 0.80452853
1.4091955 -0.10744774 0.80423284
1.409781 -0.10807122 0.80428368
1.4092892 -0.10891823 0.80407476
1.4095155 -0.10961613 0.804039
1.4101008 -0.11023997 0.80408978
1.4103271 -0.11093801 0.80405402
1.4101943 -0.11170983 0.80393171
1.4093437 -0.1126284 0.80363667
1.4088527 -0.11347248 0.80342829
1.4105139 -0.11387683 0.803738
1.4110993 -0.11450145 0.80378866
1.4088138 -0.1157095 0.80314863
1.4108334 -0.11604285 0.80354434
1.4099828 -0.11695819 0.80324966
1.4109266 -0.11751052 0.80338651
1.408285 -0.11878521 0.80266148
1.4099435 -0.11919367 0.80297011
1.4087363 -0.12017767 0.80259013
1.410754 -0.12051563 0.80298489
1.4091878 -0.12157013 0.80251878
1.4090557 -0.12233759 0.80239719
1.4103559 -0.12282027 0.80261946
1.4087912 -0.12387154 0.80215406
1.4090168 -0.12456732 0.80211842
1.4088846 -0.12533365 0.80199695
1.4091102 -0.12602927 0.8019613
1.4093356 -0.1267249 0.80192566
1.4088459 -0.1275606 0.80171859
1.4097867 -0.12811613 0.80185437
1.4100122 -0.12881175 0.80181873
1.4098799 -0.12957697 0.80169737
1.4104632 -0.13020298 0.80174744
1.409973 -0.13103718 0.80154043
1.4084115 -0.13207768 0.80107707
1.4100661 -0.13249677 0.80138355
1.4074348 -0.1337412 0.80066442
1.4098017 -0.13402429 0.8011412
1.4103845 -0.13465072 0.80119115
1.4073967 -0.13595918 0.80038726
1.4104775 -0.13610886 0.80103439
1.4089164 -0.13714318 0.80057186
1.407715 -0.1381077 0.80019546
1.4079398 -0.1388012 0.80015993
1.4078083 -0.13956192 0.80003929
1.4083894 -0.1401882 0.80008882
1.408258 -0.14094862 0.79996824
1.4081265 -0.14170872 0.79984766
1.4090639 -0.1422687 0.79998225
1.4089323 -0.14302868 0.79986167
1.4098705 -0.14358936 0.79999626
1.4100953 -0.144283 0.79996073
1.4092501 -0.14517471 0.79967004
1.4094748 -0.14586791 0.79963458
1.4100562 -0.14649542 0.79968399
1.4095677 -0.14731984 0.79947853
1.4090797 -0.14814353 0.79927325
1.4064591 -0.14935651 0.79856026
1.4095287 -0.14952902 0.79920226
1.4097534 -0.15022178 0.7991668
1.409978 -0.15091452 0.79913127
1.4098463 -0.15167178 0.79901099
1.4093584 -0.15249306 0.79880607
1.4081597 -0.15344174 0.79843217
1.408384 -0.15413342 0.79839677
1.4078974 -0.15495257 0.79819232
1.4070562 -0.15583447 0.79790378
1.4079905 -0.15639873 0.79803705
1.4075042 -0.15721636 0.79783297
1.4073734 -0.15797028 0.79771328
1.4079522 -0.15859824 0.79776216
1.4078213 -0.15935187 0.79764247
1.4080453 -0.16004267 0.79760706
1.4082693 -0.16073348 0.79757166
1.4084932 -0.16142426 0.79753631
1.4087172 -0.16211507 0.79750091
1.4089411 -0.16280586 0.7974655
1.409165 -0.16349664 0.7974301
1.4090338 -0.16424909 0.79731047
1.4092577 -0.16493973 0.79727513
1.4087715 -0.16575293 0.79707152
1.4215122 0.1481289 0.83708614
1.4217508 0.14739299 0.83704841
1.4212269 0.14638238 0.83681309
1.4199424 0.14509892 0.83638084
1.4232298 0.14545946 0.83713299
1.4227052 0.14444932 0.83689755
1.4237072 0.14398694 0.83705753
1.4212762 0.14229554 0.83632874
1.4238026 0.14237797 0.83688325
1.4244233 0.14177819 0.83694434
1.4223721 0.14022608 0.83631426
1.4214677 0.13908426 0.83598107
1.4259044 0.13984121 0.83702898
1.4234685 0.13815567 0.83629984
1.4248524 0.1378261 0.83655816
1.4239454 0.13668486 0.8362245
1.4226587 0.13541062 0.83579284
1.4213743 0.13413875 0.83536202
1.4227542 0.13380699 0.83561921
1.4233732 0.13320644 0.83567989
1.4247557 0.13287371 0.83593756
1.4223263 0.13120253 0.83521152
1.4218035 0.13020197 0.83497769
1.4224217 0.12960133 0.83503819
1.4222792 0.12873454 0.83490247
-0.23057835 -0.4486838 0.40874195
1.4223746 0.12713464 0.83472925
1.4237542 0.12679823 0.83498585
1.42247 0.12553543 0.83455616
1.4211882 0.12427495 0.83412725
1.4195299 0.12288558 0.83360153
1.4212838 0.12267829 0.83395445
1.4192472 0.12116028 0.83333164
1.4251821 0.12239393 0.83476019
1.42542 0.12165987 0.83472258
1.425658 0.12092583 0.83468497
1.4251337 0.11992998 0.83445132
1.4230886 0.11841334 0.83382684
1.4225664 0.11742051 0.83359408
1.4243242 0.117208 0.83394718
1.4249424 0.1166049 0.83400738
1.4210027 0.11444738 0.83289701
1.4216187 0.11384503 0.83295679
1.421477 0.11298466 0.83282202
1.4217141 0.11225331 0.83278459
1.4219512 0.11152195 0.8327471
1.4221883 0.1107906 0.83270961
1.4216675 0.10980306 0.83247775
1.4230417 0.10945588 0.8327319
1.4221416 0.10834102 0.83240283
1.4219996 0.10748249 0.8322683
1.4229945 0.10700636 0.83242506
1.4228525 0.10614795 0.83229047
1.4227104 0.10528992 0.83215594
1.4218112 0.10417891 0.83182758
1.4228054 0.10370161 0.83198404
1.4188846 0.10158391 0.83088255
1.4194981 0.1009807 0.83094168
1.4193572 0.10012621 0.83080786
1.4195935 0.099397354 0.83077049
1.4202071 0.098793648 0.83082962
1.4196889 0.097814754 0.83059937
1.4203024 0.09721081 0.83065844
1.4194072 0.096108399 0.83033204
1.4215302 0.096002094 0.83077669
1.4206339 0.094900019 0.83045
1.4208702 0.094171338 0.83041269
1.4211063 0.093442656 0.83037537
1.4213426 0.092713974 0.830338
1.4212013 0.091861755 0.83020437
1.420683 0.090886682 0.82997453
1.4216738 0.090404727 0.83012968
1.4219099 0.089676209 0.83009237
1.4221461 0.088947691 0.83005506
1.4178629 0.0867512 0.82886589
1.4226185 0.087490655 0.82998037
1.4198381 0.08578527 0.82917458
1.4219582 0.085667372 0.82961726
1.4229493 0.085183144 0.82977217
1.4220529 0.084089682 0.82944655
1.4189004 0.082271099 0.82854688
1.4206403 0.082028292 0.82889247
1.4193714 0.080818377 0.82847244
1.4192309 0.079971597 0.82833964
1.4213474 0.079847224 0.82878071
1.4197018 0.07851921 0.82826519
1.4195614 0.077673122 0.82813245
1.4197968 0.076947093 0.82809526
1.4204081 0.076340631 0.82815355
1.4206436 0.075614437 0.82811636
1.4201272 0.074649885 0.82788825
1.4207383 0.074042983 0.82794642
1.4209737 0.073316954 0.82790923
1.4200816 0.072235107 0.82758594
1.416569 0.07032866 0.82659805
1.4216799 0.071138866 0.82779765
1.4185359 0.069351301 0.82690358
1.4195207 0.068861969 0.82705653
1.4216336 0.068725176 0.82749534
1.4196156 0.067294925 0.82688719
1.4172291 0.065751784 0.82618594
1.4170897 0.064911678 0.82605416
1.4173242 0.064188287 0.82601708
1.4220577 0.064862937 0.82711899
1.4174194 0.062625512 0.82584834
1.4180278 0.062018108 0.82590592
1.4182624 0.061294712 0.82586884
1.4181229 0.060455825 0.82573718
1.4187313 0.059847929 0.8257947
1.4189659 0.059124533 0.82575762
1.4184523 0.058171172 0.82553142
1.4190607 0.05756291 0.82558894
1.4177997 0.05638146 0.82517403
1.4191555 0.056001976 0.82542032
1.4167751 0.054480255 0.82472295
1.4151462 0.053190202 0.82421565
1.4179897 0.053263705 0.82483739
1.419719 0.052995961 0.82517767
1.4199533 0.052273061 0.8251406
1.4186922 0.051096968 0.82472634
1.4196738 0.050600871 0.82487786
1.4195342 0.049765371 0.82474655
1.4193946 0.048930228 0.82461536
1.4207507 0.048545823 0.82486105
1.4172503 0.046700276 0.82388312
1.4193497 0.046539143 0.82431602
1.4173452 0.045146395 0.82371533
1.4172064 0.044314008 0.82358462
1.4174401 0.043593228 0.82354772
1.4173012 0.042761363 0.82341701
1.4179074 0.042151675 0.82347381
1.4177685 0.041320134 0.82334316
1.4180021 0.040599521 0.82330626
1.4186084 0.039989345 0.82336301
1.4180968 0.039048087 0.82313877
1.4183304 0.038327634 0.82310182
1.4193095 0.037827015 0.8232522
1.4195431 0.037106238 0.82321531
1.4197768 0.036385462 0.82317835
1.4140624 0.033919282 0.82164812
1.4180083 0.034288879 0.82254326
1.4156404 0.032808241 0.82185358
1.4181029 0.0327406 0.82237613
1.4179641 0.031912509 0.82224596
1.4181974 0.031193035 0.82220906
1.4165723 0.029933579 0.8217063
1.4160631 0.028999602 0.82148343
1.4166671 0.028388737 0.82153964
1.4165288 0.02756292 0.82140982
1.4156493 0.026523439 0.82109433
1.4162527 0.025912412 0.82115042
1.4168564 0.025301129 0.82120651
1.4163475 0.024369869 0.82098401
1.4165802 0.023652012 0.82094723
1.4168129 0.022934157 0.82091045
1.4174166 0.022322323 0.82096642
1.4139464 0.020547733 0.82000363
1.4171401 0.02067492 0.82070732
1.4173728 0.019957226 0.82067055
1.4164933 0.018923782 0.82035583
1.4178382 0.018521836 0.82059699
1.4169583 0.017489361 0.82028234
1.4149702 0.016144853 0.819691
1.4152024 0.015428609 0.81965429
1.4146955 0.014504299 0.81943309
1.4145583 0.013684565 0.81930423
1.4147903 0.012968807 0.81926757
1.4153918 0.012356534 0.81932306
1.414885 0.011433987 0.81910211
1.415856 0.01092469 0.81924969
1.415349 0.010002784 0.81902874
1.415581 0.009287185 0.81899208
1.4161826 0.008674236 0.81904751
1.4160451 0.0078559825 0.81891876
1.4162771 0.0071403827 0.81888211
1.416509 0.00642478 0.81884539
1.4152637 0.0053016627 0.81844097
1.4166033 0.0048917918 0.81868011
1.4157273 0.0038717452 0.81836772
1.4141152 0.0026508009 0.81787241
1.4143467 0.0019366419 0.81783581
1.4175311 0.0020300311 0.81853342
1.415916 0.00081033504 0.81803763
1.4135684 -0.00060724054 0.81735998
1.4160104 -0.00071933394 0.8178727
1.4173497 -0.0011329706 0.81811124
1.4172121 -0.001948092 0.81798285
1.4174439 -0.002662888 0.81794626
1.4143569 -0.0042742798 0.8170858
1.415693 -0.004689659 0.81732345
1.4151877 -0.0056018755 0.81710404
1.4198506 -0.0051243752 0.81816685
1.4156504 -0.0070289122 0.81703091
1.4158816 -0.0077424273 0.81699437
1.4164815 -0.008357428 0.81704915
1.4156076 -0.009366069 0.81673867
1.4158388 -0.010079265 0.81670207
1.4157019 -0.01089039 0.81657434
1.415933 -0.011603431 0.8165378
1.4157959 -0.01241404 0.81641006
1.4163953 -0.013029511 0.81646472
1.4166265 -0.013742552 0.81642818
1.4157532 -0.014746691 0.81611836
1.4134127 -0.016135862 0.81544566
1.4158473 -0.016268475 0.81595433
1.412774 -0.017847164 0.81510073
1.413371 -0.018462215 0.81515491
1.4136015 -0.019173343 0.81511849
1.4156678 -0.019405792 0.81553566
1.4162663 -0.020022005 0.81559002
1.4146601 -0.021211391 0.81509978
1.4134239 -0.022303123 0.81470114
1.4143875 -0.022823984 0.81484574
1.4138846 -0.023724439 0.8146283
1.4141151 -0.024435094 0.81459188
1.4143455 -0.025145749 0.81455547
1.4142092 -0.025950631 0.81442863
1.4144396 -0.02666113 0.81439221
1.41467 -0.027371628 0.81435579
1.4145337 -0.028175818 0.81422907
1.4143976 -0.028979667 0.81410235
1.4109718 -0.030620953 0.81316525
1.4137595 -0.030679304 0.81375897
1.4143556 -0.03129613 0.81381273
1.4142196 -0.032098725 0.81368625
1.413352 -0.033085939 0.8133797
1.4121205 -0.034163971 0.81298369
1.4160093 -0.03395094 0.8138476
1.4122149 -0.035672933 0.81282127
1.4135404 -0.036106419 0.81305444
1.4130393 -0.036998384 0.81283844
1.413269 -0.037706994 0.81280214
1.4153275 -0.037959229 0.81321526
1.4129981 -0.039306138 0.81255007
1.4135929 -0.039923608 0.81260347
1.4145536 -0.040450662 0.8127467
1.4140524 -0.041340508 0.81253088
1.4131864 -0.042319808 0.81222564
1.4134159 -0.043027777 0.81218934
1.4136455 -0.04373575 0.8121531
1.413875 -0.04444373 0.8121168
1.4137394 -0.04524127 0.81199104
1.4143341 -0.045859672 0.81204426
1.4138334 -0.046746138 0.81182897
1.4140627 -0.047453802 0.81179273
1.412469 -0.048605401 0.81130975
1.412334 -0.049400788 0.81118435
1.4136562 -0.049842335 0.81141585
1.4142504 -0.050461188 0.8114689
1.4155753 -0.050903812 0.81170082
1.4158047 -0.051611628 0.81166458
1.413844 -0.052846655 0.81109244
1.4155329 -0.053202841 0.81141329
1.4146671 -0.054172941 0.81110919
1.4123464 -0.055490255 0.81044948
1.4122114 -0.056283075 0.81032437
1.4120767 -0.05707553 0.81019932
1.411942 -0.05786765 0.81007439
1.4121706 -0.058573116 0.81003821
1.4123994 -0.059278589 0.81000209
1.4126282 -0.059984054 0.80996591
1.4128568 -0.06068952 0.80992979
1.412722 -0.061480645 0.80980492
1.4133142 -0.062100459 0.80985749
1.4131794 -0.062891275 0.80973262
1.4130445 -0.063681751 0.8096078
1.4121833 -0.064641677 0.80930597
1.4127749 -0.065261632 0.80935836
1.4130034 -0.065966472 0.80932224
1.4121425 -0.066924483 0.8090207
1.4105582 -0.068049274 0.80854303
1.4111487 -0.068669006 0.80859518
1.4106524 -0.069540113 0.80838275
1.4123302 -0.069909327 0.80869961
1.4107465 -0.071030326 0.80822253
1.4102507 -0.071899809 0.8080104
1.4104786 -0.072602786 0.80797434
1.4110684 -0.073222987 0.80802637
1.4123832 -0.073678069 0.8082546
1.4115243 -0.074629262 0.80795431
1.4113903 -0.07541471 0.80783027
1.4116181 -0.076117679 0.80779427
1.411484 -0.076902628 0.80767024
1.4117119 -0.077605456 0.80763423
1.4123019 -0.078226618 0.80768615
1.4125298 -0.078929603 0.80765015
1.41312 -0.079551212 0.80770206
1.4129856 -0.080335572 0.80757809
1.412127 -0.081281535 0.80727851
1.4127169 -0.081903242 0.80733031
1.4129447 -0.082605913 0.80729431
1.4124483 -0.083469562 0.80708271
1.4130381 -0.084091589 0.80713451
1.4118184 -0.085114516 0.80674773
1.4098793 -0.086295038 0.80618685
1.4090253 -0.087234363 0.80588907
1.4096128 -0.0878556 0.80594045
1.4127287 -0.087922111 0.80660391
1.4097067 -0.089335896 0.80578136
1.4106549 -0.089878753 0.80592
1.4105215 -0.090658247 0.8057968
1.410388 -0.091437429 0.80567366
1.4106151 -0.092137925 0.80563778
1.4108422 -0.092838436 0.80560189
1.4110693 -0.093538947 0.80556601
1.4112965 -0.094239458 0.80553007
1.4115236 -0.094939969 0.80549419
1.4113899 -0.095718004 0.80537117
1.4112564 -0.096495718 0.8052482
1.4122049 -0.097041503 0.80538654
1.4113499 -0.097973138 0.80508941
1.4079795 -0.099439919 0.80418539
1.411083 -0.099526547 0.80484372
1.4077147 -0.10098926 0.80394065
1.409018 -0.1014594 0.80416465
1.409604 -0.10208212 0.80421549
1.4109098 -0.10255337 0.80443984
1.4100571 -0.10347976 0.80414385
1.4092056 -0.10440493 0.80384827
1.4094319 -0.10510328 0.8038125
1.4100176 -0.10572655 0.80386323
1.4095256 -0.10657493 0.80365443
1.4093928 -0.10734788 0.80353224
1.4099783 -0.10797135 0.80358291
1.4098455 -0.10874401 0.80346066
1.4100717 -0.10944206 0.80342489
1.4102981 -0.11014012 0.80338913
1.4105244 -0.11083816 0.80335337
