ply
format ascii 1.0
comment PCL generated
element vertex 1497
property float x
property float y
property float z
element camera 0
property float view_px
property float view_py
property float view_pz
property float x_axisx
property float x_axisy
property float x_axisz
property float y_axisx
property float y_axisy
property float y_axisz
property float z_axisx
property float z_axisy
property float z_axisz
property float focal
property float scalex
property float scaley
property float centerx
property float centery
property int viewportx
property int viewporty
property float k1
property float k2
end_header
1.1572485 0.52495515 0.58911967
1.1609839 0.52292228 0.5877161
1.1609324 0.52012038 0.58763552
1.1646674 0.51806647 0.58623141
1.1684021 0.51599848 0.58482695
1.1683503 0.51318258 0.58474588
1.1682986 0.51036668 0.58466482
1.1682469 0.50755078 0.58458382
1.1644094 0.504022 0.58582723
1.1643579 0.50121313 0.58574635
1.1643063 0.49840423 0.58566552
1.1642547 0.49559534 0.5855847
1.164203 0.49278647 0.58550388
1.1603664 0.48929977 0.58674848
1.1603149 0.48649788 0.58666784
1.1564785 0.48303223 0.5879131
1.1564271 0.48023736 0.58783269
1.1563758 0.47744247 0.58775222
1.1563245 0.47464764 0.58767182
1.1515427 0.4710581 0.58924973
1.1514915 0.46827203 0.58916956
1.1476562 0.46486422 0.59041643
1.1476052 0.46208513 0.5903365
1.1475542 0.45930606 0.59025651
1.1475031 0.45652696 0.59017652
1.147452 0.45374787 0.59009653
1.147401 0.4509688 0.59001654
1.14735 0.44818974 0.58993655
1.1472989 0.44541064 0.58985656
1.1434647 0.44206598 0.59110534
1.1434138 0.43929389 0.59102553
1.1433629 0.43652183 0.59094578
1.143312 0.43374977 0.59086597
1.1432611 0.4309777 0.59078622
1.1394277 0.4276751 0.59203613
1.1393769 0.42491004 0.59195656
1.1393261 0.42214498 0.59187698
1.1392753 0.41937992 0.59179741
1.1354426 0.41611239 0.59304839
1.135392 0.41335437 0.592969
1.1353413 0.41059631 0.59288961
1.1352906 0.40783828 0.59281027
1.1314585 0.40460581 0.59406221
1.131408 0.40185478 0.59398305
1.1313576 0.39910376 0.59390384
1.131307 0.39635274 0.59382468
1.1274756 0.39315534 0.59507763
1.1274252 0.39041132 0.59499866
1.1273748 0.3876673 0.59491968
1.1311048 0.38534862 0.59350801
1.1310543 0.3825976 0.59342879
1.1310037 0.37984657 0.59334964
1.1309533 0.37709552 0.59327048
1.1309028 0.3743445 0.59319127
1.1308522 0.37159348 0.59311211
1.1345813 0.36922568 0.591699
1.1345308 0.36646762 0.59161961
1.1382596 0.36407882 0.59020585
1.1382089 0.36131376 0.59012628
1.1381581 0.3585487 0.5900467
1.1381073 0.35578364 0.58996713
1.1380565 0.35301858 0.58988756
1.1417845 0.35058767 0.5884726
1.1417335 0.34781563 0.58839285
1.1416826 0.34504354 0.58831304
1.1416317 0.34227148 0.58823329
1.1453593 0.33980551 0.58681732
1.1453081 0.33702642 0.58673733
1.1452571 0.33424735 0.58665735
1.1452061 0.33146825 0.58657736
1.1451551 0.32868919 0.58649737
1.1451041 0.32591009 0.58641738
1.1450529 0.32313102 0.58633739
1.1412244 0.32009491 0.58759505
1.1411735 0.31732285 0.58751523
1.1411226 0.31455079 0.58743548
1.1410717 0.31177872 0.58735573
1.1410208 0.30900666 0.58727592
1.1409699 0.30623457 0.58719617
1.140919 0.30346251 0.58711636
1.1408679 0.30069044 0.58703661
1.1370407 0.29771748 0.588296
1.13699 0.29495242 0.58821642
1.1369392 0.29218736 0.58813685
1.1368884 0.2894223 0.58805728
1.1368376 0.28665727 0.58797771
1.1367868 0.28389221 0.58789814
1.136736 0.28112715 0.5878185
1.1366853 0.2783621 0.58773893
1.1366345 0.27559704 0.58765936
1.1365837 0.27283198 0.58757979
1.1365329 0.27006692 0.58750021
1.140257 0.26742563 0.58607924
1.1402061 0.26465353 0.58599943
1.1363806 0.26177177 0.5872615
1.1363298 0.25900671 0.58718193
1.136279 0.25624165 0.58710235
1.1335875 0.57801312 0.59650916
1.1335371 0.57526213 0.59642994
1.1334865 0.57251108 0.59635079
1.133436 0.56976002 0.59627163
1.1333854 0.56700903 0.59619242
1.1333349 0.56425798 0.59611326
1.1332843 0.56150693 0.59603411
1.1332338 0.55875593 0.59595495
1.1331832 0.55600488 0.59587574
1.1331328 0.55325389 0.59579659
1.1330823 0.55050284 0.59571743
1.1368171 0.54859114 0.59431094
1.1367664 0.54583311 0.59423155
1.140501 0.54390037 0.59282446
1.1404502 0.54113531 0.59274483
1.1403995 0.53837025 0.59266526
1.1441334 0.5364095 0.59125739
1.1440825 0.53363746 0.59117764
1.1478162 0.53165567 0.58976907
1.1515495 0.52965981 0.58836019
1.1514983 0.52687371 0.58828002
1.1514472 0.52408761 0.58819979
1.1599101 0.52301645 0.58512813
1.1598586 0.52021462 0.58504754
1.1598071 0.51741272 0.5849669
1.1597557 0.51461083 0.58488625
1.1597042 0.51180899 0.58480561
1.1634361 0.50973421 0.58339447
1.1633844 0.50692534 0.58331358
1.1633329 0.50411648 0.58323276
1.1632813 0.50130755 0.58315194
1.1632297 0.49849868 0.58307111
1.1593955 0.49499771 0.5843218
1.159344 0.49219584 0.58424115
1.1592925 0.48939398 0.58416051
1.1592411 0.48659208 0.58407986
1.1554073 0.48312619 0.58533162
1.1553559 0.48033133 0.58525121
1.1553047 0.47753644 0.58517075
1.150526 0.47393787 0.58675653
1.1504749 0.47115177 0.58667636
1.1504236 0.4683657 0.58659613
1.1465911 0.46495765 0.5878495
1.14654 0.46217859 0.58776957
1.146489 0.45939949 0.58768958
1.1426568 0.45601952 0.58894378
1.1426059 0.45324746 0.58886403
1.142555 0.45047536 0.58878422
1.1462848 0.44828317 0.58736962
1.1462338 0.44550407 0.58728963
1.1461828 0.442725 0.5872097
1.1423514 0.43938711 0.58846509
1.1423005 0.43661502 0.58838534
1.1422496 0.43384296 0.58830553
1.1421986 0.43107089 0.58822578
1.1421477 0.42829883 0.58814597
1.1420968 0.42552677 0.58806622
1.1420459 0.42275468 0.58798647
1.1382157 0.4194729 0.58924341
1.1381649 0.41670784 0.58916384
1.1381141 0.41394278 0.58908427
1.1342843 0.41068906 0.59034216
1.1342336 0.407931 0.59026277
1.1341829 0.40517297 0.59018338
1.1303537 0.40194726 0.59144199
1.1303031 0.39919624 0.59136283
1.1302526 0.39644524 0.59128368
1.1302021 0.39369419 0.59120446
1.1301515 0.39094317 0.59112531
1.130101 0.38819215 0.59104615
1.1300505 0.38544112 0.590967
1.1337776 0.38310862 0.58954841
1.133727 0.38035059 0.58946902
1.1336763 0.37759253 0.58938962
1.1336256 0.37483451 0.58931023
1.133575 0.37207645 0.5892309
1.1373014 0.36970189 0.58781105
1.1372507 0.36693683 0.58773148
1.1409767 0.36454123 0.58631104
1.1409258 0.36176917 0.58623129
1.1408749 0.35899711 0.58615154
1.1408238 0.35622501 0.58607173
1.1445494 0.35379437 0.58465028
1.1444982 0.35101527 0.58457029
1.1444472 0.3482362 0.5844903
1.1443962 0.34545711 0.58441031
1.1443452 0.34267801 0.58433038
1.1480697 0.34020528 0.58290774
1.1480185 0.33741918 0.58282757
1.1479673 0.33463308 0.58274734
1.1479162 0.33184698 0.58266717
1.1440899 0.32878262 0.58393043
1.1440389 0.32600352 0.58385044
1.1439879 0.32322446 0.58377045
1.1439368 0.32044536 0.58369052
1.1438857 0.31766629 0.58361053
1.1438347 0.3148872 0.58353055
1.1400093 0.31187192 0.58479524
1.1399584 0.30909985 0.58471549
1.1399074 0.30632779 0.58463567
1.1398565 0.30355573 0.58455592
1.1398056 0.30078363 0.58447617
1.1397547 0.29801157 0.58439636
1.1397038 0.29523951 0.58431661
1.1396528 0.29246745 0.5842368
1.1396019 0.28969538 0.58415705
1.139551 0.28692329 0.58407724
1.1395001 0.28415123 0.58399749
1.1394491 0.28137916 0.58391768
1.1393982 0.2786071 0.58383793
1.1393473 0.27583504 0.58375812
1.1392964 0.27306294 0.58367836
1.1392455 0.27029088 0.58359855
1.1391946 0.26751882 0.5835188
1.1391437 0.26474676 0.58343899
1.1353208 0.26186472 0.5847075
1.13527 0.25909966 0.58462793
1.1352192 0.2563346 0.58454835
1.1325332 0.57810563 0.59396815
1.1324826 0.57535458 0.59388894
1.1324321 0.57260358 0.59380978
1.1323816 0.56985253 0.59373063
1.132331 0.56710154 0.59365141
1.1322805 0.56435049 0.59357226
1.13223 0.56159943 0.5934931
1.1321795 0.55884844 0.59341389
1.132129 0.55609739 0.59333473
1.1320784 0.55334634 0.59325558
1.1320279 0.55059534 0.59317636
1.1357601 0.54868388 0.59176344
1.1357094 0.54592586 0.59168404
1.1394413 0.54399335 0.59027046
1.1393905 0.54122829 0.59019089
1.1393397 0.53846323 0.59011132
1.1430709 0.53650272 0.58869696
1.14302 0.53373063 0.58861715
1.146751 0.53174907 0.58720213
1.1504817 0.52975345 0.58578676
1.1504306 0.52696741 0.58570659
1.1503793 0.52418125 0.58562642
1.1588362 0.52311069 0.58254015
1.1587847 0.52030879 0.58245957
1.1587332 0.51750696 0.58237892
1.1586819 0.51470506 0.58229828
1.1586304 0.51190317 0.58221763
1.1623596 0.50982869 0.5808
1.162308 0.50701982 0.58071917
1.1622564 0.50421089 0.58063829
1.1622047 0.50140202 0.58055747
1.1621531 0.49859312 0.58047664
1.1583216 0.49509192 0.58173382
1.1582701 0.49229005 0.58165318
1.1582186 0.48948818 0.58157253
1.1581672 0.48668629 0.58149189
1.1543361 0.48322016 0.58275014
1.1542848 0.4804253 0.58266968
1.1542335 0.47763044 0.58258927
1.1494582 0.47403154 0.5841831
1.149407 0.47124547 0.58410293
1.1493559 0.46845937 0.58402276
1.1455261 0.46505111 0.58528262
1.1454749 0.46227202 0.58520263
1.1454239 0.45949292 0.58512264
1.1415944 0.45611271 0.58638334
1.1415435 0.45334065 0.58630359
1.1414926 0.45056859 0.58622378
1.1452197 0.4483766 0.58480275
1.1451687 0.4455975 0.58472276
1.1451176 0.44281843 0.58464277
1.1412889 0.4394803 0.58590466
1.141238 0.43670824 0.58582491
1.1411871 0.43393615 0.5857451
1.1411362 0.43116412 0.58566535
1.1410853 0.42839202 0.58558553
1.1410344 0.42561996 0.58550578
1.1409835 0.4228479 0.58542597
1.1371559 0.41956586 0.58668947
1.1371051 0.4168008 0.5866099
1.1370543 0.41403574 0.58653033
1.1332271 0.41078177 0.58779466
1.1331764 0.40802374 0.58771527
1.1331258 0.40526569 0.58763593
1.1330751 0.40250766 0.58755654
1.1330246 0.39974961 0.58747715
1.1329739 0.39699155 0.58739775
1.1329232 0.39423352 0.58731842
1.1328726 0.39147547 0.58723903
1.1328219 0.38871744 0.58715963
1.1327713 0.38595942 0.5870803
1.1327206 0.38320136 0.58700091
1.1326699 0.3804433 0.58692151
1.136394 0.37809002 0.58549583
1.1363432 0.37532496 0.58541626
1.1362925 0.37255991 0.58533663
1.1400161 0.37017858 0.58391017
1.1399652 0.36740652 0.58383042
1.1436884 0.36500412 0.5824033
1.1436373 0.36222503 0.58232331
1.1435863 0.35944596 0.58224332
1.1473089 0.35701552 0.58081543
1.1472578 0.35422942 0.58073527
1.1472065 0.35144332 0.58065504
1.1471554 0.34865722 0.58057487
1.1471043 0.34587115 0.5804947
1.1470531 0.34308505 0.58041453
1.1470019 0.34029895 0.58033431
1.1469507 0.33751285 0.58025414
1.1468996 0.33472675 0.58017397
1.1468483 0.33194065 0.5800938
1.1467972 0.32915455 0.58001357
1.146746 0.32636848 0.5799334
1.1429228 0.32331789 0.58120358
1.1428717 0.32053879 0.58112359
1.1428206 0.31775972 0.5810436
1.1427696 0.31498063 0.58096361
1.1389468 0.31196514 0.5822348
1.1388959 0.30919304 0.58215505
1.138845 0.30642098 0.58207524
1.1387941 0.30364892 0.58199549
1.1387432 0.30087686 0.58191568
1.1386923 0.29810479 0.58183593
1.1386414 0.2953327 0.58175611
1.1385905 0.29256064 0.58167636
1.1385394 0.28978857 0.58159655
1.1384885 0.28701651 0.5815168
1.1384376 0.28424445 0.58143699
1.1383867 0.28147236 0.58135724
1.1383358 0.27870029 0.58127749
1.1382849 0.27592823 0.58119768
1.138234 0.27315617 0.58111793
1.1381831 0.2703841 0.58103812
1.1381322 0.26761201 0.58095837
1.1380812 0.26483995 0.58087856
1.134261 0.26195771 0.58215356
1.1342102 0.25919265 0.58207399
1.1341594 0.25642759 0.58199441
1.1314788 0.57819813 0.59142715
1.1314282 0.57544708 0.59134793
1.1313777 0.57269609 0.59126878
1.1313273 0.56994504 0.59118962
1.1312767 0.56719398 0.59111041
1.1312262 0.56444299 0.59103125
1.1311756 0.56169194 0.5909521
1.1311251 0.55894095 0.59087288
1.1310745 0.55618989 0.59079373
1.131024 0.55343884 0.59071457
1.1309735 0.55068785 0.59063536
1.134703 0.54877663 0.58921593
1.1346524 0.54601854 0.5891366
1.1346017 0.54326051 0.58905721
1.1383308 0.54132128 0.58763695
1.1382799 0.53855622 0.58755738
1.1420085 0.53659594 0.58613652
1.1419576 0.53382385 0.58605671
1.1419067 0.53105181 0.58597696
1.1456349 0.52906346 0.58455527
1.1455839 0.52628434 0.58447528
1.1493115 0.52427495 0.58305299
1.1539837 0.52244222 0.58129472
1.1539323 0.51964736 0.58121431
1.1576594 0.51760113 0.57979095
1.157608 0.51479924 0.5797103
1.1575565 0.5119974 0.57962966
1.157505 0.50919551 0.57954901
1.1574535 0.50639361 0.57946837
1.1574022 0.50359172 0.57938772
1.1573507 0.50078988 0.57930708
1.1572992 0.49798799 0.57922643
1.1534703 0.49449357 0.58049035
1.153419 0.49169871 0.58040994
1.1533676 0.48890385 0.58032948
1.1533163 0.48610899 0.58024907
1.153265 0.48331413 0.5801686
1.1484928 0.47969741 0.58177006
1.1484416 0.47691134 0.58168989
1.1483904 0.47412521 0.58160973
1.1483393 0.47133914 0.58152956
1.148288 0.46855304 0.58144933
1.1444609 0.46514454 0.58271569
1.1444098 0.46236545 0.5826357
1.1443588 0.45958638 0.58255571
1.140532 0.45620593 0.58382291
1.1404811 0.45343384 0.5837431
1.1404302 0.45066178 0.58366334
1.1403792 0.44788972 0.58358353
1.1441035 0.44569096 0.58215582
1.1402774 0.44234559 0.58342397
1.1402265 0.4395735 0.58334422
1.1401756 0.43680143 0.58326441
1.1401247 0.43402937 0.58318466
1.1400738 0.43125731 0.58310491
1.1400229 0.42848524 0.5830251
1.1361977 0.42518896 0.58429468
1.1361469 0.4224239 0.5842151
1.1360961 0.41965884 0.58413553
1.1360453 0.41689378 0.58405596
1.1359946 0.41412872 0.58397633
1.1321701 0.41087452 0.58524716
1.1321194 0.40811646 0.58516777
1.1320688 0.40535843 0.58508843
1.1320181 0.40260038 0.58500904
1.1319674 0.39984235 0.58492965
1.1319168 0.3970843 0.58485031
1.1318661 0.39432624 0.58477092
1.1318154 0.39156821 0.58469152
1.1317649 0.38881019 0.58461219
1.1317142 0.38605213 0.5845328
1.1316636 0.38329411 0.5844534
1.1316129 0.38053605 0.58437401
1.1353344 0.37818301 0.58294183
1.1352836 0.37541795 0.58286226
1.1352328 0.37265289 0.58278269
1.1389536 0.37027177 0.58134973
1.1389027 0.36749971 0.58126998
1.1426233 0.36509755 0.57983637
1.1425723 0.36231849 0.57975638
1.1425211 0.35953939 0.57967639
1.1462412 0.35710919 0.578242
1.1461899 0.35432312 0.57816184
1.1461388 0.35153702 0.57808167
1.1460876 0.34875092 0.5780015
1.1460364 0.34596482 0.57792127
1.1459852 0.34317872 0.5778411
1.1459341 0.34039262 0.57776093
1.145883 0.33760652 0.57768077
1.1458317 0.33482042 0.57760054
1.1457806 0.33203432 0.57752037
1.1457294 0.32924825 0.5774402
1.1456783 0.32646215 0.57736003
1.1418576 0.32341132 0.57863665
1.1418066 0.32063225 0.57855666
1.1417555 0.31785315 0.57847667
1.1417044 0.31507409 0.57839668
1.1378844 0.31205833 0.57967436
1.1378335 0.30928627 0.57959461
1.1377826 0.30651417 0.5795148
1.1377317 0.30374211 0.57943505
1.1376808 0.30097005 0.57935524
1.1376297 0.29819798 0.57927549
1.1375788 0.29542592 0.57919568
1.1375279 0.29265383 0.57911593
1.137477 0.28988177 0.57903612
1.1374261 0.2871097 0.57895637
1.1373752 0.28433764 0.57887655
1.1373243 0.28156558 0.5787968
1.1372734 0.27879348 0.57871699
1.1372225 0.27602142 0.57863724
1.1371715 0.27324936 0.57855743
1.1371206 0.27047729 0.57847768
1.1370697 0.26770523 0.57839787
1.1370188 0.26493317 0.57831812
1.1369679 0.26216108 0.57823831
1.136917 0.25938901 0.57815856
1.1368661 0.25661695 0.57807875
1.1304244 0.57829064 0.58888608
1.130374 0.57553959 0.58880693
1.1303234 0.57278854 0.58872777
1.1302729 0.57003754 0.58864856
1.1302223 0.56728649 0.5885694
1.1301718 0.5645355 0.58849025
1.1301212 0.56178445 0.58841109
1.1300707 0.55903339 0.58833188
1.1300203 0.5562824 0.58825272
1.1299697 0.55353135 0.58817357
1.1299192 0.55078036 0.58809435
1.1336459 0.54886937 0.58666849
1.1335952 0.54611129 0.5865891
1.1335447 0.54335326 0.5865097
1.137271 0.54141426 0.58508295
1.1372203 0.5386492 0.58500338
1.1371695 0.53588414 0.5849238
1.1371187 0.53311908 0.58484423
1.1408443 0.53114498 0.58341652
1.1407933 0.52837288 0.58333671
1.1407424 0.52560085 0.58325696
1.1482438 0.52436864 0.58047962
1.1481925 0.52158254 0.58039945
1.1481414 0.51879644 0.58031923
1.1528099 0.51694643 0.57855237
1.1527585 0.51415157 0.5784719
1.1527071 0.51135677 0.57839149
1.1526558 0.50856185 0.57831103
1.1526045 0.50576699 0.57823062
1.1525532 0.50297213 0.57815015
1.1525018 0.50017726 0.57806975
1.1524504 0.4973824 0.57798928
1.1523992 0.49458754 0.57790887
1.1523478 0.49179268 0.57782841
1.1475785 0.48814937 0.57943726
1.1475273 0.4853633 0.57935703
1.1474761 0.48257717 0.57927686
1.143651 0.4791334 0.58054864
1.1436 0.4763543 0.58046865
1.1435488 0.4735752 0.58038872
1.1434978 0.47079614 0.58030874
1.1434468 0.46801707 0.58022875
1.1433958 0.46523798 0.58014876
1.1395714 0.46184328 0.58142203
1.1395205 0.45907119 0.58134222
1.1394696 0.45629913 0.58126247
1.1394186 0.45352706 0.58118266
1.1393677 0.45075497 0.58110291
1.1393168 0.44798291 0.5810231
1.1392659 0.44521084 0.58094335
1.139215 0.44243878 0.58086354
1.135392 0.43910718 0.5821386
1.1353412 0.43634212 0.58205903
1.1352904 0.43357706 0.58197945
1.1352396 0.430812 0.58189982
1.1351887 0.42804697 0.58182025
1.1351379 0.42528191 0.58174068
1.1350871 0.42251685 0.58166111
1.1350363 0.41975179 0.58158153
1.1349856 0.41698673 0.58150196
1.1349348 0.41422167 0.58142239
1.1311131 0.41096723 0.58269966
1.1310624 0.4082092 0.58262032
1.1310117 0.40545115 0.58254093
1.1309611 0.40269312 0.58246154
1.1309104 0.39993507 0.5823822
1.1308597 0.39717704 0.58230281
1.1308091 0.39441898 0.58222342
1.1307584 0.39166093 0.58214402
1.1307077 0.3889029 0.58206469
1.134427 0.38657114 0.58062661
1.1343762 0.38380608 0.58054703
1.1343254 0.38104102 0.58046746
1.1380439 0.37868118 0.57902861
1.137993 0.37590912 0.57894886
1.1379421 0.37313706 0.57886904
1.1378912 0.37036499 0.57878929
1.1378403 0.3675929 0.57870948
1.1415582 0.36519101 0.57726943
1.1415071 0.36241192 0.57718945
1.1414561 0.35963282 0.57710946
1.1451733 0.35720286 0.57566863
1.1451222 0.35441679 0.57558846
1.145071 0.35163069 0.57550824
1.1497297 0.3492547 0.57372624
1.1496785 0.34645981 0.57364577
1.1496271 0.34366494 0.57356536
1.1495757 0.34087011 0.5734849
1.1448151 0.33770022 0.57510734
1.1447639 0.33491412 0.57502717
1.1447128 0.33212802 0.574947
1.1446615 0.32934192 0.57486677
1.1446104 0.32655582 0.5747866
1.1445593 0.32376972 0.57470644
1.1407415 0.32072568 0.57598972
1.1406904 0.31794661 0.57590973
1.1406393 0.31516752 0.57582974
1.1405883 0.31238845 0.57574981
1.1405373 0.30960935 0.57566983
1.1367202 0.3066074 0.57695436
1.1366692 0.30383533 0.57687461
1.1366183 0.30106324 0.5767948
1.1365674 0.29829118 0.57671505
1.1365165 0.29551911 0.57663524
1.1364655 0.29274705 0.57655549
1.1364146 0.28997499 0.57647568
1.1363637 0.28720289 0.57639593
1.1363128 0.28443083 0.57631612
1.1362619 0.28165877 0.57623637
1.1362109 0.27888671 0.57615656
1.13616 0.27611464 0.57607681
1.1361091 0.27334255 0.57599699
1.1360582 0.27057049 0.57591724
1.1360073 0.26779842 0.57583743
1.1359564 0.26502636 0.57575768
1.1359055 0.2622543 0.57567787
1.1358546 0.25948223 0.57559812
1.1358037 0.25671014 0.57551831
1.1293701 0.57838309 0.58634508
1.1293195 0.5756321 0.58626592
1.129269 0.57288104 0.58618677
1.1292185 0.57013005 0.58610755
1.1291679 0.567379 0.5860284
1.1291174 0.56462795 0.58594924
1.1290669 0.56187695 0.58587003
1.1290164 0.5591259 0.58579087
1.1289659 0.55637491 0.58571172
1.1289153 0.55362386 0.5856325
1.1288648 0.5508728 0.58555335
1.1325889 0.54896206 0.58412099
1.1325382 0.54620403 0.5840416
1.1324875 0.543446 0.5839622
1.1362113 0.54150718 0.58252901
1.1361605 0.53874213 0.58244944
1.1361097 0.53597707 0.5823698
1.1360589 0.53321207 0.58229023
1.1397818 0.5312382 0.58085603
1.1397309 0.52846611 0.58077627
1.13968 0.52569407 0.58069646
1.1471759 0.52446228 0.57790619
1.1471248 0.52167618 0.57782602
1.1470736 0.51889014 0.57774585
1.1517386 0.51704043 0.57597083
1.1516874 0.51424557 0.57589042
1.151636 0.51145071 0.57580996
1.1515846 0.50865585 0.57572955
1.1515334 0.50586098 0.57564908
1.151482 0.50306612 0.57556868
1.1514306 0.50027126 0.57548821
1.1513793 0.49747637 0.5754078
1.151328 0.49468151 0.57532734
1.1512767 0.49188668 0.57524693
1.1465107 0.48824304 0.57686383
1.1464595 0.48545697 0.57678366
1.1464083 0.48267084 0.57670349
1.1425859 0.47922683 0.57798171
1.1425349 0.47644773 0.57790178
1.1424838 0.47366866 0.57782179
1.1424327 0.47088957 0.5777418
1.1423817 0.4681105 0.57766181
1.1423306 0.46533144 0.57758182
1.1385089 0.46193647 0.57886159
1.138458 0.45916438 0.57878178
1.1384071 0.45639232 0.57870203
1.1383562 0.45362025 0.57862222
1.1383053 0.45084819 0.57854247
1.1382544 0.44807613 0.57846266
1.1382035 0.44530404 0.57838291
1.1381526 0.44253197 0.5783031
1.1343322 0.43920016 0.5795846
1.1342814 0.4364351 0.57950503
1.1342306 0.43367004 0.57942545
1.1341798 0.43090498 0.57934588
1.134129 0.42813993 0.57926631
1.1340783 0.42537487 0.57918674
1.1340275 0.42260984 0.57910717
1.1339767 0.41984478 0.57902759
1.1339259 0.41707972 0.57894802
1.1338751 0.41431466 0.57886839
1.130056 0.41105998 0.58015221
1.1300054 0.40830192 0.58007282
1.1299547 0.40554389 0.57999343
1.129904 0.40278584 0.57991403
1.1298534 0.40002781 0.5798347
1.1298027 0.39726976 0.57975531
1.129752 0.3945117 0.57967591
1.1297014 0.39175367 0.57959658
1.1296507 0.38899565 0.57951719
1.1333672 0.38666409 0.57807267
1.1333164 0.38389903 0.57799304
1.1332656 0.38113397 0.57791346
1.1369815 0.37877437 0.57646817
1.1369306 0.37600234 0.57638842
1.1368797 0.37323025 0.57630861
1.1368288 0.37045819 0.57622886
1.1367779 0.36768612 0.57614905
1.140493 0.36528444 0.5747025
1.140442 0.36250535 0.57462251
1.140391 0.35972628 0.57454252
1.1441056 0.35729656 0.5730952
1.1440543 0.35451046 0.57301503
1.1440032 0.35172436 0.57293487
1.1486586 0.34934866 0.5711447
1.1486073 0.34655377 0.57106429
1.1485559 0.34375894 0.57098383
1.1485046 0.34096408 0.57090342
1.1437473 0.33779389 0.57253397
1.1436962 0.33500779 0.57245374
1.1436449 0.33222169 0.57237357
1.1435938 0.32943559 0.5722934
1.1435426 0.32664949 0.57221323
1.1434914 0.32386339 0.572133
1.1396763 0.32081911 0.57342279
1.1396253 0.31804004 0.5733428
1.1395743 0.31526095 0.57326287
1.1395231 0.31248188 0.57318288
1.1394721 0.30970278 0.57310289
1.1356577 0.30670059 0.57439393
1.1356068 0.30392852 0.57431412
1.1355559 0.30115646 0.57423437
1.135505 0.2983844 0.57415456
1.1354541 0.29561231 0.5740748
1.1354032 0.29284024 0.57399499
1.1353523 0.29006818 0.57391524
1.1353012 0.28729612 0.57383543
1.1314881 0.28435704 0.57512826
1.1314373 0.28159198 0.57504869
1.1351485 0.2789799 0.57359612
1.1350976 0.27620783 0.57351637
1.1350467 0.27343577 0.57343656
1.1349958 0.27066371 0.57335681
1.1349449 0.26789162 0.573277
1.134894 0.26511955 0.57319725
1.1310818 0.2622366 0.57449162
1.131031 0.25947154 0.57441205
1.1309803 0.25670648 0.57433248
1.1283157 0.57847559 0.58380407
1.1282651 0.5757246 0.58372492
1.1282146 0.57297355 0.58364576
1.1281642 0.5702225 0.58356655
1.1281136 0.5674715 0.58348739
1.1280631 0.56472045 0.58340824
1.1280125 0.56196946 0.58332902
1.127962 0.55921841 0.58324987
1.1279114 0.55646735 0.58317071
1.1278609 0.55371636 0.5830915
1.1278104 0.55096531 0.58301234
1.1315318 0.5490548 0.58157349
1.1314812 0.54629678 0.58149409
1.1314305 0.54353875 0.58141476
1.1313798 0.54078072 0.58133537
1.1313292 0.53802264 0.58125597
1.1350499 0.53607005 0.57981586
1.1349992 0.53330505 0.57973629
1.1387194 0.53133142 0.57829559
1.1386685 0.52855933 0.57821584
1.1386176 0.52578723 0.57813603
1.1423374 0.52378559 0.57669455
1.1422864 0.52100652 0.57661456
1.1422354 0.5182274 0.57653457
1.1459546 0.51619768 0.57509226
1.1459035 0.51341158 0.57501209
1.1458522 0.51062548 0.57493192
1.1458011 0.50783938 0.57485169
1.1457499 0.50505328 0.57477152
1.1456988 0.50226724 0.57469136
1.1456475 0.49948111 0.57461119
1.1455964 0.49669501 0.57453096
1.1455452 0.49390894 0.57445079
1.145494 0.49112281 0.57437062
1.1416739 0.48765752 0.57565475
1.1416228 0.48487842 0.57557476
1.1415718 0.48209935 0.57549483
1.1415207 0.47932026 0.57541484
1.1414697 0.47654116 0.57533485
1.1414187 0.47376209 0.57525486
1.1375993 0.47034588 0.57654047
1.1375483 0.46757379 0.57646066
1.1374974 0.46480173 0.57638091
1.1374465 0.46202967 0.5763011
1.1373956 0.4592576 0.57622135
1.1373447 0.45648554 0.57614154
1.1372938 0.45371345 0.57606179
1.1372429 0.45094138 0.57598203
1.137192 0.44816932 0.57590222
1.137141 0.44539726 0.57582247
1.1333232 0.44205818 0.57711023
1.1332724 0.43929312 0.57703066
1.1332216 0.43652806 0.57695109
1.1331708 0.433763 0.57687151
1.1331201 0.43099794 0.57679188
1.1330693 0.42823291 0.57671231
1.1330185 0.42546785 0.57663274
1.1329677 0.42270279 0.57655317
1.1329169 0.41993773 0.57647359
1.1328661 0.41717267 0.57639402
1.1328154 0.41440761 0.57631445
1.1289989 0.41115272 0.57760471
1.1289483 0.40839466 0.57752532
1.1288977 0.40563661 0.57744592
1.128847 0.40287858 0.57736659
1.1287963 0.40012053 0.5772872
1.1287457 0.3973625 0.5772078
1.128695 0.39460444 0.57712847
1.1286443 0.39184639 0.57704908
1.1285937 0.38908836 0.57696968
1.1323074 0.38675708 0.57551867
1.1360209 0.38441172 0.57406729
1.13597 0.38163966 0.57398754
1.1359191 0.3788676 0.57390773
1.1358682 0.37609553 0.57382798
1.1395811 0.37371513 0.57237554
1.1395301 0.37093604 0.57229555
1.1394789 0.36815697 0.57221556
1.1431912 0.36574849 0.5707624
1.1431401 0.36296242 0.57068217
1.1430889 0.36017632 0.570602
1.1477414 0.35782722 0.5688045
1.1476901 0.35503235 0.5687241
1.1476388 0.35223749 0.56864363
1.1475874 0.34944263 0.56856322
1.1475362 0.34664774 0.56848282
1.1474848 0.34385291 0.56840235
1.1474334 0.34105805 0.56832194
1.1473821 0.33826315 0.56824148
1.1473308 0.33546832 0.56816107
1.1472794 0.33267346 0.5680806
1.1472281 0.3298786 0.5680002
1.1471767 0.32708371 0.56791973
1.1424236 0.32395709 0.56955963
1.1386112 0.32091257 0.57085586
1.1385602 0.31813347 0.57077593
1.1385092 0.31535438 0.57069594
1.1384581 0.31257531 0.57061595
1.138407 0.30979621 0.57053596
1.1345953 0.30679381 0.57183349
1.1345444 0.30402175 0.57175368
1.1344935 0.30124965 0.57167393
1.1344426 0.29847759 0.57159412
1.1343915 0.29570553 0.57151437
1.1343406 0.29293346 0.57143456
1.1305299 0.28998011 0.57273346
1.1304791 0.28721505 0.57265389
1.1304283 0.28444999 0.57257432
1.1303775 0.28168494 0.57249475
1.1303267 0.27891991 0.57241517
1.130276 0.27615485 0.57233554
1.1302252 0.27338979 0.57225597
1.1301744 0.27062473 0.5721764
1.1301236 0.26785967 0.57209682
1.1300728 0.26509461 0.57201725
1.1262634 0.26221842 0.57331842
1.1262127 0.25946039 0.57323903
1.1261621 0.25670233 0.57315964
1.1272614 0.5785681 0.58126307
1.1272109 0.57581705 0.58118391
1.1271603 0.57306606 0.5811047
1.1271098 0.570315 0.58102554
1.1270592 0.56756401 0.58094639
1.1270087 0.56481296 0.58086723
1.1269581 0.56206191 0.58078802
1.1269076 0.55931091 0.58070886
1.1268572 0.55655986 0.58062971
1.1268066 0.55380887 0.58055049
1.1267561 0.55105782 0.58047134
1.1304748 0.54914755 0.57902598
1.1304241 0.54638946 0.57894659
1.1303735 0.54363143 0.57886726
1.1303228 0.54087341 0.57878786
1.1302722 0.53811538 0.57870847
1.1339902 0.53616303 0.57726187
1.1339394 0.53339797 0.57718229
1.137657 0.53142458 0.57573515
1.1376061 0.52865255 0.5756554
1.1375551 0.52588046 0.57557559
1.1412723 0.52387905 0.57412761
1.1412213 0.52109993 0.57404763
1.1411703 0.51832086 0.57396764
1.1448869 0.51629138 0.57251889
1.1448356 0.51350528 0.57243866
1.1447845 0.51071918 0.57235849
1.1447333 0.50793308 0.57227832
1.144682 0.50514698 0.57219815
1.1446309 0.50236088 0.57211792
1.1445798 0.49957478 0.57203776
1.1445286 0.49678868 0.57195759
1.1444774 0.49400261 0.57187742
1.1444262 0.49121648 0.57179719
1.1406088 0.48775095 0.57308781
1.1405578 0.48497188 0.57300788
1.1405066 0.48219278 0.57292789
1.1404556 0.47941369 0.5728479
1.1404046 0.47663462 0.57276791
1.1403536 0.47385553 0.57268792
1.1365368 0.47043908 0.57398003
1.1364859 0.46766698 0.57390022
1.136435 0.46489495 0.57382047
1.1363841 0.46212289 0.57374066
1.1363332 0.45935079 0.57366091
1.1362823 0.45657873 0.5735811
1.1362314 0.45380667 0.57350135
1.1361804 0.45103461 0.57342154
1.1361295 0.44826251 0.57334179
1.1360786 0.44549045 0.57326198
1.1322634 0.44215116 0.57455623
1.1322126 0.4393861 0.57447666
1.1321619 0.43662104 0.57439709
1.1321111 0.43385598 0.57431751
1.1320603 0.43109092 0.57423794
1.1320095 0.42832586 0.57415837
1.1319587 0.4255608 0.5740788
1.1319079 0.42279574 0.57399923
1.1318572 0.42003068 0.57391965
1.1318064 0.41726565 0.57384008
1.1317556 0.41450059 0.57376045
1.1317048 0.41173553 0.57368088
1.131654 0.40897048 0.57360131
1.1316032 0.40620542 0.57352173
1.1315525 0.40344036 0.57344216
1.1315017 0.4006753 0.57336259
1.1314509 0.39791024 0.57328302
1.1314001 0.39514521 0.57320344
1.1313493 0.39238015 0.57312387
1.1312985 0.38961509 0.5730443
1.1312478 0.38685003 0.57296473
1.1349585 0.38450494 0.57150686
1.1349076 0.38173285 0.57142705
1.138618 0.37936673 0.56996858
1.138567 0.37658766 0.56988859
1.1385159 0.37380856 0.5698086
1.1422257 0.37141439 0.56834936
1.1421746 0.36862829 0.56826913
1.1468242 0.36630577 0.56646436
1.146773 0.36351091 0.5663839
1.1467216 0.36071604 0.56630349
1.1466702 0.35792118 0.56622303
1.146619 0.35512632 0.56614262
1.1465676 0.35233146 0.56606215
1.1502762 0.34986538 0.56460077
1.1502248 0.34706348 0.56452012
1.1501733 0.34426162 0.56443948
1.1501218 0.34145975 0.56435889
1.1463109 0.33835715 0.56566
1.1462595 0.33556229 0.56557953
1.1462083 0.33276743 0.56549913
1.1461569 0.32997257 0.56541866
1.1461056 0.3271777 0.56533825
1.1413559 0.32405075 0.5669862
1.1413046 0.32126465 0.56690603
1.1412535 0.31847855 0.56682587
1.137444 0.31544784 0.568129
1.137393 0.31266874 0.56804901
1.1373419 0.30988967 0.56796902
1.1335329 0.306887 0.56927305
1.133482 0.30411494 0.56919324
1.133431 0.30134287 0.56911349
1.1333801 0.29857081 0.56903368
1.1333292 0.29579872 0.56895393
1.1332783 0.29302666 0.56887412
1.1294702 0.29007307 0.57017946
1.1294194 0.28730804 0.57009989
1.1293687 0.28454298 0.57002032
1.1293179 0.28177792 0.56994075
1.1292671 0.27901286 0.56986117
1.1292163 0.2762478 0.5697816
1.1291654 0.27348274 0.56970203
1.1291146 0.27071768 0.56962246
1.1290638 0.26795265 0.56954288
1.1290131 0.26518759 0.56946331
1.1252064 0.26231116 0.57077092
1.1251557 0.2595531 0.57069153
1.125105 0.25679508 0.57061219
1.1250544 0.25403702 0.5705328
1.126207 0.57866061 0.57872206
1.1261564 0.57590955 0.5786429
1.1261059 0.57315856 0.57856369
1.1260554 0.57040751 0.57848454
1.1260048 0.56765646 0.57840538
1.1259544 0.56490546 0.57832617
1.1259038 0.56215441 0.57824701
1.1258533 0.55940342 0.57816786
1.1295696 0.55751437 0.57671666
1.129519 0.55475634 0.57663727
1.1294684 0.55199832 0.57655787
1.1294178 0.54924029 0.57647848
1.1293671 0.54648221 0.57639915
1.1293164 0.54372418 0.57631975
1.1292658 0.54096615 0.57624036
1.1292151 0.53820813 0.57616103
1.1329305 0.53625602 0.57470793
1.1328797 0.53349096 0.57462835
1.132829 0.5307259 0.57454878
1.1365436 0.52874571 0.57309496
1.1364927 0.52597368 0.57301515
1.1364418 0.52320158 0.5729354
1.1363909 0.52042955 0.57285559
1.13634 0.51765746 0.57277584
1.1400541 0.51563519 0.57132071
1.1400031 0.51285613 0.57124072
1.1399519 0.51007706 0.57116079
1.1436654 0.50802672 0.56970489
1.1398499 0.50451887 0.57100081
1.1397989 0.5017398 0.57092083
1.1397479 0.4989607 0.57084084
1.1396968 0.49618164 0.57076085
1.1396457 0.49340254 0.57068086
1.1395947 0.49062347 0.57060087
1.13578 0.48716468 0.57189822
1.135729 0.48439264 0.57181847
1.1356781 0.48162055 0.57173866
1.1356272 0.47884849 0.57165891
1.1355762 0.47607642 0.5715791
1.1355253 0.47330433 0.57149935
1.1354744 0.4705323 0.5714196
1.1354235 0.46776021 0.57133979
1.1353726 0.46498814 0.57126004
1.1353217 0.46221608 0.57118022
1.1352707 0.45944399 0.57110047
1.1314577 0.45606938 0.57240015
1.1314069 0.45330432 0.57232058
1.1313561 0.45053926 0.57224101
1.1313053 0.44777423 0.57216144
1.1312546 0.44500917 0.57208186
1.1312038 0.44224411 0.57200229
1.131153 0.43947905 0.57192272
1.1311022 0.43671399 0.57184315
1.1272901 0.43340251 0.57314473
1.1272395 0.43064445 0.57306534
1.1271888 0.42788643 0.57298595
1.1271381 0.42512837 0.57290661
1.1270875 0.42237034 0.57282722
1.1270368 0.41961229 0.57274783
1.1269861 0.41685426 0.57266849
1.1269355 0.41409621 0.5725891
1.1268848 0.41133818 0.57250971
1.1268342 0.40858012 0.57243031
1.1267835 0.40582207 0.57235098
1.1267328 0.40306404 0.57227159
1.1304419 0.40076828 0.57080865
1.1303911 0.39800322 0.57072908
1.1303403 0.39523816 0.57064945
1.1302896 0.3924731 0.57056987
1.1302388 0.38970807 0.5704903
1.130188 0.38694301 0.57041073
1.133896 0.38459814 0.56894642
1.1338451 0.38182607 0.56886661
1.1375529 0.37946019 0.56740165
1.1375018 0.37668109 0.56732166
1.1374508 0.37390199 0.56724167
1.141158 0.37150806 0.56577593
1.1411068 0.36872196 0.56569576
1.1457531 0.36639974 0.56388283
1.1457018 0.36360487 0.56380242
1.1456504 0.36081001 0.56372195
1.1455991 0.35801515 0.56364155
1.1455477 0.35522029 0.56356108
1.1454965 0.35242543 0.56348068
1.1492023 0.34995958 0.56201279
1.149151 0.34715769 0.56193215
1.1490995 0.34435582 0.5618515
1.149048 0.34155396 0.56177092
1.1452397 0.33845112 0.56307846
1.1451885 0.33565626 0.56299806
1.1451371 0.33286139 0.56291759
1.1450858 0.33006653 0.56283718
1.1450344 0.32727167 0.56275672
1.140288 0.32414442 0.56441283
1.1402369 0.32135832 0.56433266
1.1401857 0.31857222 0.56425244
1.1363789 0.31554127 0.56556207
1.1363279 0.3127622 0.56548208
1.1362768 0.3099831 0.56540209
1.1324704 0.30698019 0.56671256
1.1324195 0.30420813 0.56663281
1.1323686 0.30143607 0.566553
1.1323177 0.298664 0.56647325
1.1322668 0.29589194 0.56639344
1.1284612 0.29293111 0.56770509
1.1284105 0.29016605 0.56762552
1.1283597 0.28740099 0.56754595
1.1245545 0.28446823 0.56885844
1.1245039 0.28171018 0.56877905
1.1244532 0.27895215 0.56869966
1.1244026 0.2761941 0.56862032
1.124352 0.27343607 0.56854093
1.1243013 0.27067801 0.56846154
1.1242507 0.26791999 0.5683822
1.1242 0.26516193 0.56830281
1.1241493 0.26240388 0.56822342
1.1240987 0.25964585 0.56814402
1.124048 0.25688779 0.56806469
1.1239973 0.25412977 0.5679853
1.1251526 0.57875311 0.57618105
1.125102 0.57600206 0.5761019
1.1250515 0.57325101 0.57602268
1.1250011 0.57050002 0.57594353
1.1249505 0.56774896 0.57586437
1.1249 0.56499797 0.57578516
1.1248494 0.56224692 0.57570601
1.1247989 0.55949587 0.57562685
1.1285126 0.55760711 0.57416916
1.128462 0.55484909 0.57408977
1.1284113 0.55209106 0.57401037
1.1283606 0.54933304 0.57393104
1.12831 0.54657495 0.57385164
1.1282593 0.54381692 0.57377225
1.1282088 0.5410589 0.57369286
1.1281581 0.53830081 0.57361352
1.1318707 0.53634894 0.57215399
1.13182 0.53358394 0.57207441
1.1317692 0.53081888 0.57199478
1.1354812 0.52883893 0.57053447
1.1354303 0.5260669 0.57045472
1.1353794 0.52329481 0.57037491
1.1353285 0.52052271 0.57029516
1.1352775 0.51775068 0.5702154
1.1352266 0.51497859 0.57013559
1.138938 0.51294959 0.56867385
1.1388869 0.51017052 0.56859386
1.1388358 0.50739139 0.56851387
1.1387848 0.50461233 0.56843388
1.1349721 0.50111824 0.56973672
1.1349212 0.49834618 0.56965691
1.1348703 0.49557409 0.56957716
1.1348193 0.49280202 0.56949735
1.1347684 0.49002999 0.5694176
1.1347175 0.4872579 0.56933779
1.1346666 0.48448583 0.56925803
1.1346157 0.48171374 0.56917822
1.1345648 0.47894168 0.56909847
1.1345139 0.47616965 0.56901866
1.134463 0.47339755 0.56893891
1.1344121 0.47062549 0.5688591
1.134361 0.4678534 0.56877935
1.1343101 0.46508133 0.56869954
1.1342592 0.4623093 0.56861979
1.1342083 0.45953721 0.56853998
1.1303979 0.45616236 0.56984621
1.1303471 0.4533973 0.56976664
1.1302963 0.45063224 0.56968707
1.1302456 0.44786718 0.5696075
1.1301948 0.44510213 0.56952792
1.130144 0.44233707 0.56944835
1.1263343 0.43901131 0.57075596
1.1262836 0.43625328 0.57067662
1.126233 0.43349522 0.57059723
1.1261824 0.4307372 0.57051784
1.1261318 0.42797914 0.5704385
1.1260811 0.42522112 0.57035911
1.1260304 0.42246306 0.57027972
1.1259798 0.41970503 0.57020032
1.1259291 0.41694698 0.57012099
1.1258785 0.41418895 0.5700416
1.1258278 0.4114309 0.5699622
1.1257771 0.40867287 0.56988287
1.1257265 0.40591481 0.56980348
1.1256758 0.40315676 0.56972408
1.1293821 0.40086123 0.56825465
1.1293314 0.39809617 0.56817508
1.1292806 0.39533111 0.56809551
1.1292298 0.39256606 0.56801593
1.129179 0.38980103 0.56793636
1.1328845 0.38746342 0.56646574
1.1365899 0.38511178 0.56499469
1.1365389 0.38233268 0.5649147
1.1364878 0.37955362 0.56483471
1.1364367 0.37677452 0.56475472
1.1363857 0.37399545 0.56467474
1.1447846 0.37208343 0.56146222
1.1447333 0.36928856 0.56138176
1.1446819 0.3664937 0.56130135
1.1483859 0.36406317 0.55982798
1.1483344 0.36126131 0.5597474
1.1482829 0.35845941 0.55966675
1.1482315 0.35565755 0.55958611
1.14818 0.35285565 0.55950546
1.1481285 0.35005379 0.55942482
1.148077 0.34725189 0.55934417
1.1480256 0.34445003 0.55926353
1.1479741 0.34164816 0.55918288
1.1441686 0.33854508 0.56049699
1.1441172 0.33575022 0.56041652
1.144066 0.33295536 0.56033611
1.1440146 0.3301605 0.56025571
1.1439632 0.32736564 0.56017524
1.1392202 0.32423809 0.5618394
1.1391691 0.32145199 0.56175923
1.1391178 0.31866589 0.56167907
1.1353137 0.3156347 0.56299514
1.1315098 0.31261754 0.56431168
1.1314589 0.30984548 0.56423193
1.131408 0.30707341 0.56415212
1.1313571 0.30430135 0.56407237
1.1313062 0.30152926 0.56399256
1.127503 0.29855418 0.5653103
1.1274523 0.29578912 0.56523073
1.1274015 0.29302406 0.56515115
1.1235988 0.29007703 0.56646967
1.1235482 0.287319 0.56639034
1.1234975 0.28456095 0.56631094
1.1234468 0.28180292 0.56623155
1.1233962 0.27904487 0.56615222
1.1233455 0.27628684 0.56607282
1.1232948 0.27352878 0.56599343
1.1232442 0.27077076 0.56591403
1.1231935 0.2680127 0.5658347
1.123143 0.26525468 0.56575531
1.1230923 0.26249662 0.56567591
1.1230416 0.25973859 0.56559658
1.122991 0.25698054 0.56551719
1.1229403 0.25422248 0.56543779
1.1240983 0.57884562 0.57364005
1.1240478 0.57609457 0.57356089
1.1239972 0.57334352 0.57348168
1.1239467 0.57059252 0.57340252
1.1238961 0.56784147 0.57332337
1.1238456 0.56509042 0.57324415
1.123795 0.56233943 0.573165
1.1275063 0.56045789 0.57170105
1.1274556 0.55769986 0.57162166
1.1274049 0.55494183 0.57154226
1.1273543 0.55218375 0.57146293
1.1273036 0.54942572 0.57138354
1.1272529 0.5466677 0.57130414
1.1272023 0.54390967 0.57122475
1.1309125 0.54197204 0.56975913
1.1308618 0.53920698 0.56967956
1.130811 0.53644192 0.56959999
1.1307602 0.53367686 0.56952041
1.1307094 0.53091186 0.56944084
1.1344188 0.52893215 0.56797403
1.1343679 0.52616006 0.56789428
1.1343169 0.52338797 0.56781447
1.134266 0.52061594 0.56773472
1.1342151 0.5178439 0.56765491
1.1341642 0.51507181 0.56757516
1.1378728 0.51304299 0.56610692
1.1378218 0.51026392 0.56602693
1.1377708 0.50748485 0.56594694
1.1377196 0.50470579 0.56586695
1.1339097 0.50121146 0.56717622
1.1338587 0.49843937 0.56709647
1.1338078 0.49566731 0.56701672
1.1337569 0.49289525 0.56693691
1.133706 0.49012318 0.56685716
1.1336551 0.48735109 0.56677735
1.1336042 0.48457903 0.5666976
1.1335533 0.48180696 0.56661779
1.1335024 0.4790349 0.56653804
1.1334515 0.47626284 0.56645823
1.1334004 0.47349074 0.56637847
1.1333495 0.47071868 0.56629866
1.1332986 0.46794662 0.56621891
1.1332477 0.46517456 0.5661391
1.1331968 0.46240249 0.56605935
1.1331459 0.4596304 0.56597954
1.1293381 0.45625532 0.56729221
1.1292874 0.45349026 0.56721264
1.1292366 0.4507252 0.56713307
1.1291858 0.44796017 0.5670535
1.129135 0.44519511 0.56697392
1.1290842 0.44243005 0.56689435
1.1252773 0.43910405 0.56820852
1.1252266 0.43634599 0.56812912
1.125176 0.43358797 0.56804973
1.1251253 0.43082991 0.5679704
1.1250746 0.42807189 0.567891
1.125024 0.42531383 0.56781161
1.1249733 0.4225558 0.56773221
1.1249228 0.41979775 0.56765288
1.1248721 0.41703972 0.56757349
1.1248214 0.41428167 0.56749409
1.1247708 0.41152364 0.56741476
1.1247201 0.40876558 0.56733537
1.1246694 0.40600756 0.56725597
1.1246188 0.4032495 0.56717664
1.1283225 0.40095422 0.56570071
1.1282717 0.39818916 0.56562114
1.1282209 0.3954241 0.56554151
1.1281701 0.39265904 0.56546193
1.1281193 0.38989401 0.56538236
1.1318221 0.38755661 0.5639053
1.1355247 0.38520521 0.56242776
1.1354737 0.38242611 0.56234777
1.1354227 0.37964705 0.56226778
1.1353717 0.37686798 0.56218779
1.1390735 0.3744815 0.5607093
1.1437135 0.37217742 0.55888069
1.1436621 0.36938253 0.55880028
1.1473634 0.36695924 0.55732065
1.147312 0.36415738 0.55724001
1.1472605 0.36135551 0.55715942
1.147209 0.35855362 0.55707878
1.1471575 0.35575175 0.55699813
1.1471062 0.35294986 0.55691749
1.1508064 0.35047749 0.55543649
1.1507549 0.34766859 0.55535567
1.1469518 0.34454423 0.55667555
1.1469003 0.34174237 0.55659491
1.1468488 0.3389405 0.55651432
1.1430461 0.33584419 0.55783504
1.1429948 0.33304933 0.55775464
1.1429434 0.33025447 0.55767417
1.1428921 0.3274596 0.55759376
1.1381524 0.32433176 0.55926603
1.1381012 0.32154566 0.55918586
1.1380501 0.31875959 0.55910563
1.1342486 0.31572816 0.5604282
1.1304474 0.31271076 0.56175125
1.1303965 0.30993867 0.5616715
1.1303456 0.30716661 0.56159168
1.1302947 0.30439454 0.56151193
1.1302437 0.30162248 0.56143212
1.1264434 0.29864717 0.5627563
1.1263925 0.29588211 0.56267673
1.1263417 0.29311705 0.56259716
1.1225418 0.29016978 0.56392223
1.1224911 0.28741172 0.56384283
1.1224405 0.28465369 0.56376344
1.1223898 0.28189564 0.56368411
1.1223391 0.27913761 0.56360471
1.1222885 0.27637956 0.56352532
1.1222378 0.27362153 0.56344593
1.1221871 0.27086347 0.56336659
1.1221365 0.26810545 0.5632872
1.1220858 0.26534739 0.56320781
1.1220351 0.26258937 0.56312847
1.1219845 0.25983131 0.56304908
1.1219338 0.25707328 0.56296968
1.1181358 0.25422418 0.5642975
1.1229934 0.57618707 0.57101983
1.1229428 0.57343602 0.57094067
1.1228923 0.57068503 0.57086152
1.1228417 0.56793398 0.5707823
1.1227913 0.56518292 0.57070315
1.1227407 0.56243193 0.57062399
1.1264492 0.56055063 0.56915355
1.1263986 0.5577926 0.56907415
1.1263479 0.55503458 0.56899476
1.1262972 0.55227649 0.56891543
1.1262466 0.54951847 0.56883603
1.1261959 0.54676044 0.56875664
1.1261452 0.54400241 0.56867731
1.1298528 0.54206502 0.56720519
1.129802 0.53929996 0.56712562
1.1297512 0.53653491 0.56704605
1.1297004 0.53376985 0.56696647
1.1296496 0.53100479 0.56688684
1.1295989 0.52823973 0.56680727
1.1295481 0.52547467 0.5667277
1.1294973 0.52270961 0.56664813
1.1332036 0.52070916 0.56517428
1.1331527 0.51793706 0.56509447
1.1331018 0.51516497 0.56501472
1.1330509 0.51239294 0.56493491
1.133 0.50962085 0.56485516
1.1367056 0.50757831 0.56338
1.1366546 0.50479919 0.56330001
1.1328472 0.50130463 0.56461579
1.1327963 0.49853259 0.56453604
1.1327454 0.4957605 0.56445622
1.1326945 0.49298844 0.56437647
1.1326436 0.49021637 0.56429666
1.1325927 0.48744431 0.56421691
1.1325418 0.48467225 0.5641371
1.1324908 0.48190016 0.56405735
1.1324399 0.47912809 0.56397754
1.1323889 0.47635603 0.56389779
1.132338 0.47358397 0.56381804
1.1322871 0.4708119 0.56373823
1.1322362 0.46803981 0.56365848
1.1321853 0.46526775 0.56357867
1.1321344 0.46249568 0.56349891
1.1320835 0.45972359 0.5634191
1.1282785 0.4563483 0.56473827
1.1282276 0.45358324 0.5646587
1.1281768 0.45081818 0.56457913
1.128126 0.44805312 0.56449956
1.1280752 0.44528806 0.56441998
1.1280245 0.442523 0.56434041
1.1242203 0.4391968 0.56566101
1.1241696 0.43643874 0.56558162
1.1203659 0.43313354 0.56690282
1.1203153 0.43038252 0.56682366
1.1202648 0.4276315 0.56674445
1.1202142 0.42488047 0.56666529
1.1201637 0.42212942 0.56658614
1.1201131 0.4193784 0.56650692
1.1200627 0.41662738 0.56642777
1.1200122 0.41387635 0.56634861
1.1199616 0.4111253 0.5662694
1.1236631 0.40885833 0.56478786
1.1236124 0.40610027 0.56470847
1.1235617 0.40334225 0.56462914
1.1235111 0.40058419 0.56454974
1.1234604 0.39782614 0.56447035
1.1271611 0.39551705 0.56298757
1.1271104 0.39275199 0.56290799
1.1270596 0.38998696 0.56282842
1.1307597 0.38764983 0.56134486
1.1344596 0.38529864 0.55986083
1.1344086 0.38251957 0.55978084
1.1343576 0.37974051 0.55970085
1.1343066 0.37696141 0.55962092
1.1380057 0.37457517 0.55813593
1.1426423 0.37227139 0.55629921
1.142591 0.3694765 0.5562188
1.1462896 0.36705345 0.55473268
1.1462381 0.36425158 0.55465204
1.1461867 0.36144972 0.55457139
1.1461352 0.35864782 0.5544908
1.1460837 0.35584596 0.55441016
1.1460323 0.35304406 0.55432951
1.14973 0.35057193 0.55284208
1.1496783 0.34776303 0.5527612
1.145878 0.34463844 0.55408758
1.1458265 0.34183657 0.55400693
1.145775 0.33903471 0.55392635
1.1419749 0.33593816 0.55525357
1.1419235 0.33314329 0.5551731
1.137187 0.32999763 0.556853
1.1371357 0.32721153 0.55677283
1.1370846 0.32442546 0.5566926
1.1332856 0.32137975 0.55802125
1.1332346 0.31860068 0.55794126
1.1294359 0.31557602 0.55927056
1.129385 0.31280395 0.55919081
1.1293341 0.31003189 0.559111
1.1292831 0.3072598 0.55903125
1.1254852 0.30427024 0.5603615
1.1254344 0.30150518 0.56028193
1.1216367 0.29853663 0.56161284
1.1215861 0.2957786 0.56153345
1.1215354 0.29302055 0.56145412
1.1214848 0.29026252 0.56137472
1.1214341 0.28750446 0.56129533
1.1213834 0.28474641 0.56121594
1.1213328 0.28198838 0.5611366
1.1212821 0.27923033 0.56105721
1.1212314 0.2764723 0.56097782
1.1211808 0.27371424 0.56089848
1.1173846 0.27082285 0.56223154
1.1173341 0.26807183 0.56215239
1.1172836 0.26532081 0.56207317
1.117233 0.26256979 0.56199402
1.1171825 0.25981873 0.56191486
1.1171319 0.25706771 0.56183571
1.1170814 0.25431669 0.56175649
1.1219389 0.57627958 0.56847882
1.1218885 0.57352853 0.56839967
1.121838 0.57077748 0.56832051
1.1217874 0.56802648 0.5682413
1.1217369 0.56527543 0.56816214
1.1216863 0.56252438 0.56808299
1.1216358 0.55977339 0.56800377
1.1253415 0.55788529 0.56652665
1.1252909 0.55512726 0.56644732
1.1252402 0.55236924 0.56636792
1.1251895 0.54961121 0.56628853
1.1251389 0.54685313 0.5662092
1.1250882 0.5440951 0.5661298
1.1250376 0.54133707 0.56605041
1.1249869 0.53857905 0.56597102
1.1286916 0.53662783 0.56449205
1.1286408 0.53386283 0.56441247
1.12859 0.53109777 0.5643329
1.1285392 0.52833271 0.56425333
1.1284884 0.52556765 0.56417376
1.1284375 0.52280259 0.56409419
1.1283867 0.52003753 0.56401461
1.128336 0.51727247 0.56393504
1.1320393 0.51525819 0.56245428
1.1319884 0.51248616 0.56237447
1.1319375 0.50971407 0.56229472
1.1356405 0.50767171 0.56081307
1.1355895 0.50489265 0.56073308
1.1355383 0.50211358 0.56065315
1.1354873 0.49933448 0.56057316
1.1354363 0.49655539 0.56049317
1.1353853 0.49377629 0.56041318
1.1353343 0.49099725 0.56033319
1.1352832 0.48821816 0.5602532
1.1352321 0.48543906 0.56017321
1.1314284 0.48199335 0.56149691
1.1313775 0.47922128 0.5614171
1.1313266 0.47644925 0.56133735
1.1312757 0.47367716 0.56125754
1.1312248 0.4709051 0.56117779
1.1311738 0.468133 0.56109798
1.1311228 0.46536094 0.56101823
1.1310719 0.46258891 0.56093842
1.131021 0.45981681 0.56085867
1.1309701 0.45704475 0.56077892
1.1309192 0.45427269 0.56069911
1.1271172 0.45091113 0.56202513
1.1270664 0.4481461 0.56194556
1.1270156 0.44538105 0.56186599
1.1269648 0.44261599 0.56178641
1.1231632 0.43928951 0.56311351
1.1231126 0.43653148 0.56303412
1.1193115 0.43322605 0.56436181
1.1192609 0.43047503 0.56428266
1.1192104 0.42772397 0.56420344
1.1191599 0.42497295 0.56412429
1.1191094 0.42222193 0.56404513
1.1190588 0.41947091 0.56396592
1.1190083 0.41671988 0.56388676
1.1189578 0.41396883 0.56380761
1.1189072 0.41121781 0.56372839
1.1188567 0.40846679 0.56364924
1.1225553 0.40619302 0.56216103
1.1225046 0.40343496 0.56208163
1.1224539 0.40067691 0.56200224
1.1224034 0.39791888 0.56192291
1.1261014 0.39561003 0.56043363
1.1260506 0.39284497 0.56035399
1.1259998 0.39007992 0.56027442
1.1296972 0.38774303 0.55878443
1.1333945 0.3853921 0.55729389
1.1333435 0.382613 0.5572139
1.1370403 0.38024104 0.55572289
1.1369891 0.37745494 0.55564272
1.136938 0.37466887 0.5555625
1.1415712 0.37236536 0.55371773
1.1415198 0.36957046 0.55363727
1.1452157 0.36714765 0.55214471
1.1489114 0.36471081 0.55065179
1.1488597 0.36190194 0.55057096
1.1488081 0.35909304 0.55049014
1.1487566 0.35628414 0.55040926
1.148705 0.35347527 0.55032843
1.1486534 0.35066637 0.55024761
1.1486018 0.34785748 0.55016679
1.144804 0.34473264 0.55149961
1.1447526 0.34193078 0.55141896
1.1447011 0.33912891 0.55133832
1.1409038 0.33603212 0.55267203
1.1408525 0.33323726 0.55259162
1.1361191 0.3300913 0.55427957
1.136068 0.32730523 0.5541994
1.1360168 0.32451913 0.55411923
1.1322205 0.32147318 0.55545431
1.1321695 0.31869411 0.55537438
1.1283734 0.31566921 0.55671012
1.1283225 0.31289715 0.55663037
1.1282716 0.31012508 0.55655056
