ply
format ascii 1.0
comment Created by Open3D
element vertex 1794
property double x
property double y
property double z
end_header
0.970213 0.36603 0.90916
0.970159 0.363776 0.909167
0.972127 0.361722 0.908845
0.972073 0.359465 0.908852
0.972019 0.357208 0.908859
0.971965 0.354951 0.908866
0.971911 0.352693 0.908873
0.969836 0.350254 0.909209
0.969782 0.348 0.909216
0.969728 0.345746 0.909223
0.969674 0.343493 0.90923
0.96962 0.341239 0.909237
0.969567 0.338985 0.909244
0.969513 0.336731 0.909251
0.969459 0.334478 0.909258
0.969405 0.332224 0.909265
0.969351 0.32997 0.909272
0.969297 0.327716 0.909279
0.969243 0.325463 0.909286
0.969189 0.323209 0.909293
0.969135 0.320955 0.9093
0.969082 0.318702 0.909307
0.969028 0.316448 0.909314
0.968974 0.314194 0.909321
0.96892 0.31194 0.909328
0.968866 0.309687 0.909335
0.968812 0.307433 0.909342
0.968758 0.305179 0.909349
0.968704 0.302925 0.909356
0.965622 0.300514 0.909856
0.965568 0.298265 0.909863
0.965515 0.296017 0.90987
0.965461 0.293769 0.909877
0.965407 0.29152 0.909884
0.965353 0.289272 0.909891
0.962272 0.286897 0.910391
0.962218 0.284654 0.910398
0.962165 0.282411 0.910405
0.962111 0.280167 0.910412
0.960039 0.277854 0.910748
0.959986 0.275614 0.910755
0.959932 0.273375 0.910762
0.959879 0.271135 0.910769
0.959825 0.268895 0.910776
0.959771 0.266656 0.910783
0.959718 0.264416 0.91079
0.959664 0.262176 0.910797
0.956585 0.259874 0.911296
0.956531 0.257639 0.911303
0.956478 0.255405 0.91131
0.956425 0.25317 0.911317
0.956371 0.250936 0.911324
0.956318 0.248701 0.911331
0.956264 0.246467 0.911338
0.956211 0.244232 0.911345
0.956157 0.241998 0.911352
0.956104 0.239764 0.911359
0.956051 0.237529 0.911366
0.955997 0.235295 0.911373
0.953927 0.23306 0.911708
0.953874 0.230829 0.911715
0.95382 0.228598 0.911722
0.953767 0.226368 0.911729
0.953714 0.224137 0.911736
0.95366 0.221906 0.911743
0.953607 0.219675 0.91175
0.953554 0.217444 0.911757
0.9535 0.215213 0.911764
0.953447 0.212982 0.91177
0.953394 0.210751 0.911777
0.95334 0.20852 0.911784
0.953287 0.206289 0.911791
0.953234 0.204058 0.911798
0.955196 0.201778 0.911477
0.955142 0.199544 0.911483
0.955089 0.197309 0.91149
0.958058 0.194985 0.911005
0.958004 0.192746 0.911012
0.959966 0.190439 0.91069
0.959912 0.188196 0.910697
0.959858 0.185953 0.910704
0.962826 0.183594 0.910219
0.965794 0.181224 0.909733
0.96574 0.17897 0.90974
0.967701 0.176629 0.909419
0.967647 0.174371 0.909426
0.967593 0.172114 0.909433
0.967539 0.169857 0.90944
0.967485 0.1676 0.909447
0.967431 0.165342 0.909454
0.967377 0.163085 0.909461
0.967323 0.160828 0.909468
0.967269 0.158571 0.909475
0.967215 0.156314 0.909482
0.967161 0.154056 0.909489
0.967107 0.151799 0.909496
0.967053 0.149542 0.909503
0.966999 0.147285 0.90951
0.966945 0.145027 0.909517
0.966891 0.14277 0.909524
0.964824 0.140657 0.909859
0.966485 0.370229 0.90754
0.966431 0.367981 0.907547
0.971427 0.366249 0.906722
0.971373 0.363992 0.906729
0.971319 0.361735 0.906736
0.971265 0.359478 0.906743
0.971211 0.357221 0.90675
0.971157 0.354963 0.906757
0.971103 0.352706 0.906764
0.96903 0.350267 0.907104
0.968976 0.348013 0.907111
0.968922 0.345759 0.907118
0.968868 0.343505 0.907125
0.968814 0.341252 0.907132
0.968761 0.338998 0.907139
0.968707 0.336744 0.907146
0.968653 0.33449 0.907153
0.968599 0.332237 0.90716
0.968545 0.329983 0.907167
0.968491 0.327729 0.907174
0.968437 0.325475 0.907181
0.968383 0.323222 0.907188
0.968329 0.320968 0.907195
0.968276 0.318714 0.907202
0.968222 0.316461 0.907209
0.968168 0.314207 0.907216
0.968114 0.311953 0.907223
0.96806 0.309699 0.90723
0.968006 0.307446 0.907237
0.967952 0.305192 0.907244
0.967898 0.302938 0.907251
0.964818 0.300527 0.907756
0.964764 0.298278 0.907763
0.96471 0.29603 0.90777
0.964657 0.293781 0.907777
0.964603 0.291533 0.907784
0.964549 0.289284 0.907791
0.964495 0.287036 0.907798
0.964442 0.284787 0.907805
0.964388 0.282539 0.907812
0.964334 0.28029 0.907819
0.961255 0.277937 0.908324
0.961202 0.275694 0.908331
0.961148 0.27345 0.908337
0.961094 0.271207 0.908344
0.959024 0.268908 0.908683
0.958971 0.266668 0.90869
0.958917 0.264429 0.908697
0.958863 0.262189 0.908704
0.95881 0.259949 0.908711
0.958756 0.257709 0.908718
0.958703 0.25547 0.908725
0.958649 0.25323 0.908732
0.958596 0.25099 0.908739
0.958542 0.248751 0.908746
0.958489 0.246511 0.908753
0.958435 0.244271 0.90876
0.958381 0.242032 0.908767
0.958328 0.239792 0.908774
0.958274 0.237552 0.908781
0.958221 0.235312 0.908788
0.955145 0.233073 0.909292
0.955091 0.230838 0.909299
0.955038 0.228604 0.909306
0.954984 0.22637 0.909313
0.954931 0.224135 0.90932
0.954877 0.221901 0.909327
0.954824 0.219666 0.909334
0.954771 0.217432 0.909341
0.954717 0.215197 0.909348
0.954664 0.212963 0.909355
0.95461 0.210729 0.909362
0.954557 0.208494 0.909368
0.954503 0.20626 0.909375
0.95445 0.204025 0.909382
0.957417 0.201717 0.908892
0.957364 0.199477 0.908899
0.95731 0.197238 0.908906
0.959271 0.194938 0.908581
0.959217 0.192695 0.908588
0.962184 0.190352 0.908097
0.96213 0.188103 0.908104
0.962076 0.185855 0.908111
0.962022 0.183606 0.908118
0.964988 0.181237 0.907628
0.964934 0.178983 0.907635
0.966894 0.176641 0.90731
0.96684 0.174384 0.907317
0.966786 0.172127 0.907324
0.966732 0.16987 0.907331
0.966678 0.167612 0.907338
0.969643 0.165197 0.906848
0.969589 0.162935 0.906855
0.966516 0.160841 0.907359
0.966462 0.158584 0.907366
0.966408 0.156326 0.907373
0.966354 0.154069 0.90738
0.969318 0.151622 0.90689
0.966246 0.149555 0.907394
0.966192 0.147297 0.907401
0.966138 0.14504 0.907408
0.966084 0.142783 0.907415
0.96603 0.140526 0.907422
0.965681 0.370242 0.905439
0.965627 0.367993 0.905446
0.97062 0.366262 0.904614
0.970566 0.364005 0.904621
0.970512 0.361748 0.904628
0.970458 0.359491 0.904635
0.970404 0.357233 0.904642
0.97035 0.354976 0.904649
0.970296 0.352719 0.904656
0.968224 0.350279 0.904998
0.96817 0.348026 0.905005
0.968116 0.345772 0.905012
0.968062 0.343518 0.905019
0.968009 0.341264 0.905026
0.967955 0.339011 0.905033
0.967901 0.336757 0.90504
0.967847 0.334503 0.905047
0.967793 0.332249 0.905054
0.967739 0.329996 0.905061
0.967685 0.327742 0.905068
0.967631 0.325488 0.905075
0.967577 0.323234 0.905082
0.967524 0.320981 0.905089
0.96747 0.318727 0.905096
0.967416 0.316473 0.905103
0.964336 0.31403 0.905614
0.964283 0.311782 0.905621
0.964229 0.309533 0.905627
0.964175 0.307285 0.905634
0.964121 0.305036 0.905641
0.964068 0.302788 0.905648
0.964014 0.300539 0.905655
0.96396 0.298291 0.905662
0.963906 0.296042 0.905669
0.963853 0.293794 0.905676
0.963799 0.291546 0.905683
0.963745 0.289297 0.90569
0.963691 0.287049 0.905697
0.963638 0.2848 0.905704
0.963584 0.282552 0.905711
0.96353 0.280303 0.905718
0.960453 0.27795 0.906228
0.960399 0.275706 0.906235
0.960346 0.273463 0.906242
0.960292 0.27122 0.906249
0.958223 0.268921 0.906591
0.95817 0.266681 0.906598
0.958116 0.264441 0.906605
0.958062 0.262202 0.906612
0.958009 0.259962 0.906619
0.957955 0.257722 0.906626
0.957902 0.255482 0.906633
0.957848 0.253243 0.90664
0.957795 0.251003 0.906647
0.957741 0.248763 0.906654
0.957688 0.246524 0.906661
0.957634 0.244284 0.906668
0.95758 0.242044 0.906674
0.957527 0.239805 0.906681
0.957473 0.237565 0.906688
0.95742 0.235325 0.906695
0.954346 0.233086 0.907205
0.954292 0.230851 0.907212
0.954239 0.228617 0.907219
0.954185 0.226382 0.907226
0.954132 0.224148 0.907233
0.954078 0.221913 0.90724
0.954025 0.219679 0.907246
0.953972 0.217444 0.907253
0.953918 0.21521 0.90726
0.953865 0.212976 0.907267
0.953811 0.210741 0.907274
0.953758 0.208507 0.907281
0.953704 0.206272 0.907288
0.953651 0.204038 0.907295
0.956617 0.20173 0.906799
0.956563 0.19949 0.906806
0.956509 0.19725 0.906813
0.958468 0.194951 0.906485
0.958415 0.192708 0.906492
0.961379 0.190364 0.905997
0.961326 0.188116 0.906004
0.961272 0.185867 0.906011
0.961218 0.183619 0.906018
0.964182 0.181249 0.905522
0.964129 0.178996 0.905529
0.966086 0.176654 0.905202
0.966032 0.174397 0.905209
0.965978 0.17214 0.905216
0.965924 0.169882 0.905223
0.965871 0.167625 0.90523
0.968834 0.16521 0.904734
0.96878 0.162948 0.904741
0.965709 0.160854 0.905251
0.965655 0.158596 0.905258
0.965601 0.156339 0.905265
0.965547 0.154082 0.905272
0.968509 0.151635 0.904776
0.965439 0.149567 0.905285
0.965385 0.14731 0.905292
0.965331 0.145053 0.905299
0.965277 0.142796 0.905306
0.965223 0.140538 0.905313
0.967903 0.370576 0.90283
0.967849 0.368322 0.902837
0.969813 0.366275 0.902505
0.969759 0.364018 0.902512
0.969705 0.361761 0.902519
0.972677 0.359798 0.902018
0.969597 0.357246 0.902533
0.969543 0.354989 0.90254
0.969489 0.352732 0.902547
0.969435 0.350474 0.902554
0.967364 0.348038 0.9029
0.96731 0.345785 0.902907
0.967256 0.343531 0.902914
0.967203 0.341277 0.902921
0.967149 0.339023 0.902928
0.967095 0.33677 0.902935
0.967041 0.334516 0.902942
0.966987 0.332262 0.902949
0.966933 0.330008 0.902956
0.966879 0.327755 0.902963
0.966825 0.325501 0.90297
0.966771 0.323247 0.902977
0.966718 0.320993 0.902984
0.96364 0.31854 0.903499
0.963586 0.316291 0.903506
0.963532 0.314043 0.903513
0.963479 0.311794 0.90352
0.963425 0.309546 0.903527
0.963371 0.307298 0.903534
0.963317 0.305049 0.903541
0.963264 0.302801 0.903548
0.96321 0.300552 0.903555
0.963156 0.298304 0.903562
0.963102 0.296055 0.903569
0.963048 0.293807 0.903576
0.962995 0.291558 0.903583
0.962941 0.28931 0.90359
0.962887 0.287061 0.903597
0.962833 0.284813 0.903604
0.96278 0.282564 0.903611
0.962726 0.280316 0.903618
0.959651 0.277962 0.904133
0.959597 0.275719 0.904139
0.959544 0.273476 0.904146
0.95949 0.271233 0.904153
0.959436 0.268989 0.90416
0.959383 0.266746 0.904167
0.959329 0.264503 0.904174
0.959275 0.26226 0.904181
0.959222 0.260017 0.904188
0.957154 0.257735 0.904534
0.957101 0.255495 0.904541
0.957047 0.253255 0.904548
0.956994 0.251016 0.904554
0.958953 0.248801 0.904223
0.9589 0.246557 0.90423
0.958846 0.244314 0.904237
0.958793 0.242071 0.904244
0.956726 0.239817 0.904589
0.956672 0.237578 0.904596
0.956619 0.235338 0.904603
0.956565 0.233098 0.90461
0.956512 0.230858 0.904617
0.956458 0.228619 0.904624
0.956405 0.226379 0.904631
0.956351 0.224139 0.904638
0.953279 0.221926 0.905152
0.953226 0.219692 0.905159
0.953172 0.217457 0.905166
0.953119 0.215223 0.905173
0.953066 0.212988 0.90518
0.953012 0.210754 0.905187
0.952959 0.208519 0.905194
0.955923 0.206222 0.904693
0.955869 0.203982 0.9047
0.957827 0.201693 0.904369
0.957773 0.19945 0.904376
0.95772 0.197207 0.904383
0.960683 0.194874 0.903882
0.960629 0.192626 0.903889
0.960575 0.190377 0.903896
0.960522 0.188129 0.903903
0.960468 0.18588 0.90391
0.96343 0.183516 0.90341
0.963376 0.181262 0.903417
0.963323 0.179008 0.903424
0.965279 0.176667 0.903093
0.965225 0.17441 0.9031
0.965171 0.172152 0.903107
0.965117 0.169895 0.903114
0.965063 0.167638 0.903121
0.968025 0.165223 0.902621
0.96797 0.16296 0.902628
0.967916 0.160698 0.902635
0.964847 0.158609 0.903149
0.964793 0.156352 0.903156
0.964739 0.154095 0.903163
0.9677 0.151648 0.902663
0.967646 0.149385 0.90267
0.964578 0.147323 0.903184
0.964524 0.145066 0.903191
0.96447 0.142808 0.903198
0.964416 0.140551 0.903205
0.967097 0.370588 0.900725
0.967043 0.368335 0.900732
0.969006 0.366288 0.900397
0.968952 0.364031 0.900404
0.968898 0.361773 0.900411
0.971868 0.359811 0.899904
0.971814 0.357548 0.899911
0.968736 0.355002 0.900432
0.968682 0.352744 0.900439
0.968628 0.350487 0.900446
0.968574 0.34823 0.900453
0.96852 0.345973 0.90046
0.96645 0.343544 0.900809
0.966397 0.34129 0.900816
0.966343 0.339036 0.900823
0.966289 0.336782 0.90083
0.966235 0.334529 0.900837
0.966181 0.332275 0.900844
0.966127 0.330021 0.900851
0.966073 0.327767 0.900858
0.966019 0.325514 0.900865
0.965965 0.32326 0.900872
0.965912 0.321006 0.900879
0.962836 0.318553 0.901399
0.962782 0.316304 0.901406
0.962728 0.314056 0.901413
0.962675 0.311807 0.90142
0.962621 0.309559 0.901427
0.962567 0.30731 0.901434
0.962513 0.305062 0.901441
0.962459 0.302813 0.901448
0.962406 0.300565 0.901454
0.962352 0.298316 0.901461
0.962298 0.296068 0.901468
0.962244 0.293819 0.901475
0.962191 0.291571 0.901482
0.962137 0.289322 0.901489
0.962083 0.287074 0.901496
0.962029 0.284826 0.901503
0.961976 0.282577 0.90151
0.961922 0.280329 0.901517
0.958849 0.277975 0.902037
0.958795 0.275732 0.902044
0.961761 0.273583 0.901538
0.961707 0.271335 0.901545
0.961653 0.269086 0.901552
0.961599 0.266838 0.901559
0.958527 0.264516 0.902079
0.958473 0.262272 0.902086
0.958419 0.260029 0.902093
0.958366 0.257786 0.9021
0.958312 0.255543 0.902107
0.958259 0.2533 0.902113
0.958205 0.251056 0.90212
0.961169 0.24885 0.901615
0.961115 0.246602 0.901622
0.961062 0.244353 0.901629
0.961008 0.242105 0.901636
0.957937 0.23984 0.902155
0.957883 0.237597 0.902162
0.957829 0.235354 0.902169
0.955764 0.233111 0.902518
0.955711 0.230871 0.902525
0.955657 0.228631 0.902532
0.955604 0.226392 0.902539
0.95555 0.224152 0.902546
0.955497 0.221912 0.902552
0.955443 0.219673 0.902559
0.955389 0.217433 0.902566
0.955336 0.215193 0.902573
0.955282 0.212953 0.90258
0.955229 0.210714 0.902587
0.955175 0.208474 0.902594
0.957132 0.206192 0.902259
0.957079 0.203949 0.902266
0.957025 0.201706 0.902273
0.959986 0.199384 0.901768
0.959933 0.197135 0.901775
0.959879 0.194887 0.901782
0.959825 0.192638 0.901789
0.962786 0.19029 0.901284
0.962732 0.188036 0.901291
0.962678 0.185782 0.901298
0.962624 0.183529 0.901305
0.96257 0.181275 0.901312
0.962517 0.179021 0.901319
0.964472 0.17668 0.900984
0.964418 0.174423 0.900991
0.964364 0.172165 0.900998
0.96431 0.169908 0.901005
0.964256 0.167651 0.901012
0.967215 0.165236 0.900507
0.967161 0.162973 0.900514
0.967107 0.160711 0.900521
0.96404 0.158622 0.90104
0.963986 0.156365 0.901047
0.963932 0.154107 0.901054
0.966891 0.151661 0.900549
0.966837 0.149398 0.900556
0.96377 0.147336 0.901075
0.963716 0.145078 0.901082
0.963662 0.142821 0.901089
0.963608 0.140564 0.901096
0.966291 0.370601 0.89862
0.966237 0.368347 0.898627
0.968198 0.366301 0.898288
0.968144 0.364043 0.898295
0.96809 0.361786 0.898302
0.971059 0.359824 0.897791
0.971005 0.357561 0.897798
0.967929 0.355014 0.898323
0.967875 0.352757 0.89833
0.967821 0.3505 0.898337
0.967767 0.348243 0.898344
0.967713 0.345985 0.898351
0.965644 0.343556 0.898703
0.965591 0.341303 0.89871
0.965537 0.339049 0.898717
0.965483 0.336795 0.898724
0.965429 0.334541 0.898731
0.965375 0.332288 0.898738
0.965321 0.330034 0.898745
0.965267 0.32778 0.898752
0.965213 0.325526 0.898759
0.965159 0.323273 0.898766
0.965106 0.321019 0.898773
0.962032 0.318565 0.899298
0.961978 0.316317 0.899305
0.961924 0.314068 0.899312
0.96187 0.31182 0.899319
0.961817 0.309571 0.899326
0.961763 0.307323 0.899333
0.961709 0.305074 0.89934
0.961655 0.302826 0.899347
0.961602 0.300578 0.899354
0.961548 0.298329 0.899361
0.961494 0.296081 0.899368
0.958422 0.29369 0.899893
0.958368 0.291447 0.8999
0.958315 0.289204 0.899907
0.958261 0.28696 0.899914
0.961225 0.284838 0.899403
0.961172 0.28259 0.89941
0.961118 0.280341 0.899417
0.958046 0.277988 0.899941
0.957993 0.275744 0.899948
0.960956 0.273596 0.899438
0.960903 0.271347 0.899445
0.960849 0.269099 0.899452
0.960795 0.26685 0.899459
0.957725 0.264528 0.899983
0.957671 0.262285 0.89999
0.957617 0.260042 0.899997
0.957564 0.257799 0.900004
0.95751 0.255556 0.900011
0.957456 0.253312 0.900018
0.957403 0.251069 0.900025
0.960365 0.248863 0.899514
0.960311 0.246614 0.899521
0.960258 0.244366 0.899528
0.960204 0.242117 0.899535
0.957135 0.239853 0.90006
0.957081 0.23761 0.900067
0.957027 0.235367 0.900074
0.954963 0.233123 0.900426
0.95491 0.230884 0.900432
0.954856 0.228644 0.900439
0.954803 0.226404 0.900446
0.954749 0.224165 0.900453
0.954696 0.221925 0.90046
0.954642 0.219685 0.900467
0.954589 0.217446 0.900474
0.954535 0.215206 0.900481
0.954481 0.212966 0.900488
0.954428 0.210726 0.900495
0.954374 0.208487 0.900502
0.95633 0.206205 0.900164
0.956276 0.203962 0.900171
0.956223 0.201719 0.900178
0.959182 0.199396 0.899668
0.959129 0.197148 0.899675
0.959075 0.194899 0.899682
0.959021 0.192651 0.899689
0.96198 0.190303 0.899178
0.961926 0.188049 0.899185
0.961872 0.185795 0.899192
0.961818 0.183541 0.899199
0.963773 0.181207 0.898862
0.963719 0.17895 0.898869
0.963665 0.176693 0.898876
0.963611 0.174435 0.898883
0.963557 0.172178 0.89889
0.966515 0.169773 0.89838
0.96646 0.167511 0.898387
0.966406 0.165248 0.898394
0.966352 0.162986 0.898401
0.966298 0.160723 0.898408
0.966244 0.158461 0.898415
0.96619 0.156198 0.898422
0.966136 0.153936 0.898429
0.966082 0.151673 0.898436
0.966028 0.149411 0.898443
0.965974 0.147148 0.89845
0.965919 0.144886 0.898457
0.962855 0.142834 0.898981
0.962801 0.140577 0.898988
0.965485 0.370614 0.896514
0.965431 0.36836 0.896521
0.967391 0.366313 0.896179
0.967337 0.364056 0.896186
0.967283 0.361799 0.896193
0.97025 0.359836 0.895677
0.970196 0.357574 0.895684
0.970141 0.355311 0.895691
0.970087 0.353049 0.895698
0.967013 0.350513 0.896228
0.966959 0.348255 0.896235
0.966905 0.345998 0.896242
0.966851 0.343741 0.896249
0.966798 0.341484 0.896256
0.964731 0.339062 0.896612
0.964677 0.336808 0.896619
0.964623 0.334554 0.896626
0.964569 0.3323 0.896633
0.964515 0.330047 0.89664
0.964461 0.327793 0.896647
0.964407 0.325539 0.896654
0.964354 0.323285 0.896661
0.9643 0.321032 0.896668
0.964246 0.318778 0.896675
0.964192 0.316524 0.896682
0.96112 0.314081 0.897212
0.961066 0.311833 0.897219
0.961013 0.309584 0.897226
0.960959 0.307336 0.897233
0.960905 0.305087 0.89724
0.957834 0.302676 0.897769
0.957781 0.300432 0.897776
0.960744 0.298342 0.897261
0.957673 0.295946 0.89779
0.95762 0.293703 0.897797
0.957566 0.29146 0.897804
0.957512 0.289216 0.897811
0.957459 0.286973 0.897818
0.960421 0.284851 0.897302
0.960367 0.282603 0.897309
0.960314 0.280354 0.897316
0.96026 0.278106 0.897323
0.960206 0.275857 0.89733
0.960152 0.273609 0.897337
0.960099 0.27136 0.897344
0.960045 0.269112 0.897351
0.959991 0.266863 0.897358
0.959937 0.264615 0.897365
0.959884 0.262366 0.897372
0.95983 0.260118 0.897379
0.959776 0.257869 0.897386
0.959722 0.255621 0.897393
0.959669 0.253372 0.8974
0.959615 0.251124 0.897407
0.959561 0.248875 0.897414
0.959507 0.246627 0.897421
0.962467 0.244405 0.896905
0.962414 0.242151 0.896912
0.959346 0.239882 0.897442
0.959292 0.237633 0.897449
0.959238 0.235385 0.897456
0.956171 0.233136 0.897985
0.956118 0.230893 0.897992
0.956064 0.22865 0.897999
0.956011 0.226407 0.898006
0.955957 0.224163 0.898013
0.955903 0.22192 0.89802
0.95585 0.219677 0.898027
0.955796 0.217434 0.898034
0.955742 0.21519 0.898041
0.955689 0.212947 0.898048
0.955635 0.210704 0.898055
0.955581 0.208461 0.898061
0.955528 0.206218 0.898068
0.955474 0.203974 0.898075
0.958432 0.201658 0.89756
0.96139 0.19933 0.897045
0.961336 0.197077 0.897052
0.961282 0.194823 0.897059
0.961228 0.192569 0.897066
0.961174 0.190315 0.897073
0.96112 0.188062 0.89708
0.961066 0.185808 0.897087
0.961012 0.183554 0.897094
0.962965 0.18122 0.896753
0.962911 0.178963 0.89676
0.962858 0.176705 0.896767
0.962804 0.174448 0.896774
0.96576 0.172049 0.896259
0.965705 0.169786 0.896266
0.965651 0.167524 0.896273
0.965597 0.165261 0.89628
0.965543 0.162999 0.896287
0.965489 0.160736 0.896294
0.965435 0.158474 0.896301
0.965381 0.156211 0.896308
0.965327 0.153949 0.896315
0.965273 0.151686 0.896322
0.965219 0.149424 0.896329
0.965164 0.147161 0.896336
0.96511 0.144899 0.896343
0.965056 0.142636 0.89635
0.965002 0.140374 0.896357
0.964679 0.370627 0.894409
0.964625 0.368373 0.894416
0.966584 0.366326 0.894071
0.96653 0.364069 0.894078
0.966476 0.361812 0.894085
0.969441 0.359849 0.893564
0.969386 0.357587 0.893571
0.969332 0.355324 0.893578
0.969278 0.353062 0.893585
0.969224 0.350799 0.893592
0.96917 0.348537 0.893599
0.969116 0.346274 0.893606
0.966044 0.343754 0.894141
0.96599 0.341496 0.894148
0.965936 0.339239 0.894155
0.965882 0.336982 0.894162
0.965828 0.334725 0.894169
0.965774 0.332468 0.894176
0.96572 0.33021 0.894183
0.965666 0.327953 0.89419
0.963601 0.325552 0.894549
0.963548 0.323298 0.894556
0.963494 0.321044 0.894563
0.96344 0.318791 0.89457
0.963386 0.316537 0.894577
0.960316 0.314094 0.895111
0.960262 0.311845 0.895118
0.960208 0.309597 0.895125
0.960155 0.307348 0.895132
0.960101 0.3051 0.895139
0.957032 0.302688 0.895674
0.956978 0.300445 0.895681
0.95994 0.298355 0.89516
0.956871 0.295959 0.895695
0.956817 0.293715 0.895702
0.956764 0.291472 0.895709
0.95671 0.289229 0.895716
0.956657 0.286986 0.895723
0.959617 0.284864 0.895202
0.959563 0.282615 0.895209
0.95951 0.280367 0.895216
0.959456 0.278118 0.895223
0.959402 0.27587 0.89523
0.959348 0.273621 0.895237
0.959295 0.271373 0.895244
0.959241 0.269124 0.895251
0.959187 0.266876 0.895258
0.959133 0.264627 0.895265
0.959079 0.262379 0.895272
0.959026 0.260131 0.895279
0.958972 0.257882 0.895286
0.958918 0.255634 0.895293
0.958864 0.253385 0.8953
0.958811 0.251137 0.895306
0.958757 0.248888 0.895313
0.958703 0.24664 0.89532
0.961661 0.244418 0.8948
0.961608 0.242164 0.894807
0.958542 0.239894 0.895341
0.958488 0.237646 0.895348
0.958434 0.235397 0.895355
0.955369 0.233149 0.895889
0.955316 0.230906 0.895896
0.955262 0.228662 0.895903
0.955208 0.226419 0.89591
0.955155 0.224176 0.895917
0.955101 0.221933 0.895924
0.955047 0.21969 0.895931
0.954994 0.217446 0.895938
0.95494 0.215203 0.895945
0.954886 0.21296 0.895952
0.954833 0.210717 0.895959
0.954779 0.208474 0.895966
0.954726 0.20623 0.895973
0.954672 0.203987 0.89598
0.957628 0.20167 0.89546
0.960584 0.199343 0.89494
0.96053 0.197089 0.894947
0.960476 0.194836 0.894954
0.960422 0.192582 0.894961
0.960368 0.190328 0.894968
0.960314 0.188074 0.894975
0.96026 0.185821 0.894982
0.960206 0.183567 0.894989
0.962158 0.181233 0.894644
0.962104 0.178975 0.894651
0.96205 0.176718 0.894658
0.961996 0.174461 0.894665
0.96495 0.172062 0.894146
0.964896 0.169799 0.894153
0.964842 0.167537 0.89416
0.964788 0.165274 0.894167
0.964734 0.163012 0.894174
0.96468 0.160749 0.894181
0.964626 0.158487 0.894188
0.964572 0.156224 0.894195
0.964518 0.153962 0.894202
0.964464 0.151699 0.894209
0.964409 0.149437 0.894216
0.964355 0.147174 0.894223
0.964301 0.144912 0.89423
0.964247 0.142649 0.894237
0.964193 0.140387 0.894244
0.963873 0.370639 0.892304
0.963819 0.368386 0.892311
0.965777 0.366339 0.891962
0.965723 0.364082 0.891969
0.965669 0.361824 0.891976
0.968631 0.359862 0.89145
0.968577 0.357599 0.891457
0.968523 0.355337 0.891464
0.968469 0.353074 0.891471
0.968415 0.350812 0.891478
0.968361 0.348549 0.891485
0.968307 0.346287 0.891492
0.965237 0.343766 0.892032
0.965183 0.341509 0.892039
0.965129 0.339252 0.892046
0.965075 0.336995 0.892053
0.965021 0.334738 0.89206
0.964967 0.33248 0.892067
0.964913 0.330223 0.892074
0.964859 0.327966 0.892081
0.962795 0.325565 0.892443
0.962742 0.323311 0.89245
0.962688 0.321057 0.892457
0.962634 0.318803 0.892464
0.96258 0.31655 0.892471
0.959512 0.314107 0.893011
0.959458 0.311858 0.893018
0.959404 0.30961 0.893025
0.959351 0.307361 0.893032
0.959297 0.305113 0.893039
0.95623 0.302701 0.893578
0.956176 0.300458 0.893585
0.959136 0.298367 0.89306
0.956069 0.295971 0.893599
0.956015 0.293728 0.893606
0.955962 0.291485 0.893613
0.955908 0.289242 0.89362
0.955854 0.286998 0.893627
0.958813 0.284876 0.893102
0.955747 0.282512 0.893641
0.955693 0.280269 0.893648
0.95564 0.278026 0.893655
0.955586 0.275782 0.893662
0.958544 0.273634 0.893136
0.95849 0.271386 0.893143
0.958437 0.269137 0.89315
0.958383 0.266889 0.893157
0.958329 0.26464 0.893164
0.958275 0.262392 0.893171
0.958222 0.260143 0.893178
0.958168 0.257895 0.893185
0.958114 0.255646 0.893192
0.95806 0.253398 0.893199
0.958007 0.251149 0.893206
0.960963 0.248938 0.892681
0.960909 0.246684 0.892688
0.960855 0.24443 0.892695
0.960802 0.242177 0.892702
0.960748 0.239923 0.892709
0.960694 0.237669 0.892716
0.96064 0.235415 0.892723
0.957576 0.233162 0.893262
0.957523 0.230913 0.893269
0.957469 0.228665 0.893276
0.957415 0.226416 0.893283
0.957361 0.224168 0.89329
0.957308 0.221919 0.893297
0.957254 0.219671 0.893304
0.9572 0.217422 0.893311
0.957146 0.215174 0.893318
0.957093 0.212925 0.893325
0.957039 0.210677 0.893332
0.956985 0.208428 0.893338
0.959939 0.206117 0.892813
0.959885 0.203863 0.89282
0.959832 0.201609 0.892827
0.959778 0.199356 0.892834
0.959724 0.197102 0.892841
0.95967 0.194848 0.892848
0.959616 0.192595 0.892855
0.961567 0.190274 0.892508
0.961513 0.188017 0.892515
0.961459 0.18576 0.892522
0.961405 0.183503 0.892529
0.964358 0.181124 0.892004
0.964304 0.178862 0.892011
0.964249 0.176599 0.892018
0.964195 0.174337 0.892025
0.964141 0.172074 0.892032
0.964087 0.169812 0.892039
0.964033 0.167549 0.892046
0.963979 0.165287 0.892053
0.963925 0.163024 0.89206
0.963871 0.160762 0.892067
0.963817 0.158499 0.892074
0.963763 0.156237 0.892081
0.963709 0.153974 0.892088
0.963654 0.151712 0.892095
0.9636 0.149449 0.892102
0.963546 0.147187 0.892109
0.963492 0.144924 0.892116
0.963438 0.142662 0.892123
0.963384 0.140399 0.89213
0.963067 0.370652 0.890198
0.963013 0.368398 0.890205
0.96497 0.366352 0.889853
0.964916 0.364094 0.88986
0.967876 0.362137 0.889329
0.967822 0.359875 0.889336
0.967768 0.357612 0.889343
0.967714 0.35535 0.88935
0.96766 0.353087 0.889357
0.967606 0.350825 0.889364
0.967552 0.348562 0.889371
0.967498 0.3463 0.889378
0.967444 0.344037 0.889386
0.96739 0.341775 0.889393
0.967335 0.339512 0.8894
0.967281 0.33725 0.889407
0.967227 0.334987 0.889414
0.96416 0.332493 0.889958
0.964106 0.330236 0.889965
0.964052 0.327979 0.889972
0.963998 0.325721 0.889979
0.963944 0.323464 0.889986
0.96389 0.321207 0.889993
0.961828 0.318816 0.890359
0.961774 0.316563 0.890366
0.958708 0.314119 0.89091
0.958654 0.311871 0.890917
0.9586 0.309622 0.890924
0.958547 0.307374 0.890931
0.958493 0.305125 0.890938
0.958439 0.302877 0.890945
0.958385 0.300628 0.890952
0.958331 0.29838 0.890959
0.958278 0.296131 0.890966
0.955213 0.293741 0.891511
0.955159 0.291498 0.891518
0.955106 0.289254 0.891525
0.955052 0.287011 0.891532
0.958009 0.284889 0.891001
0.954945 0.282525 0.891545
0.954891 0.280282 0.891552
0.954838 0.278038 0.891559
0.954784 0.275795 0.891566
0.95774 0.273647 0.891036
0.957686 0.271398 0.891043
0.957633 0.26915 0.89105
0.957579 0.266901 0.891057
0.957525 0.264653 0.891064
0.957471 0.262404 0.891071
0.957418 0.260156 0.891078
0.957364 0.257907 0.891085
0.960319 0.255712 0.890554
0.960265 0.253458 0.890561
0.960211 0.251204 0.890568
0.960157 0.248951 0.890575
0.960103 0.246697 0.890582
0.96005 0.244443 0.890589
0.959996 0.242189 0.890596
0.959942 0.239936 0.890603
0.959888 0.237682 0.89061
0.959834 0.235428 0.890617
0.95978 0.233174 0.890624
0.959726 0.230921 0.890631
0.959672 0.228667 0.890638
0.959618 0.226413 0.890645
0.959565 0.22416 0.890652
0.959511 0.221906 0.890659
0.959457 0.219652 0.890666
0.959403 0.217398 0.890673
0.959349 0.215145 0.89068
0.959295 0.212891 0.890687
0.959241 0.210637 0.890694
0.959187 0.208383 0.890701
0.959133 0.20613 0.890708
0.95908 0.203876 0.890715
0.959026 0.201622 0.890722
0.958972 0.199368 0.890729
0.958918 0.197115 0.890736
0.960868 0.194801 0.890385
0.960814 0.192544 0.890392
0.96076 0.190287 0.890399
0.963711 0.187925 0.889869
0.963657 0.185662 0.889876
0.963603 0.1834 0.889883
0.963549 0.181137 0.88989
0.963494 0.178875 0.889897
0.96344 0.176612 0.889904
0.963386 0.17435 0.889911
0.963332 0.172087 0.889918
0.963278 0.169825 0.889925
0.963224 0.167562 0.889932
0.96317 0.1653 0.889939
0.963116 0.163037 0.889947
0.963062 0.160775 0.889954
0.963008 0.158512 0.889961
0.962953 0.15625 0.889968
0.962899 0.153987 0.889975
0.962845 0.151725 0.889982
0.962791 0.149462 0.889989
0.962737 0.1472 0.889996
0.962683 0.144937 0.890003
0.962629 0.142675 0.89001
0.962261 0.370665 0.888093
0.962207 0.368411 0.8881
0.964162 0.366364 0.887745
0.964108 0.364107 0.887752
0.964054 0.36185 0.887759
0.967013 0.359887 0.887223
0.966959 0.357625 0.88723
0.966905 0.355362 0.887237
0.966851 0.3531 0.887244
0.966797 0.350837 0.887251
0.966743 0.348575 0.887258
0.966689 0.346312 0.887265
0.966635 0.34405 0.887272
0.96658 0.341787 0.887279
0.966526 0.339525 0.887286
0.966472 0.337262 0.887293
0.966418 0.335 0.8873
0.963353 0.332506 0.88785
0.963299 0.330249 0.887857
0.963245 0.327991 0.887864
0.963191 0.325734 0.887871
0.963137 0.323477 0.887878
0.963083 0.32122 0.887885
0.961022 0.318829 0.888253
0.960968 0.316575 0.88826
0.957904 0.314132 0.88881
0.95785 0.311883 0.888817
0.957796 0.309635 0.888824
0.957742 0.307387 0.888831
0.957689 0.305138 0.888838
0.957635 0.30289 0.888845
0.957581 0.300641 0.888852
0.957527 0.298393 0.888859
0.957474 0.296144 0.888866
0.954411 0.293753 0.889415
0.954357 0.29151 0.889422
0.954304 0.289267 0.889429
0.95425 0.287024 0.889436
0.954196 0.284781 0.889443
0.954143 0.282537 0.88945
0.954089 0.280294 0.889457
0.954035 0.278051 0.889464
0.953982 0.275808 0.889471
0.956936 0.273659 0.888936
0.956882 0.271411 0.888942
0.956828 0.269163 0.888949
0.956775 0.266914 0.888956
0.956721 0.264666 0.888963
0.956667 0.262417 0.88897
0.956613 0.260169 0.888977
0.95656 0.25792 0.888984
0.959513 0.255725 0.888449
0.959459 0.253471 0.888456
0.959405 0.251217 0.888463
0.959351 0.248963 0.88847
0.959297 0.24671 0.888477
0.959244 0.244456 0.888484
0.95919 0.242202 0.888491
0.959136 0.239948 0.888498
0.959082 0.237695 0.888505
0.959028 0.235441 0.888512
0.958974 0.233187 0.888519
0.95892 0.230933 0.888526
0.958866 0.22868 0.888533
0.958812 0.226426 0.88854
0.958759 0.224172 0.888547
0.958705 0.221919 0.888554
0.958651 0.219665 0.888561
0.958597 0.217411 0.888568
0.958543 0.215157 0.888575
0.958489 0.212904 0.888582
0.958435 0.21065 0.888589
0.958381 0.208396 0.888596
0.958327 0.206142 0.888603
0.958274 0.203889 0.88861
0.95822 0.201635 0.888617
0.958166 0.199381 0.888624
0.958112 0.197128 0.888631
0.96006 0.194814 0.888277
0.960006 0.192557 0.888284
0.959952 0.1903 0.888291
0.962902 0.187937 0.887756
0.962848 0.185675 0.887763
0.962794 0.183412 0.88777
0.962739 0.18115 0.887777
0.962685 0.178887 0.887784
0.962631 0.176625 0.887791
0.962577 0.174362 0.887798
0.962523 0.1721 0.887805
0.962469 0.169837 0.887812
0.962415 0.167575 0.887819
0.962361 0.165312 0.887826
0.962307 0.16305 0.887833
0.962253 0.160787 0.88784
0.962198 0.158525 0.887847
0.962144 0.156262 0.887854
0.96209 0.154 0.887861
0.962036 0.151737 0.887868
0.961982 0.149475 0.887875
0.961928 0.147212 0.887882
0.961874 0.14495 0.887889
0.96182 0.142687 0.887896
0.961455 0.370678 0.885987
0.961401 0.368424 0.885994
0.963355 0.366377 0.885636
0.963301 0.36412 0.885643
0.963247 0.361863 0.88565
0.966204 0.3599 0.885109
0.96615 0.357638 0.885116
0.966096 0.355375 0.885123
0.966042 0.353113 0.88513
0.965988 0.35085 0.885137
0.965934 0.348588 0.885144
0.96588 0.346325 0.885151
0.965825 0.344063 0.885158
0.965771 0.3418 0.885165
0.965717 0.339538 0.885172
0.965663 0.337275 0.885179
0.965609 0.335013 0.885186
0.965555 0.33275 0.885193
0.965501 0.330488 0.8852
0.965447 0.328225 0.885208
0.965393 0.325963 0.885215
0.965339 0.3237 0.885222
0.965284 0.321438 0.885229
0.962222 0.318975 0.885783
0.962168 0.316718 0.88579
0.960108 0.314334 0.886162
0.960054 0.312081 0.886169
0.96 0.309827 0.886176
0.956938 0.307399 0.886731
0.956885 0.305151 0.886737
0.956831 0.302902 0.886744
0.956777 0.300654 0.886751
0.956723 0.298405 0.886758
0.95667 0.296157 0.886765
0.953609 0.293766 0.88732
0.953555 0.291523 0.887327
0.953501 0.28928 0.887334
0.953448 0.287037 0.887341
0.953394 0.284793 0.887347
0.95334 0.28255 0.887354
0.953287 0.280307 0.887361
0.953233 0.278064 0.887368
0.953179 0.275821 0.887375
0.953126 0.273577 0.887382
0.953072 0.271334 0.887389
0.956024 0.269175 0.886849
0.955971 0.266927 0.886856
0.955917 0.264678 0.886863
0.955863 0.26243 0.88687
0.955809 0.260181 0.886877
0.955756 0.257933 0.886884
0.958707 0.255737 0.886344
0.958653 0.253484 0.886351
0.958599 0.25123 0.886358
0.958545 0.248976 0.886365
0.958491 0.246722 0.886372
0.958438 0.244469 0.886379
0.960387 0.242229 0.886021
0.960333 0.239972 0.886028
0.960279 0.237715 0.886035
0.960225 0.235457 0.886042
0.958168 0.2332 0.886414
0.958114 0.230946 0.886421
0.95806 0.228692 0.886428
0.958006 0.226439 0.886435
0.957953 0.224185 0.886442
0.957899 0.221931 0.886449
0.957845 0.219678 0.886455
0.957791 0.217424 0.886462
0.957737 0.21517 0.886469
0.957683 0.212916 0.886476
0.957629 0.210663 0.886483
0.957575 0.208409 0.88649
0.957521 0.206155 0.886497
0.957468 0.203901 0.886504
0.959415 0.201599 0.886147
0.962363 0.199263 0.885607
0.962309 0.197 0.885614
0.962255 0.194738 0.885621
0.962201 0.192475 0.885628
0.962147 0.190213 0.885635
0.962093 0.18795 0.885642
0.962039 0.185688 0.885649
0.961984 0.183425 0.885656
0.964931 0.181042 0.885117
0.964877 0.178774 0.885124
0.964823 0.176506 0.885131
0.964769 0.174239 0.885138
0.964715 0.171971 0.885145
0.96466 0.169703 0.885152
0.964606 0.167435 0.885159
0.964552 0.165168 0.885166
0.964498 0.1629 0.885173
0.964443 0.160632 0.88518
0.964389 0.158364 0.885187
0.964335 0.156097 0.885194
0.964281 0.153829 0.885201
0.964226 0.151561 0.885208
0.964172 0.149293 0.885215
0.964118 0.147025 0.885222
0.964064 0.144758 0.885229
0.96401 0.14249 0.885236
0.960649 0.37069 0.883882
0.960595 0.368437 0.883889
0.962548 0.36639 0.883528
0.962494 0.364133 0.883535
0.96244 0.361875 0.883542
0.965395 0.359913 0.882996
0.965341 0.357651 0.883003
0.965287 0.355388 0.88301
0.965233 0.353126 0.883017
0.965179 0.350863 0.883024
0.965125 0.348601 0.883031
0.96507 0.346338 0.883038
0.965016 0.344076 0.883045
0.964962 0.341813 0.883052
0.964908 0.339551 0.883059
0.964854 0.337288 0.883066
0.9648 0.335026 0.883073
0.964746 0.332763 0.88308
0.964692 0.330501 0.883087
0.964638 0.328238 0.883094
0.964584 0.325976 0.883101
0.964529 0.323713 0.883108
0.964475 0.321451 0.883115
0.961414 0.318988 0.883674
0.96136 0.316731 0.883681
0.959302 0.314347 0.884057
0.959248 0.312093 0.884064
0.959194 0.30984 0.884071
0.95914 0.307586 0.884078
0.956081 0.305163 0.884637
0.956027 0.302915 0.884644
0.955973 0.300667 0.884651
0.955919 0.298418 0.884658
0.955865 0.29617 0.884665
0.952806 0.293779 0.885224
0.952753 0.291536 0.885231
0.952699 0.289292 0.885238
0.952645 0.287049 0.885245
0.952592 0.284806 0.885252
0.952538 0.282563 0.885259
0.952485 0.28032 0.885266
0.952431 0.278076 0.885273
0.952377 0.275833 0.88528
0.952324 0.27359 0.885287
0.95227 0.271347 0.885294
0.95522 0.269188 0.884749
0.955167 0.26694 0.884756
0.955113 0.264691 0.884763
0.955059 0.262443 0.884769
0.955005 0.260194 0.884776
0.954952 0.257946 0.884783
0.957901 0.25575 0.884238
0.957847 0.253496 0.884245
0.957793 0.251243 0.884252
0.957739 0.248989 0.884259
0.957685 0.246735 0.884266
0.959633 0.244499 0.883905
0.959579 0.242242 0.883912
0.959525 0.239985 0.883919
0.959471 0.237727 0.883926
0.959417 0.23547 0.883933
0.959363 0.233213 0.88394
0.95931 0.230956 0.883947
0.959256 0.228698 0.883954
0.959202 0.226441 0.883961
0.959148 0.224184 0.883968
0.959094 0.221927 0.883975
0.95904 0.219669 0.883982
0.958986 0.217412 0.883989
0.958932 0.215155 0.883996
0.958878 0.212898 0.884003
0.958824 0.21064 0.88401
0.95877 0.208383 0.884017
0.958716 0.206126 0.884024
0.958662 0.203869 0.884031
0.961608 0.201538 0.883487
0.961554 0.199276 0.883494
0.9615 0.197013 0.883501
0.961446 0.194751 0.883508
0.961392 0.192488 0.883515
0.961338 0.190226 0.883522
0.964283 0.187858 0.882977
0.964229 0.18559 0.882984
0.964175 0.183322 0.882991
0.96412 0.181055 0.882998
0.964066 0.178787 0.883005
0.967011 0.176388 0.882461
0.966957 0.174115 0.882468
0.966902 0.171842 0.882475
0.966848 0.169569 0.882482
0.966793 0.167296 0.882489
0.966739 0.165023 0.882496
0.966685 0.16275 0.882503
0.96663 0.160477 0.88251
0.963578 0.158377 0.883069
0.963524 0.156109 0.883076
0.96347 0.153842 0.883083
0.963415 0.151574 0.88309
0.963361 0.149306 0.883097
0.963307 0.147038 0.883104
0.963253 0.144771 0.883111
0.963199 0.142503 0.883118
0.959843 0.370703 0.881777
0.95979 0.368449 0.881784
0.961741 0.366403 0.881419
0.961687 0.364145 0.881426
0.961633 0.361888 0.881433
0.964586 0.359926 0.880882
0.964532 0.357663 0.880889
0.964478 0.355401 0.880896
0.964424 0.353138 0.880903
0.96437 0.350876 0.88091
0.964315 0.348613 0.880917
0.964261 0.346351 0.880924
0.964207 0.344088 0.880931
0.964153 0.341826 0.880938
0.964099 0.339563 0.880945
0.964045 0.337301 0.880952
0.963991 0.335038 0.880959
0.963937 0.332776 0.880966
0.963883 0.330513 0.880973
0.963829 0.328251 0.88098
0.963774 0.325988 0.880987
0.96372 0.323726 0.880994
0.963666 0.321463 0.881001
0.960607 0.319001 0.881566
0.960553 0.316743 0.881573
0.958496 0.31436 0.881951
0.958442 0.312106 0.881958
0.958388 0.309852 0.881965
0.958335 0.307599 0.881972
0.955276 0.305176 0.882537
0.955223 0.302928 0.882544
0.955169 0.300679 0.882551
0.955115 0.298431 0.882558
0.955061 0.296182 0.882565
0.952004 0.293792 0.883129
0.951951 0.291548 0.883136
0.951897 0.289305 0.883143
0.951843 0.287062 0.88315
0.95179 0.284819 0.883156
0.951736 0.282576 0.883163
0.951682 0.280332 0.88317
0.951629 0.278089 0.883177
0.951575 0.275846 0.883184
0.951521 0.273603 0.883191
0.951468 0.271359 0.883198
0.954416 0.269201 0.882648
0.954362 0.266952 0.882655
0.954309 0.264704 0.882662
0.954255 0.262455 0.882669
0.954201 0.260207 0.882676
0.954147 0.257958 0.882683
0.957095 0.255763 0.882133
0.957041 0.253509 0.88214
0.956987 0.251255 0.882147
0.956933 0.249002 0.882154
0.95688 0.246748 0.882161
0.958826 0.244512 0.881797
0.958772 0.242255 0.881804
0.958718 0.239997 0.881811
0.958664 0.23774 0.881818
0.95861 0.235483 0.881825
0.958556 0.233226 0.881832
0.958502 0.230968 0.881839
0.958448 0.228711 0.881846
0.958394 0.226454 0.881853
0.95834 0.224197 0.88186
0.958286 0.221939 0.881867
0.958232 0.219682 0.881874
0.958178 0.217425 0.881881
0.958124 0.215168 0.881888
0.958071 0.21291 0.881895
0.958017 0.210653 0.881902
0.957963 0.208396 0.881909
0.957909 0.206139 0.881916
0.957855 0.203881 0.881923
0.960799 0.201551 0.881373
0.960745 0.199288 0.88138
0.960691 0.197026 0.881387
0.960637 0.194763 0.881394
0.960583 0.192501 0.881401
0.960529 0.190238 0.881408
0.963472 0.187871 0.880859
0.963418 0.185603 0.880866
0.963364 0.183335 0.880873
0.963309 0.181068 0.88088
0.963255 0.1788 0.880887
0.966198 0.176401 0.880338
0.966144 0.174128 0.880345
0.966089 0.171855 0.880352
0.966035 0.169582 0.880359
0.965981 0.167309 0.880366
0.965926 0.165036 0.880373
0.965872 0.162763 0.88038
0.965818 0.16049 0.880387
0.962767 0.15839 0.88095
0.962713 0.156122 0.880957
0.962659 0.153854 0.880964
0.962605 0.151587 0.880971
0.96255 0.149319 0.880978
0.962496 0.147051 0.880985
0.962442 0.144783 0.880992
0.962388 0.142516 0.880999
0.959037 0.370716 0.879671
0.958984 0.368462 0.879678
0.960933 0.366415 0.87931
0.960879 0.364158 0.879317
0.960825 0.361901 0.879324
0.960771 0.359644 0.879331
0.960718 0.357386 0.879338
0.960664 0.355129 0.879345
0.963615 0.353151 0.87879
0.96356 0.350889 0.878797
0.963506 0.348626 0.878804
0.963452 0.346364 0.878811
0.963398 0.344101 0.878818
0.963344 0.341839 0.878825
0.96329 0.339576 0.878832
0.963236 0.337314 0.878839
0.963182 0.335051 0.878846
0.963128 0.332789 0.878853
0.963074 0.330526 0.87886
0.963019 0.328264 0.878867
0.962965 0.326001 0.878874
0.962911 0.323739 0.878881
0.962857 0.321476 0.878888
0.962803 0.319214 0.878895
0.962749 0.316951 0.878902
0.959692 0.314499 0.879471
0.959638 0.312242 0.879478
0.959584 0.309984 0.879485
0.957529 0.307611 0.879867
0.957475 0.305358 0.879874
0.957421 0.303104 0.879881
0.954365 0.300692 0.88045
0.954311 0.298444 0.880457
0.954257 0.296195 0.880464
0.954204 0.293947 0.880471
0.95415 0.291698 0.880478
0.954096 0.28945 0.880485
0.954042 0.287201 0.880492
0.953988 0.284953 0.880499
0.950934 0.282588 0.881068
0.95088 0.280345 0.881075
0.950827 0.278102 0.881082
0.950773 0.275859 0.881089
0.950719 0.273615 0.881096
0.950666 0.271372 0.881103
0.953612 0.269213 0.880548
0.953558 0.266965 0.880555
0.953505 0.264716 0.880562
0.953451 0.262468 0.880569
0.956397 0.260283 0.880014
0.956343 0.258029 0.880021
0.956289 0.255775 0.880028
0.956235 0.253522 0.880035
0.956181 0.251268 0.880042
0.956127 0.249014 0.880049
0.956074 0.246761 0.880056
0.958019 0.244525 0.879688
0.957965 0.242267 0.879695
0.957911 0.24001 0.879702
0.957857 0.237753 0.879709
0.957803 0.235496 0.879716
0.960747 0.233239 0.879161
0.960693 0.230976 0.879168
0.960639 0.228714 0.879175
0.960585 0.226451 0.879182
0.960531 0.224189 0.879189
0.960477 0.221926 0.879196
0.960423 0.219664 0.879203
0.960369 0.217401 0.87921
0.960315 0.215139 0.879217
0.96026 0.212876 0.879225
0.960206 0.210614 0.879232
0.960152 0.208351 0.879239
0.960098 0.206089 0.879246
0.960044 0.203826 0.879253
0.95999 0.201564 0.87926
0.959936 0.199301 0.879267
0.959882 0.197039 0.879274
0.959828 0.194776 0.879281
0.959774 0.192514 0.879288
0.962715 0.190151 0.878733
0.962661 0.187884 0.87874
0.962607 0.185616 0.878747
0.962553 0.183348 0.878754
0.965494 0.18096 0.8782
0.965439 0.178687 0.878207
0.965385 0.176414 0.878214
0.965331 0.174141 0.878221
0.965276 0.171868 0.878228
0.965222 0.169595 0.878235
0.965168 0.167321 0.878242
0.965113 0.165048 0.878249
0.965059 0.162775 0.878256
0.965005 0.160502 0.878263
0.96495 0.158229 0.878271
0.964896 0.155956 0.878278
0.964842 0.153683 0.878285
0.964787 0.15141 0.878292
0.964733 0.149137 0.878299
0.964679 0.146864 0.878306
0.964624 0.144591 0.878313
0.96457 0.142318 0.87832
0.958231 0.370729 0.877566
0.958178 0.368475 0.877573
0.960126 0.366428 0.877202
0.960072 0.364171 0.877209
0.960018 0.361914 0.877216
0.959964 0.359657 0.877223
0.95991 0.357399 0.87723
0.959856 0.355142 0.877237
0.962805 0.353164 0.876676
0.962751 0.350901 0.876683
0.962697 0.348639 0.87669
0.962643 0.346376 0.876697
0.962589 0.344114 0.876704
0.962535 0.341851 0.876711
0.962481 0.339589 0.876718
0.962427 0.337326 0.876725
0.962373 0.335064 0.876732
0.962319 0.332801 0.876739
0.962264 0.330539 0.876746
0.96221 0.328276 0.876753
0.962156 0.326014 0.87676
0.962102 0.323751 0.876767
0.962048 0.321489 0.876774
0.961994 0.319226 0.876781
0.96194 0.316964 0.876788
0.961886 0.314701 0.876795
0.958831 0.312254 0.87737
0.958777 0.309997 0.877377
0.956723 0.307624 0.877762
0.956669 0.30537 0.877769
0.956615 0.303117 0.877776
0.956561 0.300863 0.877783
0.956507 0.298609 0.87779
0.953453 0.296208 0.878364
0.953399 0.293959 0.878371
0.953346 0.291711 0.878378
0.953292 0.289462 0.878385
0.953238 0.287214 0.878392
0.953184 0.284965 0.878398
0.950132 0.282601 0.878972
0.950078 0.280358 0.878979
0.950024 0.278114 0.878986
0.949971 0.275871 0.878993
0.949917 0.273628 0.879
0.949863 0.271385 0.879007
0.952808 0.269226 0.878447
0.952754 0.266978 0.878454
0.952701 0.264729 0.878461
0.952647 0.262481 0.878468
0.955591 0.260296 0.877908
0.955537 0.258042 0.877915
0.955483 0.255788 0.877922
0.955429 0.253535 0.877929
0.955375 0.251281 0.877936
0.95732 0.249052 0.877565
0.957266 0.246795 0.877572
0.957212 0.244537 0.877579
0.957158 0.24228 0.877586
0.957104 0.240023 0.877593
0.95705 0.237766 0.8776
0.956996 0.235508 0.877607
0.959938 0.233251 0.877048
0.959884 0.230989 0.877055
0.95983 0.228726 0.877062
0.959776 0.226464 0.877069
0.959722 0.224201 0.877076
0.959668 0.221939 0.877083
0.959614 0.219676 0.87709
0.95956 0.217414 0.877097
0.959505 0.215151 0.877104
0.959451 0.212889 0.877111
0.959397 0.210626 0.877118
0.959343 0.208364 0.877125
0.959289 0.206101 0.877132
0.959235 0.203839 0.877139
0.959181 0.201576 0.877146
0.959127 0.199314 0.877153
0.959073 0.197051 0.87716
0.959019 0.194789 0.877167
0.958964 0.192526 0.877174
0.961904 0.190164 0.876615
0.96185 0.187896 0.876622
0.961796 0.185629 0.876629
0.961742 0.183361 0.876636
0.964681 0.180972 0.876077
0.964627 0.178699 0.876084
0.964572 0.176426 0.876091
0.964518 0.174153 0.876098
0.964464 0.17188 0.876105
0.964409 0.169607 0.876112
0.964355 0.167334 0.876119
0.964301 0.165061 0.876126
0.964246 0.162788 0.876133
0.964192 0.160515 0.87614
0.964137 0.158242 0.876147
0.964083 0.155969 0.876154
0.964029 0.153696 0.876161
0.963974 0.151423 0.876168
0.96392 0.14915 0.876175
0.963866 0.146877 0.876182
0.963811 0.144604 0.876189
0.963757 0.142331 0.876196
0.957425 0.370741 0.875461
0.957372 0.368488 0.875468
0.957318 0.366234 0.875475
0.957264 0.36398 0.875482
0.959211 0.361926 0.875107
0.959157 0.359669 0.875114
0.959103 0.357412 0.875121
0.959049 0.355155 0.875128
0.958995 0.352898 0.875135
0.958941 0.35064 0.875142
0.958887 0.348383 0.875149
0.958833 0.346126 0.875156
0.958779 0.343869 0.875163
0.958725 0.341611 0.87517
0.958671 0.339354 0.875177
0.958617 0.337097 0.875184
0.961564 0.335077 0.874619
0.961509 0.332814 0.874626
0.961455 0.330552 0.874633
0.961401 0.328289 0.87464
0.961347 0.326027 0.874647
0.961293 0.323764 0.874654
0.961239 0.321502 0.874661
0.961185 0.319239 0.874668
0.961131 0.316977 0.874675
0.958078 0.314524 0.875254
0.958024 0.312267 0.875261
0.95797 0.31001 0.875268
0.955917 0.307637 0.875656
0.955863 0.305383 0.875663
0.955809 0.303129 0.87567
0.955755 0.300876 0.875677
0.955701 0.298622 0.875684
0.952649 0.29622 0.876263
0.952595 0.293972 0.87627
0.952542 0.291724 0.876277
0.952488 0.289475 0.876284
0.952434 0.287227 0.876291
0.95238 0.284978 0.876298
0.949329 0.282614 0.876877
0.949276 0.28037 0.876884
0.949222 0.278127 0.876891
0.949168 0.275884 0.876898
0.949115 0.273641 0.876905
0.949061 0.271398 0.876912
0.952004 0.269239 0.876347
0.95195 0.26699 0.876354
0.951896 0.264742 0.876361
0.951843 0.262493 0.876368
0.954785 0.260308 0.875803
0.954731 0.258055 0.87581
0.954677 0.255801 0.875817
0.954623 0.253547 0.875824
0.954569 0.251294 0.875831
0.956512 0.249065 0.875457
0.956458 0.246807 0.875464
0.9594 0.244577 0.874899
0.959345 0.242314 0.874906
0.959291 0.240052 0.874913
0.959237 0.237789 0.87492
0.959183 0.235527 0.874927
0.959129 0.233264 0.874934
0.959075 0.231002 0.874941
0.959021 0.228739 0.874948
0.958967 0.226477 0.874955
0.958913 0.224214 0.874962
0.958859 0.221952 0.874969
0.958805 0.219689 0.874976
0.95875 0.217427 0.874983
0.958696 0.215164 0.87499
0.958642 0.212902 0.874997
0.958588 0.210639 0.875004
0.958534 0.208377 0.875011
0.95848 0.206114 0.875018
0.958426 0.203852 0.875025
0.958372 0.201589 0.875032
0.958318 0.199327 0.875039
0.958264 0.197064 0.875047
0.958209 0.194802 0.875054
0.958155 0.192539 0.875061
0.961093 0.190177 0.874496
0.961039 0.187909 0.874503
0.960985 0.185642 0.87451
0.960931 0.183374 0.874517
0.963868 0.180985 0.873953
0.963814 0.178712 0.87396
0.963759 0.176439 0.873967
0.963705 0.174166 0.873974
0.963651 0.171893 0.873982
0.963596 0.16962 0.873989
0.963542 0.167347 0.873996
0.963488 0.165074 0.874003
0.963433 0.162801 0.87401
0.963379 0.160528 0.874017
0.963325 0.158255 0.874024
0.96327 0.155982 0.874031
0.963216 0.153709 0.874038
0.963162 0.151436 0.874045
0.963107 0.149163 0.874052
0.963053 0.14689 0.874059
0.962998 0.144617 0.874066
0.962944 0.142344 0.874073
0.95662 0.370754 0.873355
0.956566 0.3685 0.873362
0.956512 0.366247 0.873369
0.956458 0.363993 0.873376
0.958404 0.361939 0.872998
0.95835 0.359682 0.873005
0.958296 0.357425 0.873012
0.958242 0.355168 0.873019
0.958188 0.35291 0.873026
0.958134 0.350653 0.873033
0.95808 0.348396 0.87304
0.958026 0.346139 0.873047
0.957972 0.343881 0.873054
0.957918 0.341624 0.873061
0.957864 0.339367 0.873068
0.95781 0.33711 0.873075
0.960754 0.33509 0.872505
0.9607 0.332827 0.872512
0.960646 0.330565 0.872519
0.960592 0.328302 0.872526
0.960538 0.32604 0.872533
0.960484 0.323777 0.87254
0.96043 0.321515 0.872547
0.960376 0.319252 0.872554
0.960322 0.31699 0.872561
0.95727 0.314537 0.873145
0.957216 0.31228 0.873152
0.957162 0.310023 0.873159
0.957108 0.307766 0.873166
0.955057 0.305396 0.873558
0.955003 0.303142 0.873565
0.954949 0.300888 0.873572
0.954895 0.298635 0.873579
0.951845 0.296233 0.874163
0.951791 0.293985 0.87417
0.951738 0.291736 0.874177
0.951684 0.289488 0.874184
0.95163 0.287239 0.874191
0.951576 0.284991 0.874198
0.948527 0.282626 0.874781
0.948474 0.280383 0.874788
0.94842 0.27814 0.874795
0.948366 0.275897 0.874802
0.948313 0.273653 0.874809
0.948259 0.27141 0.874816
0.9512 0.269252 0.874246
0.951146 0.267003 0.874253
0.951092 0.264755 0.87426
0.951039 0.262506 0.874267
0.953979 0.260321 0.873698
0.953925 0.258067 0.873705
0.953871 0.255814 0.873712
0.953817 0.25356 0.873719
