ply
format ascii 1.0
comment Created by Open3D
element vertex 1794
property double x
property double y
property double z
end_header
0.935238 0.513681 0.746628
0.935184 0.511388 0.746635
0.935129 0.509096 0.746642
0.935074 0.506804 0.746649
0.935019 0.504511 0.746656
0.934964 0.502219 0.746663
0.93491 0.499927 0.746671
0.934855 0.497634 0.746678
0.9348 0.495342 0.746685
0.934745 0.49305 0.746692
0.93469 0.490757 0.746699
0.931736 0.487879 0.747564
0.931681 0.485592 0.747572
0.931627 0.483305 0.747579
0.931572 0.481018 0.747586
0.931517 0.478731 0.747593
0.928564 0.475884 0.748458
0.928509 0.473602 0.748465
0.928455 0.47132 0.748472
0.925502 0.468495 0.749338
0.925448 0.466218 0.749345
0.923461 0.463586 0.749924
0.923407 0.461313 0.749931
0.923352 0.45904 0.749938
0.9204 0.456249 0.750803
0.917449 0.453469 0.751669
0.917394 0.451206 0.751676
0.91734 0.448944 0.751683
0.914389 0.446185 0.752548
0.914335 0.443928 0.752555
0.914281 0.44167 0.752562
0.914227 0.439413 0.752569
0.914173 0.437156 0.752576
0.917016 0.435369 0.751725
0.916962 0.433106 0.751732
0.916908 0.430844 0.751739
0.91975 0.429036 0.750888
0.922592 0.427217 0.750037
0.922537 0.424944 0.750044
0.924413 0.422964 0.749479
0.927255 0.421121 0.748628
0.9272 0.418839 0.748635
0.930041 0.41698 0.747784
0.929986 0.414693 0.747791
0.932827 0.412819 0.746941
0.934702 0.410798 0.746376
0.934647 0.408502 0.746383
0.937487 0.406603 0.745532
0.937432 0.404302 0.745539
0.937377 0.402001 0.745546
0.937322 0.3997 0.745554
0.937267 0.397399 0.745561
0.937212 0.395097 0.745568
0.940051 0.393161 0.744717
0.939996 0.390855 0.744724
0.937047 0.388194 0.745589
0.936992 0.385893 0.745596
0.936937 0.383592 0.745603
0.936882 0.381291 0.745611
0.936827 0.37899 0.745618
0.936772 0.376689 0.745625
0.936717 0.374388 0.745632
0.936662 0.372087 0.745639
0.933714 0.369473 0.746504
0.933659 0.367177 0.746511
0.933604 0.364881 0.746518
0.933549 0.362586 0.746525
0.933494 0.36029 0.746532
0.933439 0.357994 0.746539
0.933384 0.355698 0.746547
0.93333 0.353402 0.746554
0.933275 0.351106 0.746561
0.936111 0.349076 0.74571
0.936056 0.346775 0.745718
0.936001 0.344474 0.745725
0.935946 0.342172 0.745732
0.935891 0.339871 0.745739
0.935836 0.33757 0.745746
0.935781 0.335269 0.745753
0.935726 0.332968 0.74576
0.935671 0.330667 0.745768
0.935616 0.328366 0.745775
0.935561 0.326065 0.745782
0.935506 0.323764 0.745789
0.935451 0.321463 0.745796
0.932506 0.318965 0.74666
0.932451 0.316669 0.746668
0.932396 0.314373 0.746675
0.932341 0.312077 0.746682
0.932287 0.309782 0.746689
0.932232 0.307486 0.746696
0.932177 0.30519 0.746703
0.932122 0.302894 0.74671
0.932067 0.300598 0.746717
0.932012 0.298302 0.746724
0.930031 0.295911 0.747303
0.927088 0.293479 0.748167
0.927033 0.291192 0.748174
0.926979 0.288905 0.748181
0.926924 0.286618 0.748188
0.926869 0.284331 0.748195
0.926814 0.282044 0.748202
0.92676 0.279757 0.74821
0.923817 0.277368 0.749074
0.923763 0.275086 0.749081
0.923708 0.272804 0.749088
0.923654 0.270523 0.749095
0.923599 0.268241 0.749102
0.923545 0.265959 0.749109
0.92349 0.263677 0.749116
0.923435 0.261395 0.749123
0.923381 0.259114 0.74913
0.923326 0.256832 0.749137
0.923272 0.25455 0.749144
0.923217 0.252268 0.749151
0.923163 0.249986 0.749158
0.923108 0.247705 0.749165
0.923053 0.245423 0.749173
0.922999 0.243141 0.74918
0.922944 0.240859 0.749187
0.92289 0.238578 0.749194
0.922835 0.236296 0.749201
0.922781 0.234014 0.749208
0.925611 0.231729 0.748358
0.925557 0.229442 0.748365
0.925502 0.227155 0.748373
0.928332 0.224849 0.747523
0.928277 0.222556 0.74753
0.928223 0.220264 0.747537
0.930091 0.217949 0.746973
0.930036 0.215653 0.746981
0.932865 0.213312 0.746131
0.935694 0.21096 0.745282
0.935639 0.208654 0.745289
0.938468 0.206286 0.74444
0.941296 0.203908 0.743591
0.941241 0.201591 0.743598
0.943108 0.199223 0.743034
0.943052 0.196903 0.743041
0.942997 0.194583 0.743049
0.945824 0.19217 0.742199
0.945769 0.189844 0.742207
0.945713 0.187518 0.742214
0.94854 0.185084 0.741365
0.948485 0.182753 0.741372
0.948429 0.180422 0.741379
0.948373 0.178092 0.741386
0.948317 0.175761 0.741394
0.948262 0.17343 0.741401
0.948206 0.171099 0.741408
0.945268 0.168913 0.742272
0.945213 0.166588 0.742279
0.945157 0.164262 0.742286
0.94222 0.162097 0.743149
0.942165 0.159777 0.743156
0.942109 0.157457 0.743164
0.942054 0.155136 0.743171
0.940077 0.152937 0.743749
0.936173 0.587048 0.744259
0.936118 0.584755 0.744266
0.936063 0.582463 0.744273
0.936008 0.580171 0.74428
0.935953 0.577878 0.744288
0.935899 0.575586 0.744295
0.935844 0.573294 0.744302
0.935789 0.571002 0.744309
0.935734 0.568709 0.744316
0.935679 0.566417 0.744323
0.935625 0.564125 0.74433
0.93557 0.561832 0.744337
0.935515 0.55954 0.744344
0.93546 0.557248 0.744352
0.935405 0.554955 0.744359
0.93535 0.552663 0.744366
0.935296 0.550371 0.744373
0.935241 0.548078 0.74438
0.935186 0.545786 0.744387
0.935131 0.543494 0.744394
0.935076 0.541201 0.744401
0.935022 0.538909 0.744408
0.934967 0.536617 0.744415
0.934912 0.534324 0.744423
0.934857 0.532032 0.74443
0.934802 0.52974 0.744437
0.934748 0.527447 0.744444
0.934693 0.525155 0.744451
0.934638 0.522863 0.744458
0.934583 0.520571 0.744465
0.934528 0.518278 0.744472
0.934473 0.515986 0.744479
0.934419 0.513694 0.744487
0.934364 0.511401 0.744494
0.934309 0.509109 0.744501
0.934254 0.506817 0.744508
0.934199 0.504524 0.744515
0.934145 0.502232 0.744522
0.93409 0.49994 0.744529
0.934035 0.497647 0.744536
0.93398 0.495355 0.744543
0.933925 0.493063 0.74455
0.933871 0.49077 0.744558
0.933816 0.488478 0.744565
0.933761 0.486186 0.744572
0.930809 0.483318 0.745442
0.930754 0.481031 0.745449
0.9307 0.478744 0.745456
0.930645 0.476457 0.745463
0.927693 0.473615 0.746334
0.927639 0.471333 0.746341
0.924688 0.468507 0.747211
0.924633 0.466231 0.747218
0.922648 0.463599 0.747801
0.922594 0.461326 0.747808
0.92254 0.459053 0.747815
0.919589 0.456262 0.748685
0.919535 0.453994 0.748692
0.919481 0.451726 0.748699
0.916531 0.448957 0.749569
0.916477 0.446694 0.749576
0.916423 0.444432 0.749583
0.916369 0.442169 0.74959
0.916315 0.439907 0.749597
0.916261 0.437644 0.749604
0.916207 0.435382 0.749611
0.919047 0.433584 0.748755
0.918993 0.431317 0.748762
0.921833 0.429503 0.747906
0.921779 0.42723 0.747913
0.921724 0.424957 0.74792
0.926493 0.423416 0.746489
0.926439 0.421134 0.746496
0.926384 0.418852 0.746503
0.929223 0.416993 0.745648
0.929168 0.414706 0.745655
0.932007 0.412832 0.744799
0.933881 0.410811 0.744231
0.933826 0.408515 0.744238
0.936664 0.406616 0.743383
0.936609 0.404315 0.74339
0.936554 0.402014 0.743397
0.936499 0.399713 0.743404
0.936444 0.397412 0.743411
0.936389 0.39511 0.743418
0.939226 0.393175 0.742563
0.939171 0.390868 0.74257
0.936224 0.388207 0.74344
0.936169 0.385906 0.743447
0.936114 0.383605 0.743454
0.936059 0.381304 0.743461
0.936004 0.379003 0.743468
0.935949 0.376702 0.743475
0.935894 0.374401 0.743482
0.935839 0.3721 0.74349
0.932893 0.369486 0.744359
0.932838 0.36719 0.744366
0.932783 0.364894 0.744373
0.932728 0.362599 0.744381
0.932673 0.360303 0.744388
0.932618 0.358007 0.744395
0.932563 0.355711 0.744402
0.932509 0.353415 0.744409
0.932454 0.351119 0.744416
0.935289 0.349089 0.743561
0.935234 0.346788 0.743568
0.935178 0.344487 0.743575
0.935123 0.342186 0.743582
0.935068 0.339884 0.743589
0.935013 0.337583 0.743597
0.934958 0.335282 0.743604
0.934903 0.332981 0.743611
0.934848 0.33068 0.743618
0.934793 0.328379 0.743625
0.934738 0.326078 0.743632
0.934683 0.323777 0.743639
0.934628 0.321476 0.743646
0.931685 0.318978 0.744516
0.93163 0.316682 0.744523
0.931575 0.314386 0.74453
0.93152 0.31209 0.744537
0.931466 0.309795 0.744544
0.931411 0.307499 0.744551
0.931356 0.305203 0.744558
0.931301 0.302907 0.744566
0.931246 0.300611 0.744573
0.931191 0.298315 0.74458
0.929212 0.295924 0.745162
0.92627 0.293492 0.746031
0.926215 0.291205 0.746038
0.926161 0.288918 0.746045
0.926106 0.286631 0.746052
0.926051 0.284344 0.746059
0.925997 0.282057 0.746066
0.925942 0.27977 0.746073
0.923001 0.277381 0.746942
0.922947 0.275099 0.746949
0.922892 0.272817 0.746956
0.922838 0.270536 0.746963
0.922783 0.268254 0.74697
0.922729 0.265972 0.746977
0.922674 0.26369 0.746984
0.922619 0.261408 0.746991
0.922565 0.259127 0.746999
0.92251 0.256845 0.747006
0.922456 0.254563 0.747013
0.922401 0.252281 0.74702
0.922347 0.249999 0.747027
0.922292 0.247718 0.747034
0.922237 0.245436 0.747041
0.922183 0.243154 0.747048
0.922128 0.240872 0.747055
0.922074 0.23859 0.747062
0.922019 0.236309 0.747069
0.921965 0.234027 0.747076
0.924794 0.231742 0.746222
0.924739 0.229455 0.746229
0.924684 0.227168 0.746236
0.927512 0.224862 0.745382
0.927458 0.222569 0.745389
0.927403 0.220277 0.745396
0.92927 0.217962 0.744829
0.929215 0.215666 0.744836
0.932042 0.213325 0.743982
0.93487 0.210973 0.743127
0.934814 0.208667 0.743135
0.937641 0.206299 0.74228
0.940468 0.203921 0.741426
0.940412 0.201605 0.741434
0.942278 0.199236 0.740867
0.942222 0.196916 0.740874
0.942167 0.194596 0.740881
0.944993 0.192183 0.740027
0.944937 0.189857 0.740034
0.944882 0.187531 0.740041
0.947707 0.185097 0.739187
0.947651 0.182766 0.739195
0.947595 0.180436 0.739202
0.94754 0.178105 0.739209
0.947484 0.175774 0.739216
0.947428 0.173443 0.739224
0.944492 0.171252 0.740092
0.944437 0.168926 0.740099
0.944381 0.166601 0.740106
0.944325 0.164275 0.740113
0.94139 0.16211 0.740982
0.941335 0.15979 0.740989
0.941279 0.15747 0.740996
0.941224 0.155149 0.741003
0.939249 0.15295 0.741584
0.935353 0.587061 0.742118
0.935298 0.584768 0.742125
0.935243 0.582476 0.742132
0.935188 0.580184 0.742139
0.935134 0.577891 0.742146
0.935079 0.575599 0.742153
0.935024 0.573307 0.74216
0.934969 0.571014 0.742168
0.934914 0.568722 0.742175
0.93486 0.56643 0.742182
0.934805 0.564137 0.742189
0.93475 0.561845 0.742196
0.934695 0.559553 0.742203
0.93464 0.557261 0.74221
0.934586 0.554968 0.742217
0.934531 0.552676 0.742224
0.934476 0.550384 0.742231
0.934421 0.548091 0.742239
0.934366 0.545799 0.742246
0.934311 0.543507 0.742253
0.934257 0.541214 0.74226
0.934202 0.538922 0.742267
0.934147 0.53663 0.742274
0.934092 0.534337 0.742281
0.934037 0.532045 0.742288
0.933983 0.529753 0.742295
0.933928 0.52746 0.742303
0.933873 0.525168 0.74231
0.933818 0.522876 0.742317
0.933763 0.520584 0.742324
0.933709 0.518291 0.742331
0.933654 0.515999 0.742338
0.933599 0.513707 0.742345
0.933544 0.511414 0.742352
0.933489 0.509122 0.742359
0.933434 0.50683 0.742366
0.93338 0.504537 0.742374
0.933325 0.502245 0.742381
0.93327 0.499953 0.742388
0.933215 0.49766 0.742395
0.93316 0.495368 0.742402
0.933106 0.493076 0.742409
0.933051 0.490783 0.742416
0.932996 0.488491 0.742423
0.932941 0.486199 0.74243
0.929991 0.483331 0.743306
0.929936 0.481044 0.743313
0.929882 0.478757 0.74332
0.929827 0.47647 0.743327
0.926877 0.473628 0.744202
0.926823 0.471346 0.744209
0.923874 0.46852 0.745084
0.923819 0.466244 0.745091
0.921835 0.463612 0.745677
0.921781 0.461339 0.745684
0.921727 0.459066 0.745691
0.918778 0.456275 0.746566
0.918724 0.454007 0.746573
0.91867 0.451739 0.74658
0.915722 0.448969 0.747455
0.915668 0.446707 0.747462
0.915614 0.444444 0.747469
0.91556 0.442182 0.747477
0.915506 0.439919 0.747484
0.915452 0.437657 0.747491
0.915398 0.435394 0.747498
0.918236 0.433597 0.746637
0.918182 0.431329 0.746644
0.92102 0.429516 0.745783
0.920966 0.427243 0.74579
0.920911 0.42497 0.745797
0.925677 0.423429 0.744358
0.925623 0.421147 0.744365
0.925568 0.418865 0.744372
0.928405 0.417006 0.743511
0.92835 0.414719 0.743518
0.931187 0.412845 0.742658
0.93306 0.410824 0.742086
0.933005 0.408528 0.742094
0.935841 0.406629 0.741233
0.935786 0.404328 0.74124
0.935731 0.402027 0.741247
0.935676 0.399726 0.741254
0.935621 0.397425 0.741262
0.935566 0.395123 0.741269
0.938401 0.393188 0.740408
0.935456 0.390521 0.741283
0.935401 0.38822 0.74129
0.935346 0.385919 0.741297
0.935291 0.383618 0.741304
0.935236 0.381317 0.741311
0.935181 0.379016 0.741319
0.935126 0.376715 0.741326
0.935071 0.374414 0.741333
0.932127 0.371795 0.742207
0.932072 0.369499 0.742214
0.932017 0.367203 0.742222
0.931962 0.364907 0.742229
0.931907 0.362612 0.742236
0.931852 0.360316 0.742243
0.931797 0.35802 0.74225
0.931742 0.355724 0.742257
0.931688 0.353428 0.742264
0.931633 0.351132 0.742271
0.934466 0.349102 0.741411
0.934411 0.346801 0.741418
0.934356 0.3445 0.741426
0.934301 0.342199 0.741433
0.934246 0.339897 0.74144
0.934191 0.337596 0.741447
0.934136 0.335295 0.741454
0.93408 0.332994 0.741461
0.934025 0.330693 0.741468
0.93397 0.328392 0.741475
0.933915 0.326091 0.741483
0.93386 0.32379 0.74149
0.933805 0.321489 0.741497
0.93375 0.319188 0.741504
0.933695 0.316887 0.741511
0.93364 0.314585 0.741518
0.933585 0.312284 0.741525
0.93353 0.309983 0.741533
0.933475 0.307682 0.74154
0.93342 0.305381 0.741547
0.93048 0.30292 0.742421
0.930425 0.300624 0.742428
0.93037 0.298328 0.742435
0.930315 0.296033 0.742442
0.928337 0.293644 0.743027
0.928282 0.291352 0.743034
0.928227 0.28906 0.743041
0.928173 0.286767 0.743049
0.925233 0.284357 0.743922
0.925179 0.28207 0.743929
0.925124 0.279783 0.743937
0.925069 0.277496 0.743944
0.925015 0.275209 0.743951
0.92496 0.272922 0.743958
0.924905 0.270635 0.743965
0.924851 0.268348 0.743972
0.924796 0.266061 0.743979
0.924741 0.263774 0.743986
0.924687 0.261487 0.743993
0.924632 0.259199 0.744
0.924577 0.256912 0.744007
0.924522 0.254625 0.744015
0.924468 0.252338 0.744022
0.924413 0.250051 0.744029
0.924358 0.247764 0.744036
0.924304 0.245477 0.744043
0.924249 0.24319 0.74405
0.924194 0.240903 0.744057
0.92414 0.238616 0.744064
0.924085 0.236329 0.744071
0.92403 0.234042 0.744078
0.926857 0.231752 0.743219
0.926802 0.229459 0.743226
0.926747 0.227167 0.743233
0.928613 0.224862 0.742663
0.928558 0.222566 0.74267
0.931384 0.220241 0.741811
0.93421 0.217905 0.740952
0.934155 0.215599 0.740959
0.9341 0.213292 0.740966
0.936925 0.210936 0.740107
0.93687 0.208624 0.740114
0.939695 0.206251 0.739255
0.939639 0.203935 0.739262
0.939584 0.201618 0.739269
0.941448 0.19925 0.738699
0.941393 0.196929 0.738706
0.944217 0.194522 0.737847
0.944161 0.192196 0.737854
0.944105 0.18987 0.737862
0.946929 0.187441 0.737003
0.946873 0.185111 0.73701
0.946817 0.18278 0.737017
0.946762 0.180449 0.737024
0.946706 0.178118 0.737032
0.94665 0.175787 0.737039
0.946595 0.173456 0.737046
0.943661 0.171265 0.737919
0.943605 0.168939 0.737926
0.943549 0.166614 0.737934
0.943494 0.164288 0.737941
0.94056 0.162124 0.738814
0.940505 0.159803 0.738821
0.940449 0.157483 0.738828
0.940394 0.155162 0.738836
0.93842 0.152963 0.73942
0.936466 0.587615 0.739394
0.936411 0.585319 0.739401
0.936356 0.583024 0.739408
0.934369 0.580197 0.739998
0.934314 0.577904 0.740005
0.934259 0.575612 0.740012
0.936136 0.57384 0.739437
0.936082 0.571544 0.739444
0.936027 0.569249 0.739451
0.935972 0.566953 0.739458
0.935917 0.564657 0.739465
0.935862 0.562361 0.739472
0.935807 0.560065 0.739479
0.935752 0.55777 0.739486
0.935697 0.555474 0.739493
0.935642 0.553178 0.739501
0.935587 0.550882 0.739508
0.935533 0.548586 0.739515
0.935478 0.54629 0.739522
0.933492 0.54352 0.740111
0.933437 0.541227 0.740118
0.933382 0.538935 0.740126
0.933327 0.536643 0.740133
0.933272 0.53435 0.74014
0.933218 0.532058 0.740147
0.933163 0.529766 0.740154
0.933108 0.527473 0.740161
0.933053 0.525181 0.740168
0.932998 0.522889 0.740175
0.932944 0.520596 0.740182
0.932889 0.518304 0.74019
0.932834 0.516012 0.740197
0.932779 0.51372 0.740204
0.932724 0.511427 0.740211
0.93267 0.509135 0.740218
0.932615 0.506843 0.740225
0.93256 0.50455 0.740232
0.932505 0.502258 0.740239
0.93245 0.499966 0.740246
0.932395 0.497673 0.740253
0.932341 0.495381 0.740261
0.932286 0.493089 0.740268
0.932231 0.490796 0.740275
0.932176 0.488504 0.740282
0.932121 0.486212 0.740289
0.929173 0.483344 0.741169
0.929118 0.481057 0.741176
0.929064 0.47877 0.741183
0.926116 0.475923 0.742064
0.926061 0.473641 0.742071
0.926007 0.471359 0.742078
0.92306 0.468533 0.742958
0.923005 0.466257 0.742965
0.921023 0.463624 0.743554
0.920968 0.461351 0.743561
0.920914 0.459078 0.743568
0.920859 0.456805 0.743575
0.917913 0.45402 0.744455
0.917859 0.451752 0.744462
0.917805 0.449484 0.744469
0.914859 0.44672 0.745349
0.914805 0.444457 0.745356
0.914751 0.442195 0.745363
0.914697 0.439932 0.74537
0.914643 0.43767 0.745377
0.914588 0.435407 0.745384
0.917425 0.43361 0.744518
0.917371 0.431342 0.744525
0.920207 0.429529 0.74366
0.92208 0.427556 0.743085
0.922025 0.425279 0.743092
0.924861 0.423441 0.742226
0.924807 0.42116 0.742233
0.924752 0.418878 0.74224
0.927587 0.417019 0.741375
0.927533 0.414732 0.741382
0.930367 0.412858 0.740516
0.932239 0.410837 0.739942
0.932184 0.408541 0.739949
0.935018 0.406642 0.739083
0.934963 0.404341 0.739091
0.934908 0.40204 0.739098
0.937742 0.40012 0.738232
0.937687 0.397813 0.738239
0.937632 0.395507 0.738247
0.937577 0.393201 0.738254
0.934633 0.390534 0.739133
0.934578 0.388233 0.73914
0.934523 0.385932 0.739148
0.934468 0.383631 0.739155
0.934413 0.38133 0.739162
0.934358 0.379029 0.739169
0.934303 0.376728 0.739176
0.934248 0.374427 0.739183
0.931306 0.371808 0.740063
0.931251 0.369512 0.74007
0.931196 0.367216 0.740077
0.931141 0.36492 0.740084
0.931086 0.362625 0.740091
0.931031 0.360329 0.740098
0.930976 0.358033 0.740105
0.930921 0.355737 0.740113
0.930866 0.353441 0.74012
0.930812 0.351145 0.740127
0.933643 0.349115 0.739262
0.933588 0.346814 0.739269
0.933533 0.344513 0.739276
0.933478 0.342212 0.739283
0.933423 0.33991 0.73929
0.933368 0.337609 0.739297
0.933313 0.335308 0.739305
0.933258 0.333007 0.739312
0.933203 0.330706 0.739319
0.933148 0.328405 0.739326
0.935977 0.326317 0.738461
0.935922 0.32401 0.738468
0.932982 0.321502 0.739347
0.932927 0.319201 0.739354
0.932872 0.3169 0.739362
0.932817 0.314599 0.739369
0.932762 0.312297 0.739376
0.932707 0.309996 0.739383
0.932652 0.307695 0.73939
0.932597 0.305394 0.739397
0.932542 0.303093 0.739404
0.929604 0.300637 0.740283
0.929549 0.298341 0.74029
0.929494 0.296046 0.740298
0.929439 0.29375 0.740305
0.929384 0.291454 0.740312
0.929329 0.289158 0.740319
0.929275 0.286862 0.740326
0.92922 0.284566 0.740333
0.929165 0.282271 0.74034
0.92911 0.279975 0.740347
0.929055 0.277679 0.740354
0.929 0.275383 0.740362
0.928945 0.273087 0.740369
0.92889 0.270792 0.740376
0.928835 0.268496 0.740383
0.92878 0.2662 0.74039
0.928726 0.263904 0.740397
0.928671 0.261608 0.740404
0.928616 0.259312 0.740411
0.928561 0.257017 0.740418
0.928506 0.254721 0.740426
0.926531 0.252395 0.741014
0.926476 0.250103 0.741021
0.926421 0.247811 0.741028
0.926366 0.245519 0.741035
0.926311 0.243226 0.741042
0.926257 0.240934 0.741049
0.926202 0.238642 0.741056
0.928067 0.236354 0.740483
0.928012 0.234058 0.74049
0.927957 0.231763 0.740497
0.927902 0.229467 0.740504
0.927847 0.227171 0.740511
0.930672 0.224856 0.739647
0.933496 0.222531 0.738783
0.933441 0.220225 0.73879
0.933385 0.217918 0.738797
0.93333 0.215612 0.738804
0.936154 0.21326 0.73794
0.938977 0.210898 0.737076
0.938921 0.208581 0.737083
0.938866 0.206265 0.737091
0.940729 0.203903 0.736517
0.940674 0.201583 0.736524
0.940618 0.199263 0.736531
0.940563 0.196942 0.736539
0.943385 0.194535 0.735675
0.946207 0.192116 0.734811
0.946151 0.189786 0.734818
0.946095 0.187455 0.734825
0.94604 0.185124 0.734832
0.945984 0.182793 0.73484
0.945928 0.180462 0.734847
0.945872 0.178131 0.734854
0.945817 0.1758 0.734861
0.945761 0.173469 0.734869
0.942829 0.171278 0.735747
0.942773 0.168953 0.735754
0.942718 0.166627 0.735761
0.942662 0.164301 0.735768
0.939731 0.162137 0.736646
0.939675 0.159816 0.736654
0.93962 0.157496 0.736661
0.939564 0.155176 0.736668
0.937592 0.152976 0.737256
0.935645 0.587628 0.737249
0.93559 0.585332 0.737256
0.935535 0.583037 0.737263
0.93548 0.580741 0.73727
0.935425 0.578445 0.737278
0.93537 0.576149 0.737285
0.938212 0.574634 0.736413
0.938157 0.572333 0.73642
0.938102 0.570032 0.736427
0.938047 0.567731 0.736435
0.935096 0.56467 0.73732
0.935041 0.562374 0.737327
0.934986 0.560078 0.737335
0.934931 0.557783 0.737342
0.934876 0.555487 0.737349
0.937717 0.553924 0.736477
0.934766 0.550895 0.737363
0.934712 0.548599 0.73737
0.934657 0.546303 0.737377
0.934602 0.544008 0.737384
0.934547 0.541712 0.737391
0.934492 0.539416 0.737399
0.932507 0.536656 0.737991
0.932453 0.534363 0.737998
0.932398 0.532071 0.738006
0.932343 0.529779 0.738013
0.932288 0.527486 0.73802
0.932233 0.525194 0.738027
0.932179 0.522902 0.738034
0.932124 0.520609 0.738041
0.932069 0.518317 0.738048
0.932014 0.516025 0.738055
0.931959 0.513732 0.738062
0.931905 0.51144 0.738069
0.93185 0.509148 0.738077
0.931795 0.506856 0.738084
0.93174 0.504563 0.738091
0.931685 0.502271 0.738098
0.93163 0.499979 0.738105
0.931576 0.497686 0.738112
0.931521 0.495394 0.738119
0.931466 0.493102 0.738126
0.931411 0.490809 0.738133
0.931356 0.488517 0.73814
0.931302 0.486225 0.738148
0.928355 0.483357 0.739033
0.928301 0.48107 0.73904
0.928246 0.478783 0.739047
0.9253 0.475936 0.739932
0.925245 0.473654 0.739939
0.925191 0.471372 0.739946
0.922246 0.468546 0.740831
0.922191 0.46627 0.740838
0.92021 0.463637 0.741431
0.920155 0.461364 0.741438
0.920101 0.459091 0.741445
0.920047 0.456818 0.741452
0.917102 0.454033 0.742337
0.917048 0.451765 0.742344
0.916994 0.449497 0.742351
0.91405 0.446733 0.743235
0.913996 0.44447 0.743242
0.913942 0.442208 0.743249
0.913888 0.439945 0.743256
0.913833 0.437683 0.743263
0.913779 0.43542 0.74327
0.916614 0.433623 0.7424
0.91656 0.431355 0.742407
0.919394 0.429542 0.741536
0.921266 0.427569 0.740958
0.921211 0.425292 0.740965
0.924045 0.423454 0.740095
0.923991 0.421173 0.740102
0.923936 0.418891 0.740109
0.926769 0.417032 0.739238
0.926715 0.414745 0.739245
0.929548 0.412871 0.738375
0.931418 0.41085 0.737797
0.931363 0.408554 0.737804
0.934195 0.406655 0.736934
0.93414 0.404354 0.736941
0.934085 0.402053 0.736948
0.93403 0.399752 0.736955
0.936862 0.397826 0.736085
0.936807 0.39552 0.736092
0.936752 0.393214 0.736099
0.93381 0.390547 0.736984
0.933755 0.388246 0.736991
0.9337 0.385945 0.736998
0.933645 0.383644 0.737005
0.93359 0.381343 0.737012
0.933535 0.379042 0.737019
0.93348 0.376741 0.737027
0.933425 0.37444 0.737034
0.930485 0.371821 0.737918
0.93043 0.369525 0.737925
0.930375 0.367229 0.737932
0.93032 0.364933 0.737939
0.930265 0.362637 0.737946
0.93021 0.360342 0.737954
0.930155 0.358046 0.737961
0.9301 0.35575 0.737968
0.930045 0.353454 0.737975
0.929991 0.351158 0.737982
0.929936 0.348863 0.737989
0.929881 0.346567 0.737996
0.93271 0.344526 0.737126
0.932655 0.342225 0.737134
0.9326 0.339923 0.737141
0.932545 0.337622 0.737148
0.93249 0.335321 0.737155
0.932435 0.33302 0.737162
0.93238 0.330719 0.737169
0.932325 0.328418 0.737176
0.93227 0.326117 0.737183
0.932215 0.323816 0.737191
0.93216 0.321515 0.737198
0.932105 0.319214 0.737205
0.93205 0.316913 0.737212
0.931995 0.314612 0.737219
0.931939 0.31231 0.737226
0.931884 0.310009 0.737233
0.931829 0.307708 0.737241
0.931774 0.305407 0.737248
0.931719 0.303106 0.737255
0.928783 0.30065 0.738139
0.928728 0.298354 0.738146
0.928673 0.296059 0.738153
0.928618 0.293763 0.73816
0.928563 0.291467 0.738167
0.928508 0.289171 0.738174
0.928454 0.286875 0.738181
0.928399 0.284579 0.738188
0.928344 0.282284 0.738196
0.928289 0.279988 0.738203
0.928234 0.277692 0.73821
0.928179 0.275396 0.738217
0.928124 0.2731 0.738224
0.928069 0.270805 0.738231
0.928014 0.268509 0.738238
0.927959 0.266213 0.738245
0.927905 0.263917 0.738252
0.92785 0.261621 0.73826
0.927795 0.259325 0.738267
0.92774 0.25703 0.738274
0.927685 0.254734 0.738281
0.925711 0.252408 0.738872
0.925656 0.250116 0.738879
0.925601 0.247824 0.738887
0.925546 0.245531 0.738894
0.925492 0.243239 0.738901
0.925437 0.240947 0.738908
0.925382 0.238655 0.738915
0.927246 0.236367 0.738338
0.927191 0.234071 0.738345
0.927136 0.231776 0.738352
0.927081 0.22948 0.738359
0.927026 0.227184 0.738366
0.929849 0.224869 0.737497
0.932671 0.222544 0.736628
0.932616 0.220238 0.736635
0.932561 0.217931 0.736643
0.932505 0.215625 0.73665
0.935327 0.213273 0.735781
0.938148 0.210911 0.734912
0.938093 0.208594 0.734919
0.938037 0.206278 0.734926
0.939899 0.203917 0.734349
0.939844 0.201596 0.734357
0.939789 0.199276 0.734364
0.939733 0.196955 0.734371
0.942553 0.194548 0.733502
0.942498 0.192222 0.733509
0.942442 0.189897 0.733517
0.945262 0.187468 0.732648
0.945206 0.185137 0.732655
0.942275 0.18292 0.733538
0.94222 0.180594 0.733545
0.942164 0.178268 0.733553
0.942108 0.175943 0.73356
0.942053 0.173617 0.733567
0.941997 0.171291 0.733574
0.941942 0.168966 0.733581
0.941886 0.16664 0.733589
0.94183 0.164314 0.733596
0.938901 0.16215 0.734479
0.938845 0.159829 0.734486
0.93879 0.157509 0.734493
0.938734 0.155189 0.7345
0.936763 0.15299 0.735091
0.934824 0.587641 0.735104
0.934769 0.585345 0.735112
0.934714 0.58305 0.735119
0.934659 0.580754 0.735126
0.934604 0.578458 0.735133
0.934549 0.576162 0.73514
0.937389 0.574647 0.734264
0.937334 0.572346 0.734271
0.937279 0.570045 0.734278
0.937224 0.567744 0.734285
0.934275 0.564683 0.735176
0.93422 0.562387 0.735183
0.934165 0.560091 0.73519
0.93411 0.557796 0.735197
0.934055 0.5555 0.735204
0.936894 0.553937 0.734328
0.933945 0.550908 0.735218
0.933891 0.548612 0.735225
0.933836 0.546316 0.735233
0.933781 0.544021 0.73524
0.933726 0.541725 0.735247
0.931743 0.538961 0.735843
0.931688 0.536669 0.73585
0.931633 0.534376 0.735857
0.931578 0.532084 0.735864
0.931523 0.529792 0.735871
0.931468 0.527499 0.735878
0.931414 0.525207 0.735885
0.931359 0.522915 0.735893
0.931304 0.520622 0.7359
0.931249 0.51833 0.735907
0.931194 0.516038 0.735914
0.93114 0.513745 0.735921
0.931085 0.511453 0.735928
0.93103 0.509161 0.735935
0.930975 0.506868 0.735942
0.93092 0.504576 0.735949
0.930866 0.502284 0.735956
0.930811 0.499992 0.735964
0.930756 0.497699 0.735971
0.930701 0.495407 0.735978
0.930646 0.493115 0.735985
0.930591 0.490822 0.735992
0.930537 0.48853 0.735999
0.930482 0.486238 0.736006
0.927537 0.48337 0.736896
0.927483 0.481083 0.736903
0.927428 0.478796 0.73691
0.924484 0.475948 0.7378
0.924429 0.473667 0.737807
0.924375 0.471385 0.737815
0.921431 0.468559 0.738704
0.919451 0.465923 0.7393
0.919397 0.46365 0.739307
0.919342 0.461377 0.739314
0.919288 0.459104 0.739321
0.916345 0.456313 0.740211
0.916291 0.454045 0.740218
0.916237 0.451778 0.740225
0.916183 0.44951 0.740232
0.913241 0.446745 0.741122
0.913187 0.444483 0.741129
0.913133 0.44222 0.741136
0.913078 0.439958 0.741143
0.913024 0.437695 0.74115
0.915857 0.435903 0.740274
0.91869 0.434101 0.739399
0.918636 0.431828 0.739406
0.918582 0.429555 0.739413
0.920452 0.427581 0.738831
0.920397 0.425305 0.738839
0.923229 0.423467 0.737963
0.923175 0.421185 0.73797
0.92312 0.418904 0.737977
0.925951 0.417045 0.737102
0.925897 0.414758 0.737109
0.928728 0.412884 0.736234
0.930597 0.410863 0.735652
0.930542 0.408567 0.73566
0.933372 0.406668 0.734784
0.933317 0.404367 0.734791
0.933262 0.402066 0.734798
0.933207 0.399765 0.734806
0.936037 0.397839 0.73393
0.935982 0.395533 0.733938
0.935927 0.393227 0.733945
0.935872 0.39092 0.733952
0.935817 0.388614 0.733959
0.935762 0.386308 0.733966
0.932822 0.383657 0.734856
0.932767 0.381356 0.734863
0.932712 0.379055 0.73487
0.929773 0.376425 0.735759
0.929719 0.37413 0.735766
0.929664 0.371834 0.735773
0.929609 0.369538 0.73578
0.929554 0.367242 0.735788
0.929499 0.364946 0.735795
0.929444 0.36265 0.735802
0.929389 0.360355 0.735809
0.929334 0.358059 0.735816
0.929279 0.355763 0.735823
0.929224 0.353467 0.73583
0.92917 0.351171 0.735837
0.929115 0.348876 0.735845
0.92906 0.34658 0.735852
0.929005 0.344284 0.735859
0.92895 0.341988 0.735866
0.928895 0.339692 0.735873
0.92884 0.337396 0.73588
0.928785 0.335101 0.735887
0.92873 0.332805 0.735894
0.928675 0.330509 0.735901
0.928621 0.328213 0.735909
0.931447 0.32613 0.735034
0.931392 0.323829 0.735041
0.931337 0.321528 0.735048
0.931282 0.319227 0.735055
0.931227 0.316926 0.735062
0.931172 0.314625 0.73507
0.931117 0.312323 0.735077
0.931062 0.310022 0.735084
0.931007 0.307721 0.735091
0.930952 0.30542 0.735098
0.930896 0.303119 0.735105
0.930841 0.300818 0.735112
0.930786 0.298517 0.735119
0.927852 0.296072 0.736008
0.927797 0.293776 0.736015
0.927742 0.29148 0.736022
0.927687 0.289184 0.73603
0.927632 0.286888 0.736037
0.927578 0.284592 0.736044
0.927523 0.282297 0.736051
0.927468 0.280001 0.736058
0.927413 0.277705 0.736065
0.927358 0.275409 0.736072
0.930181 0.273205 0.735198
0.930126 0.270904 0.735205
0.930071 0.268603 0.735212
0.930016 0.266302 0.735219
0.929961 0.264001 0.735226
0.929906 0.2617 0.735234
0.929851 0.259398 0.735241
0.929796 0.257097 0.735248
0.929741 0.254796 0.735255
0.929686 0.252495 0.735262
0.929631 0.250194 0.735269
0.929576 0.247893 0.735276
0.929521 0.245592 0.735283
0.929466 0.243291 0.735291
0.926535 0.240972 0.736179
0.92648 0.238676 0.736186
0.926425 0.23638 0.736193
0.92637 0.234084 0.7362
0.926315 0.231789 0.736207
0.929136 0.229484 0.735333
0.929081 0.227183 0.735341
0.929026 0.224882 0.735348
0.931846 0.222557 0.734474
0.931791 0.220251 0.734481
0.934611 0.21791 0.733607
0.934556 0.215598 0.733614
0.9345 0.213286 0.733621
0.93732 0.210924 0.732747
0.937264 0.208608 0.732755
0.937209 0.206291 0.732762
0.93907 0.20393 0.732182
0.939014 0.201609 0.732189
0.938959 0.199289 0.732196
0.938903 0.196969 0.732203
0.941722 0.194561 0.73133
0.941666 0.192235 0.731337
0.94161 0.18991 0.731344
0.944428 0.187481 0.73047
0.944372 0.18515 0.730478
0.941444 0.182933 0.731366
0.941388 0.180607 0.731373
0.941332 0.178281 0.73138
0.941277 0.175956 0.731387
0.941221 0.17363 0.731394
0.941166 0.171305 0.731402
0.94111 0.168979 0.731409
0.941054 0.166653 0.731416
0.940999 0.164328 0.731423
0.938071 0.162163 0.732311
0.938016 0.159843 0.732318
0.93796 0.157522 0.732326
0.937905 0.155202 0.732333
0.935935 0.153003 0.732927
0.934003 0.587654 0.73296
0.936841 0.586166 0.732078
0.933893 0.583063 0.732974
0.933838 0.580767 0.732981
0.933783 0.578471 0.732988
0.933728 0.576175 0.732995
0.936566 0.57466 0.732114
0.936511 0.572359 0.732121
0.936456 0.570058 0.732128
0.936401 0.567757 0.732135
0.936346 0.565456 0.732143
0.936291 0.563155 0.73215
0.936236 0.560854 0.732157
0.936181 0.558553 0.732164
0.936126 0.556252 0.732171
0.936071 0.55395 0.732178
0.936016 0.551649 0.732185
0.935961 0.549348 0.732192
0.935906 0.547047 0.7322
0.93296 0.544034 0.733095
0.932905 0.541738 0.733102
0.930923 0.538974 0.733701
0.930868 0.536682 0.733708
0.930813 0.534389 0.733716
0.930758 0.532097 0.733723
0.930704 0.529805 0.73373
0.930649 0.527512 0.733737
0.930594 0.52522 0.733744
0.930539 0.522928 0.733751
0.930484 0.520635 0.733758
0.930429 0.518343 0.733765
0.930375 0.516051 0.733772
0.93032 0.513758 0.73378
0.930265 0.511466 0.733787
0.93021 0.509174 0.733794
0.930155 0.506881 0.733801
0.930101 0.504589 0.733808
0.930046 0.502297 0.733815
0.929991 0.500005 0.733822
0.929936 0.497712 0.733829
0.929881 0.49542 0.733836
0.929827 0.493128 0.733843
0.929772 0.490835 0.733851
0.929717 0.488543 0.733858
0.929662 0.486251 0.733865
0.926719 0.483383 0.73476
0.926665 0.481095 0.734767
0.92661 0.478808 0.734774
0.923668 0.475961 0.735669
0.923613 0.47368 0.735676
0.923559 0.471398 0.735683
0.920617 0.468572 0.736578
0.918638 0.465936 0.737177
0.918584 0.463663 0.737184
0.91853 0.46139 0.737191
0.918475 0.459117 0.737198
0.915534 0.456326 0.738093
0.91548 0.454058 0.7381
0.915426 0.451791 0.738107
0.915372 0.449523 0.738114
0.912432 0.446758 0.739008
0.912378 0.444496 0.739015
0.912323 0.442233 0.739022
0.912269 0.439971 0.739029
0.912215 0.437708 0.739036
0.915046 0.435916 0.738156
0.917877 0.434114 0.737275
0.917823 0.431841 0.737282
0.917769 0.429568 0.737289
0.919637 0.427594 0.736705
0.919583 0.425318 0.736712
0.922413 0.42348 0.735832
0.925243 0.421632 0.734951
0.925188 0.419345 0.734958
0.928018 0.417481 0.734078
0.927963 0.415189 0.734085
0.927908 0.412896 0.734092
0.929776 0.410876 0.733508
0.929721 0.40858 0.733515
0.93255 0.406681 0.732635
0.932495 0.40438 0.732642
0.932439 0.402079 0.732649
0.932384 0.399778 0.732656
0.935212 0.397852 0.731776
0.935157 0.395546 0.731783
0.935102 0.39324 0.73179
0.935047 0.390933 0.731797
0.934992 0.388627 0.731805
0.934937 0.386321 0.731812
0.931999 0.38367 0.732706
0.931944 0.381369 0.732713
0.931889 0.379068 0.73272
0.928952 0.376438 0.733614
0.928897 0.374143 0.733622
0.928843 0.371847 0.733629
0.928788 0.369551 0.733636
0.928733 0.367255 0.733643
0.928678 0.364959 0.73365
0.928623 0.362663 0.733657
0.928568 0.360368 0.733664
0.928513 0.358072 0.733671
0.928458 0.355776 0.733679
0.928403 0.35348 0.733686
0.928349 0.351184 0.733693
0.928294 0.348889 0.7337
0.928239 0.346593 0.733707
0.928184 0.344297 0.733714
0.928129 0.342001 0.733721
0.928074 0.339705 0.733728
0.928019 0.337409 0.733735
0.927964 0.335114 0.733743
0.927909 0.332818 0.73375
0.927854 0.330522 0.733757
0.9278 0.328226 0.733764
0.930624 0.326143 0.732884
0.930569 0.323842 0.732891
0.930514 0.321541 0.732899
0.930459 0.31924 0.732906
0.930404 0.316939 0.732913
0.930349 0.314638 0.73292
0.930294 0.312336 0.732927
0.930239 0.310035 0.732934
0.930184 0.307734 0.732941
0.930129 0.305433 0.732948
0.930074 0.303132 0.732956
0.930019 0.300831 0.732963
0.929964 0.29853 0.73297
0.927031 0.296085 0.733864
0.926976 0.293789 0.733871
0.926921 0.291493 0.733878
0.926866 0.289197 0.733885
0.926811 0.286901 0.733892
0.926757 0.284605 0.733899
0.926702 0.28231 0.733906
0.926647 0.280014 0.733913
0.926592 0.277718 0.73392
0.929413 0.275519 0.733041
0.929358 0.273218 0.733048
0.929303 0.270917 0.733055
0.929248 0.268616 0.733063
0.932069 0.266391 0.732183
0.932014 0.264084 0.732191
0.931959 0.261778 0.732198
0.931904 0.259472 0.732205
0.931849 0.257165 0.732212
0.931793 0.254859 0.732219
0.928863 0.252508 0.733112
0.928808 0.250207 0.73312
0.928753 0.247906 0.733127
0.928698 0.245605 0.733134
0.928643 0.243304 0.733141
0.928588 0.241003 0.733148
0.925659 0.238689 0.734041
0.925604 0.236393 0.734049
0.925549 0.234097 0.734056
0.925494 0.231801 0.734063
0.928313 0.229497 0.733184
0.928258 0.227196 0.733191
0.928203 0.224895 0.733198
0.931021 0.22257 0.732319
0.930966 0.220264 0.732326
0.933784 0.217923 0.731448
0.933729 0.215611 0.731455
0.933674 0.2133 0.731462
0.936491 0.210938 0.730583
0.936436 0.208621 0.73059
0.93638 0.206304 0.730598
0.93824 0.203943 0.730014
0.938184 0.201622 0.730021
0.938129 0.199302 0.730029
0.938073 0.196982 0.730036
0.94089 0.194574 0.729157
0.940834 0.192248 0.729164
0.940779 0.189923 0.729171
0.940723 0.187597 0.729179
0.940667 0.185272 0.729186
0.940612 0.182946 0.729193
0.940556 0.18062 0.7292
0.940501 0.178295 0.729208
0.940445 0.175969 0.729215
0.940389 0.173643 0.729222
0.940334 0.171318 0.729229
0.940278 0.168992 0.729236
0.940223 0.166666 0.729244
0.940167 0.164341 0.729251
0.937241 0.162176 0.730144
0.937186 0.159856 0.730151
0.93713 0.157535 0.730158
0.937075 0.155215 0.730165
0.935106 0.153016 0.730763
0.933182 0.587667 0.730815
0.936018 0.586179 0.729929
0.933072 0.583076 0.730829
0.933017 0.58078 0.730836
0.932962 0.578484 0.730844
0.932907 0.576188 0.730851
0.935743 0.574673 0.729964
0.935688 0.572372 0.729972
0.935633 0.570071 0.729979
0.935578 0.56777 0.729986
0.935523 0.565469 0.729993
0.935468 0.563168 0.73
0.935413 0.560867 0.730007
0.935358 0.558566 0.730014
0.935303 0.556265 0.730021
0.935248 0.553963 0.730029
0.935193 0.551662 0.730036
0.935138 0.549361 0.730043
0.935083 0.54706 0.73005
0.932139 0.544047 0.73095
0.932084 0.541751 0.730957
0.930103 0.538987 0.73156
0.930048 0.536695 0.731567
0.929993 0.534402 0.731574
0.929939 0.53211 0.731581
0.929884 0.529818 0.731588
0.929829 0.527525 0.731596
0.929774 0.525233 0.731603
0.929719 0.522941 0.73161
0.926777 0.519988 0.73251
0.926722 0.517701 0.732517
0.926667 0.515414 0.732524
0.926612 0.513127 0.732531
0.926558 0.51084 0.732538
0.92939 0.509187 0.731652
0.929336 0.506894 0.731659
0.929281 0.504602 0.731667
0.929226 0.50231 0.731674
0.929171 0.500017 0.731681
0.929116 0.497725 0.731688
0.929062 0.495433 0.731695
0.929007 0.493141 0.731702
0.928952 0.490848 0.731709
0.928897 0.488556 0.731716
0.928842 0.486264 0.731723
0.925902 0.483395 0.732623
0.925847 0.481108 0.73263
0.925792 0.478821 0.732637
0.922852 0.475974 0.733537
0.922797 0.473693 0.733544
0.922743 0.471411 0.733551
0.919803 0.468585 0.734451
0.917825 0.465949 0.735053
0.917771 0.463676 0.73506
0.917717 0.461403 0.735067
0.917662 0.45913 0.735074
0.914723 0.456339 0.735974
0.914669 0.454071 0.735981
0.914615 0.451803 0.735988
0.914561 0.449536 0.735995
0.911623 0.446771 0.736895
0.911568 0.444508 0.736902
0.911514 0.442246 0.736909
0.91146 0.439983 0.736916
0.911406 0.437721 0.736923
0.914235 0.435929 0.736037
0.917064 0.434127 0.735152
0.91701 0.431854 0.735159
0.916956 0.429581 0.735166
0.918823 0.427607 0.734578
0.918769 0.425331 0.734585
0.921597 0.423493 0.7337
0.924425 0.421645 0.732815
0.92437 0.419358 0.732822
0.927198 0.417494 0.731937
0.927143 0.415202 0.731944
0.927088 0.412909 0.731951
0.928955 0.410889 0.731363
0.9289 0.408593 0.73137
0.931727 0.406694 0.730485
0.931672 0.404393 0.730492
0.931617 0.402092 0.730499
0.931562 0.399791 0.730506
0.934388 0.397865 0.729621
0.934333 0.395559 0.729629
0.934277 0.393253 0.729636
0.934222 0.390946 0.729643
0.934167 0.38864 0.72965
0.934112 0.386334 0.729657
0.931176 0.383683 0.730556
0.931121 0.381382 0.730564
0.931066 0.379081 0.730571
0.928131 0.376451 0.73147
0.928076 0.374156 0.731477
0.928022 0.37186 0.731484
0.927967 0.369564 0.731491
0.927912 0.367268 0.731498
0.927857 0.364972 0.731505
0.927802 0.362676 0.731512
0.927747 0.360381 0.73152
0.927692 0.358085 0.731527
0.927637 0.355789 0.731534
0.927582 0.353493 0.731541
0.927528 0.351197 0.731548
0.927473 0.348902 0.731555
0.927418 0.346606 0.731562
0.927363 0.34431 0.731569
0.927308 0.342014 0.731577
0.927253 0.339718 0.731584
0.927198 0.337422 0.731591
0.927143 0.335127 0.731598
0.927088 0.332831 0.731605
0.927033 0.330535 0.731612
0.926979 0.328239 0.731619
0.926924 0.325943 0.731626
0.926869 0.323647 0.731633
0.926814 0.321352 0.731641
0.926759 0.319056 0.731648
0.926704 0.31676 0.731655
0.926649 0.314464 0.731662
0.926594 0.312168 0.731669
0.926539 0.309872 0.731676
0.926484 0.307577 0.731683
0.92643 0.305281 0.73169
0.926375 0.302985 0.731697
0.92632 0.300689 0.731705
0.926265 0.298393 0.731712
0.92621 0.296098 0.731719
0.926155 0.293802 0.731726
0.9261 0.291506 0.731733
0.926045 0.28921 0.73174
0.92599 0.286914 0.731747
0.925936 0.284618 0.731754
0.925881 0.282323 0.731762
0.925826 0.280027 0.731769
0.925771 0.277731 0.731776
0.92859 0.275532 0.730892
0.928535 0.273231 0.730899
0.92848 0.27093 0.730906
0.928425 0.268629 0.730913
0.931244 0.266404 0.730029
0.931189 0.264097 0.730036
0.931134 0.261791 0.730043
0.931079 0.259485 0.73005
0.931024 0.257178 0.730057
0.930969 0.254872 0.730065
0.92804 0.252521 0.730963
0.927985 0.25022 0.73097
0.92793 0.247919 0.730977
0.927875 0.245618 0.730984
0.92782 0.243317 0.730991
0.927765 0.241016 0.730999
0.924838 0.238702 0.731897
0.924783 0.236406 0.731904
0.924728 0.23411 0.731911
0.927545 0.231811 0.731027
0.92749 0.22951 0.731034
0.927435 0.227209 0.731041
0.92738 0.224908 0.731048
0.930197 0.222583 0.730165
0.930141 0.220277 0.730172
0.932957 0.217936 0.729288
0.932902 0.215624 0.729295
0.932847 0.213313 0.729302
0.935663 0.210951 0.728419
0.935607 0.208634 0.728426
0.935552 0.206317 0.728433
0.93741 0.203956 0.727847
0.937355 0.201636 0.727854
0.937299 0.199315 0.727861
0.940114 0.196913 0.726977
0.940058 0.194587 0.726985
0.940003 0.192262 0.726992
0.939947 0.189936 0.726999
0.939891 0.18761 0.727006
0.939836 0.185285 0.727013
0.93978 0.182959 0.727021
0.939725 0.180633 0.727028
0.939669 0.178308 0.727035
0.939613 0.175982 0.727042
0.939558 0.173657 0.727049
0.939502 0.171331 0.727057
0.939447 0.169005 0.727064
0.939391 0.16668 0.727071
0.939335 0.164354 0.727078
0.936411 0.162189 0.727976
0.936356 0.159869 0.727983
0.9363 0.157548 0.72799
0.936245 0.155228 0.727998
0.934278 0.153029 0.728598
0.932361 0.58768 0.72867
0.935195 0.586192 0.727779
0.932251 0.583089 0.728685
0.932196 0.580793 0.728692
0.932141 0.578497 0.728699
0.932086 0.576201 0.728706
0.93492 0.574686 0.727815
0.934865 0.572385 0.727822
0.93481 0.570084 0.727829
0.934755 0.567783 0.727836
0.9347 0.565482 0.727843
0.934645 0.563181 0.72785
0.937478 0.561629 0.726959
0.934535 0.558579 0.727865
0.93448 0.556278 0.727872
0.934425 0.553976 0.727879
0.93437 0.551675 0.727886
0.934315 0.549374 0.727893
0.93426 0.547073 0.7279
0.934205 0.544772 0.727908
0.93415 0.542471 0.727915
0.931208 0.539468 0.72882
0.931153 0.537172 0.728827
0.931098 0.534876 0.728834
0.929119 0.532123 0.72944
0.929064 0.529831 0.729447
0.929009 0.527538 0.729454
0.928954 0.525246 0.729461
0.9289 0.522954 0.729468
0.925959 0.520001 0.730373
0.925904 0.517714 0.73038
0.925849 0.515427 0.730388
0.925795 0.51314 0.730395
0.92574 0.510853 0.730402
0.925685 0.508566 0.730409
0.925631 0.506279 0.730416
0.925576 0.503992 0.730423
0.925521 0.501705 0.73043
0.925467 0.499418 0.730437
0.925412 0.497131 0.730444
0.925357 0.494844 0.730451
0.925302 0.492557 0.730458
0.925248 0.49027 0.730466
0.925193 0.487983 0.730473
0.925138 0.485695 0.73048
0.9222 0.482833 0.731385
0.922145 0.480551 0.731392
0.922091 0.478269 0.731399
0.922036 0.475987 0.731406
0.919098 0.473151 0.73231
0.919043 0.470874 0.732317
0.918989 0.468598 0.732325
0.917013 0.465962 0.73293
0.916958 0.463689 0.732937
0.916904 0.461416 0.732944
0.916849 0.459143 0.732951
0.913912 0.456352 0.733856
0.913858 0.454084 0.733863
0.913804 0.451816 0.73387
0.910868 0.449046 0.734774
0.910813 0.446784 0.734781
0.910759 0.444521 0.734788
0.910705 0.442259 0.734795
0.910651 0.439996 0.734802
0.910597 0.437734 0.734809
0.913424 0.435942 0.733919
0.916252 0.434139 0.733029
0.916197 0.431866 0.733036
0.916143 0.429593 0.733043
0.918009 0.42762 0.732452
0.917955 0.425344 0.732459
0.920781 0.423506 0.731568
0.923607 0.421658 0.730678
0.923553 0.419371 0.730685
0.926378 0.417507 0.729795
0.926323 0.415215 0.729802
0.926269 0.412922 0.729809
0.928134 0.410902 0.729218
0.928079 0.408606 0.729225
0.930904 0.406707 0.728335
0.930849 0.404406 0.728343
0.930794 0.402105 0.72835
0.930739 0.399804 0.728357
0.933563 0.397879 0.727467
0.933508 0.395572 0.727474
0.933453 0.393266 0.727481
0.933397 0.390959 0.727488
0.933342 0.388653 0.727496
0.933287 0.386347 0.727503
0.930354 0.383696 0.728407
0.930298 0.381395 0.728414
0.930243 0.379094 0.728421
0.930188 0.376793 0.728428
0.930133 0.374492 0.728435
0.927201 0.371873 0.729339
0.927146 0.369577 0.729346
0.927091 0.367281 0.729354
0.927036 0.364985 0.729361
0.926981 0.362689 0.729368
0.926926 0.360394 0.729375
0.924953 0.357907 0.72998
0.924898 0.355615 0.729987
0.924843 0.353322 0.729994
0.924789 0.35103 0.730001
0.924734 0.348738 0.730008
0.924679 0.346445 0.730015
0.924624 0.344153 0.730023
0.924569 0.341861 0.73003
0.924515 0.339568 0.730037
0.92446 0.337276 0.730044
0.924405 0.334984 0.730051
0.921474 0.332463 0.730955
0.92142 0.330176 0.730962
0.921365 0.327889 0.730969
0.926103 0.325956 0.729482
0.926048 0.32366 0.729489
0.925993 0.321365 0.729496
0.925938 0.319069 0.729503
0.925883 0.316773 0.72951
0.925828 0.314477 0.729517
0.925773 0.312181 0.729524
0.925718 0.309885 0.729531
0.925663 0.30759 0.729539
0.925609 0.305294 0.729546
0.925554 0.302998 0.729553
0.925499 0.300702 0.72956
0.925444 0.298406 0.729567
0.925389 0.296111 0.729574
0.925334 0.293815 0.729581
0.925279 0.291519 0.729588
0.925224 0.289223 0.729596
0.925169 0.286927 0.729603
0.925115 0.284631 0.72961
0.92506 0.282336 0.729617
0.927878 0.280147 0.728728
0.927823 0.277846 0.728735
0.927768 0.275545 0.728742
0.927713 0.273244 0.728749
0.927657 0.270943 0.728756
0.930475 0.268723 0.727867
0.93042 0.266417 0.727874
0.930364 0.26411 0.727882
0.930309 0.261804 0.727889
0.930254 0.259498 0.727896
0.930199 0.257191 0.727903
0.930144 0.254885 0.72791
0.927217 0.252534 0.728813
0.927162 0.250233 0.72882
0.927107 0.247932 0.728828
0.927052 0.245631 0.728835
0.926997 0.24333 0.728842
0.926942 0.241029 0.728849
0.926887 0.238728 0.728856
0.926832 0.236427 0.728863
0.926777 0.234126 0.72887
0.926722 0.231824 0.728878
0.926667 0.229523 0.728885
0.926612 0.227222 0.728892
0.929427 0.224902 0.728003
0.929372 0.222596 0.72801
0.929317 0.22029 0.728017
0.932131 0.217949 0.727129
0.932076 0.215637 0.727136
0.934889 0.213281 0.726247
0.934834 0.210964 0.726254
0.934779 0.208647 0.726262
0.936636 0.206289 0.725672
0.93658 0.203969 0.725679
0.936525 0.201649 0.725686
0.936469 0.199328 0.725693
0.939282 0.196926 0.724805
0.939227 0.1946 0.724812
0.939171 0.192275 0.724819
0.939115 0.189949 0.724826
0.93906 0.187624 0.724834
0.939004 0.185298 0.724841
0.938948 0.182972 0.724848
0.938893 0.180647 0.724855
0.938837 0.178321 0.724862
0.938782 0.175995 0.72487
0.938726 0.17367 0.724877
0.93867 0.171344 0.724884
0.938615 0.169018 0.724891
0.938559 0.166693 0.724899
0.938504 0.164367 0.724906
0.935582 0.162202 0.725808
0.935526 0.159882 0.725816
0.935471 0.157562 0.725823
0.935415 0.155241 0.72583
0.933449 0.153042 0.726434
0.93154 0.587693 0.726526
0.934372 0.586205 0.72563
0.934317 0.583904 0.725637
0.934262 0.581603 0.725644
0.934207 0.579301 0.725651
0.934152 0.577 0.725658
0.934097 0.574699 0.725665
0.934042 0.572398 0.725672
0.933987 0.570097 0.725679
0.933932 0.567796 0.725687
0.933877 0.565495 0.725694
0.933822 0.563194 0.725701
0.936654 0.561642 0.724805
0.936598 0.559336 0.724812
0.936543 0.55703 0.724819
0.936488 0.554723 0.724826
0.933547 0.551688 0.725737
0.933492 0.549387 0.725744
0.933437 0.547086 0.725751
0.933382 0.544785 0.725758
0.933327 0.542484 0.725765
0.930387 0.539481 0.726675
0.930332 0.537185 0.726682
0.930277 0.534889 0.726689
0.928299 0.532136 0.727299
0.928244 0.529844 0.727306
0.928189 0.527551 0.727313
0.928135 0.525259 0.72732
0.92808 0.522967 0.727327
0.925141 0.520014 0.728237
0.925086 0.517727 0.728244
0.925031 0.51544 0.728251
0.924977 0.513153 0.728258
0.924922 0.510866 0.728265
0.924867 0.508579 0.728272
0.924813 0.506292 0.728279
0.924758 0.504005 0.728287
0.924703 0.501718 0.728294
0.924649 0.499431 0.728301
0.924594 0.497144 0.728308
0.924539 0.494857 0.728315
0.924485 0.49257 0.728322
0.92443 0.490282 0.728329
0.924375 0.487995 0.728336
0.92432 0.485708 0.728343
0.921384 0.482846 0.729253
0.921329 0.480564 0.72926
0.921275 0.478282 0.729267
0.92122 0.476 0.729274
0.918284 0.473164 0.730184
0.918229 0.470887 0.730191
0.918175 0.46861 0.730198
0.9162 0.465975 0.730807
0.916145 0.463702 0.730814
0.916091 0.461429 0.730821
0.916037 0.459156 0.730828
0.913101 0.456365 0.731737
0.913047 0.454097 0.731744
0.912993 0.451829 0.731751
0.910058 0.449059 0.732661
0.910004 0.446797 0.732668
0.90995 0.444534 0.732675
0.909896 0.442272 0.732682
0.909842 0.440009 0.732689
0.909788 0.437747 0.732696
0.912613 0.435955 0.7318
0.915439 0.434152 0.730905
0.915384 0.431879 0.730912
0.91533 0.429606 0.730919
0.917195 0.427633 0.730325
0.917141 0.425356 0.730332
0.919965 0.423519 0.729437
0.922789 0.421671 0.728542
0.922735 0.419384 0.728549
0.925558 0.41752 0.727654
0.925504 0.415228 0.727661
0.925449 0.412935 0.727668
0.927313 0.410915 0.727074
0.927258 0.408619 0.727081
0.930081 0.40672 0.726186
0.930026 0.404419 0.726193
0.929971 0.402118 0.7262
0.929916 0.399817 0.726207
0.932738 0.397892 0.725312
0.932683 0.395585 0.72532
0.932628 0.393279 0.725327
0.932573 0.390973 0.725334
0.932518 0.388666 0.725341
0.932462 0.38636 0.725348
0.929531 0.383709 0.726257
0.929476 0.381408 0.726264
0.929421 0.379107 0.726271
0.929366 0.376806 0.726279
0.929311 0.374505 0.726286
0.92638 0.371886 0.727195
0.926325 0.36959 0.727202
0.92627 0.367294 0.727209
0.926215 0.364998 0.727216
0.92616 0.362702 0.727223
0.926105 0.360407 0.72723
0.924133 0.35792 0.727838
0.924079 0.355627 0.727846
0.924024 0.353335 0.727853
0.923969 0.351043 0.72786
0.923914 0.348751 0.727867
0.923859 0.346458 0.727874
0.923804 0.344166 0.727881
0.92375 0.341874 0.727888
0.923695 0.339581 0.727895
0.92364 0.337289 0.727902
0.923585 0.334997 0.72791
0.920657 0.332476 0.728818
0.920602 0.330189 0.728825
0.920547 0.327902 0.728832
0.923366 0.325827 0.727938
0.923311 0.323535 0.727945
