ply
format ascii 1.0
comment Created by Open3D
element vertex 1791
property double x
property double y
property double z
end_header
0.964725 0.179239 0.93506
0.964991 0.176975 0.934953
0.96541 0.174705 0.934824
0.96496 0.172464 0.934816
0.964304 0.170232 0.934835
0.964672 0.167962 0.934714
0.963914 0.165737 0.934748
0.963514 0.163498 0.934733
0.963319 0.161253 0.934689
0.96292 0.159016 0.934674
0.963083 0.156755 0.934581
0.962274 0.154541 0.934622
0.961464 0.152329 0.934663
0.961526 0.150074 0.934585
0.960921 0.147855 0.934598
0.960471 0.145629 0.93459
0.960685 0.143366 0.93449
0.960132 0.141148 0.934496
0.960295 0.138888 0.934403
0.958821 0.13673 0.934537
0.958115 0.134527 0.934564
0.958688 0.132242 0.934415
0.958032 0.130039 0.934435
0.957991 0.127794 0.93437
0.958308 0.125525 0.934256
0.957858 0.12331 0.934249
0.958533 0.121012 0.934084
0.959208 0.118712 0.93392
0.959115 0.11647 0.933863
0.959892 0.114158 0.933684
0.959595 0.111931 0.933655
0.959912 0.109654 0.93354
0.960843 0.107323 0.93334
0.960648 0.105087 0.933297
0.962039 0.102711 0.933032
0.962867 0.100381 0.932846
0.96257 0.0981511 0.932817
0.963398 0.095817 0.932631
0.96351 0.093548 0.932545
0.964082 0.0912339 0.932394
0.965013 0.0888824 0.932193
0.964818 0.0866403 0.93215
0.965594 0.0842998 0.93197
0.966678 0.0819246 0.931748
0.966636 0.0796641 0.931683
0.967413 0.077316 0.931503
0.968138 0.0749707 0.93133
0.968455 0.0726679 0.931215
0.969435 0.0702893 0.931007
0.969394 0.0680237 0.930941
0.912144 0.557952 0.951994
0.912104 0.555798 0.951932
0.913145 0.553931 0.95173
0.914032 0.552019 0.951547
0.91358 0.549755 0.951539
0.914415 0.547826 0.951363
0.914942 0.545814 0.951227
0.915056 0.543695 0.951145
0.915788 0.541732 0.950982
0.915594 0.539533 0.95094
0.915966 0.537476 0.950824
0.916338 0.535418 0.950708
0.915629 0.533091 0.950733
0.916258 0.531095 0.950584
0.917093 0.529148 0.950407
0.91659 0.526872 0.950406
0.916756 0.52476 0.950316
0.917282 0.522733 0.95018
0.916882 0.520483 0.950165
0.917305 0.51843 0.950042
0.917111 0.51623 0.95
0.917123 0.514078 0.949931
0.917341 0.511974 0.949835
0.917095 0.509763 0.9498
0.917724 0.507752 0.94965
0.91825 0.505715 0.949513
0.918004 0.503503 0.949478
0.918479 0.501452 0.949348
0.918593 0.49932 0.949265
0.919016 0.497255 0.949142
0.919593 0.495222 0.948999
0.919553 0.493053 0.948936
0.920438 0.491083 0.948752
0.921272 0.489099 0.948575
0.921232 0.486927 0.948512
0.922632 0.485057 0.94826
0.923722 0.483117 0.948048
0.923682 0.480942 0.947985
0.924259 0.478892 0.947841
0.924322 0.476735 0.947765
0.92495 0.474692 0.947614
0.926092 0.472749 0.947395
0.926052 0.470569 0.947333
0.92632 0.468449 0.947229
0.927205 0.466448 0.947044
0.926959 0.464226 0.947008
0.92769 0.462191 0.946844
0.928523 0.460172 0.946665
0.928175 0.45793 0.946643
0.9287 0.45585 0.946505
0.928505 0.453637 0.946463
0.92903 0.451555 0.946325
0.929504 0.449461 0.946194
0.929361 0.447256 0.946144
0.929783 0.445151 0.94602
0.930462 0.44309 0.945862
0.930268 0.440874 0.945819
0.930433 0.438721 0.945729
0.930547 0.436559 0.945645
0.930712 0.434404 0.945555
0.931391 0.432335 0.945396
0.931196 0.430119 0.945354
0.931516 0.427987 0.945243
0.931989 0.425879 0.945111
0.931692 0.423646 0.945082
0.932422 0.421577 0.944917
0.933152 0.419505 0.944751
0.933111 0.417311 0.944688
0.933636 0.415203 0.944549
0.93339 0.412977 0.944513
0.934479 0.410952 0.944299
0.935312 0.408884 0.944119
0.935015 0.406649 0.94409
0.93518 0.404481 0.943999
0.936063 0.402415 0.943812
0.935664 0.400164 0.943797
0.935983 0.398016 0.943686
0.936507 0.395894 0.943547
0.93621 0.393658 0.943518
0.936837 0.391548 0.943365
0.936078 0.389252 0.943398
0.936396 0.387099 0.943287
0.936766 0.384951 0.943168
0.936418 0.382711 0.943146
0.936429 0.380516 0.943076
0.93685 0.378373 0.942951
0.936399 0.376121 0.942942
0.936872 0.373982 0.94281
0.936524 0.371744 0.942788
0.936843 0.369584 0.942676
0.937315 0.367442 0.942544
0.936505 0.365151 0.942584
0.936824 0.36299 0.942472
0.93745 0.360862 0.942319
0.936384 0.358547 0.942394
0.936446 0.356357 0.942317
0.936662 0.354182 0.942219
0.936263 0.351943 0.942204
0.936838 0.349804 0.942057
0.936233 0.347545 0.94207
0.936295 0.345354 0.941993
0.936921 0.343217 0.941839
0.936676 0.340994 0.941804
0.937405 0.338863 0.941636
0.937518 0.336674 0.941552
0.937478 0.33447 0.941489
0.938053 0.33232 0.941342
0.937704 0.330088 0.94132
0.937972 0.32791 0.941215
0.938597 0.32576 0.941061
0.938147 0.32352 0.941053
0.938209 0.321323 0.940976
0.938989 0.319181 0.940801
0.938487 0.316939 0.9408
0.938651 0.314748 0.940708
0.938816 0.312556 0.940617
0.938057 0.310298 0.940651
0.938478 0.308124 0.940525
0.938028 0.30589 0.940517
0.938244 0.303701 0.940419
0.938562 0.301518 0.940306
0.937752 0.299262 0.940348
0.937968 0.297072 0.940249
0.938492 0.2949 0.940109
0.937785 0.292654 0.940136
0.938052 0.290466 0.940031
0.938165 0.288267 0.939946
0.937971 0.286053 0.939904
0.938494 0.283875 0.939763
0.938248 0.281657 0.939728
0.938157 0.279448 0.939671
0.938628 0.277264 0.939538
0.938229 0.275041 0.939523
0.938137 0.272831 0.939467
0.938353 0.270635 0.939368
0.938005 0.268415 0.939347
0.938784 0.266238 0.939171
0.938487 0.264021 0.939142
0.938959 0.26183 0.939008
0.93938 0.259636 0.938881
0.939237 0.257423 0.938832
0.939964 0.255235 0.938663
0.941102 0.253056 0.938437
0.941061 0.250843 0.938373
0.941533 0.248642 0.938239
0.939597 0.246388 0.938436
0.939556 0.244177 0.938373
0.941104 0.241996 0.93809
0.941063 0.239782 0.938027
0.941534 0.237577 0.937892
0.942518 0.235376 0.937687
0.942477 0.23316 0.937624
0.943921 0.230959 0.937355
0.944598 0.228746 0.937192
0.94471 0.226527 0.937107
0.947076 0.224318 0.93671
0.947138 0.222095 0.936632
0.948172 0.219872 0.936419
0.949667 0.217645 0.936143
0.949626 0.215416 0.936078
0.951172 0.213181 0.935794
0.952923 0.210939 0.935482
0.952882 0.208705 0.935418
0.955093 0.20645 0.935041
0.955973 0.204201 0.934849
0.956905 0.201949 0.934649
0.958501 0.199684 0.934357
0.95846 0.19744 0.934293
0.959698 0.195173 0.934051
0.960834 0.192903 0.933822
0.960793 0.190655 0.933757
0.961878 0.18838 0.933536
0.963474 0.18609 0.933243
0.963279 0.18384 0.9332
0.963852 0.18157 0.93305
0.963861 0.179315 0.932978
0.964127 0.177051 0.93287
0.964546 0.174781 0.932741
0.964095 0.17254 0.932733
0.963286 0.170313 0.932775
0.963654 0.168044 0.932653
0.96305 0.165812 0.932667
0.962651 0.163574 0.932652
0.962456 0.161328 0.932609
0.962057 0.159092 0.932594
0.962118 0.156836 0.932515
0.961309 0.154621 0.932557
0.960602 0.152404 0.932586
0.960663 0.150149 0.932507
0.96006 0.14793 0.932521
0.959609 0.145704 0.932513
0.959823 0.143442 0.932413
0.959117 0.141233 0.932441
0.959281 0.138973 0.932348
0.957961 0.136805 0.932463
0.957255 0.134602 0.932491
0.957827 0.132318 0.932341
0.957172 0.130114 0.932362
0.957131 0.12787 0.932298
0.957448 0.1256 0.932183
0.956998 0.123385 0.932176
0.957672 0.121088 0.93201
0.958347 0.118788 0.931845
0.958254 0.116545 0.931788
0.959031 0.114234 0.931608
0.958734 0.112007 0.931579
0.959051 0.109729 0.931464
0.959981 0.107399 0.931262
0.959786 0.105163 0.931219
0.961176 0.102787 0.930952
0.962003 0.100457 0.930765
0.961707 0.0982269 0.930736
0.962534 0.0958928 0.930548
0.962646 0.0936238 0.930462
0.963218 0.0913097 0.93031
0.964147 0.0889583 0.930108
0.963952 0.0867162 0.930065
0.964729 0.0843757 0.929884
0.965811 0.0820006 0.92966
0.96577 0.0797401 0.929595
0.966546 0.0773921 0.929414
0.967271 0.0750468 0.92924
0.967587 0.072744 0.929124
0.968567 0.0703655 0.928914
0.968525 0.0680999 0.928849
0.911318 0.558024 0.950005
0.911279 0.555871 0.949943
0.912319 0.554003 0.949739
0.913205 0.552092 0.949555
0.912754 0.549827 0.949547
0.913588 0.547898 0.94937
0.914114 0.545887 0.949233
0.914229 0.543767 0.94915
0.91496 0.541805 0.948986
0.914766 0.539606 0.948945
0.915138 0.537549 0.948828
0.915509 0.535491 0.948712
0.914801 0.533163 0.948738
0.91543 0.531168 0.948587
0.916264 0.52922 0.948409
0.915761 0.526945 0.948408
0.915927 0.524832 0.948319
0.916453 0.522805 0.948182
0.916053 0.520556 0.948167
0.916476 0.518503 0.948044
0.916282 0.516302 0.948002
0.916294 0.514151 0.947933
0.916511 0.512047 0.947836
0.916266 0.509836 0.947801
0.916894 0.507824 0.94765
0.91742 0.505788 0.947513
0.917174 0.503576 0.947478
0.917648 0.501525 0.947347
0.917763 0.499393 0.947264
0.918185 0.497327 0.94714
0.918762 0.495294 0.946996
0.918722 0.493126 0.946933
0.919607 0.491156 0.946748
0.92044 0.489172 0.946569
0.9204 0.487 0.946506
0.921798 0.48513 0.946252
0.922888 0.483191 0.946038
0.922848 0.481015 0.945976
0.923425 0.478965 0.945831
0.923487 0.476809 0.945754
0.924115 0.474766 0.945602
0.925256 0.472823 0.945382
0.925216 0.470642 0.945319
0.925484 0.468523 0.945215
0.926368 0.466521 0.945028
0.926123 0.464299 0.944993
0.926853 0.462264 0.944827
0.927686 0.460246 0.944647
0.927337 0.458003 0.944625
0.927862 0.455924 0.944487
0.927668 0.45371 0.944445
0.928192 0.451628 0.944306
0.928666 0.449535 0.944174
0.928523 0.44733 0.944125
0.928945 0.445225 0.944
0.929623 0.443163 0.94384
0.929429 0.440948 0.943798
0.929594 0.438795 0.943707
0.929708 0.436632 0.943623
0.929873 0.434478 0.943533
0.930551 0.432409 0.943373
0.930357 0.430193 0.943331
0.930676 0.428061 0.943219
0.931149 0.425953 0.943087
0.930852 0.42372 0.943058
0.931581 0.421651 0.942891
0.932311 0.419579 0.942724
0.93227 0.417385 0.942661
0.932795 0.415277 0.942522
0.932549 0.413051 0.942486
0.933638 0.411025 0.94227
0.934469 0.408958 0.942089
0.934173 0.406722 0.94206
0.934337 0.404555 0.941969
0.93522 0.402489 0.941781
0.934821 0.400238 0.941766
0.93514 0.39809 0.941654
0.935663 0.395968 0.941514
0.935367 0.393732 0.941486
0.935993 0.391622 0.941332
0.935234 0.389326 0.941366
0.935553 0.387173 0.941254
0.935923 0.385025 0.941135
0.935575 0.382785 0.941113
0.935585 0.38059 0.941043
0.936007 0.378447 0.940917
0.935556 0.376195 0.940909
0.936028 0.374056 0.940776
0.93568 0.371818 0.940755
0.935999 0.369658 0.940642
0.936471 0.367516 0.940509
0.935662 0.365226 0.940551
0.93598 0.363064 0.940438
0.936606 0.360936 0.940284
0.93554 0.358621 0.940361
0.935602 0.356431 0.940283
0.935818 0.354256 0.940185
0.935316 0.352006 0.940185
0.935891 0.349868 0.940037
0.935287 0.347609 0.940051
0.935451 0.345428 0.939959
0.936077 0.343291 0.939805
0.935832 0.341068 0.939769
0.93656 0.338938 0.939601
0.936673 0.336748 0.939516
0.936633 0.334544 0.939453
0.937207 0.332394 0.939305
0.936859 0.330162 0.939284
0.937126 0.327984 0.939178
0.937752 0.325834 0.939023
0.937301 0.323595 0.939016
0.937363 0.321397 0.938938
0.938143 0.319255 0.938762
0.937641 0.317013 0.938762
0.937805 0.314822 0.93867
0.93797 0.31263 0.938578
0.937212 0.310372 0.938614
0.937633 0.308198 0.938487
0.937182 0.305964 0.93848
0.937398 0.303775 0.938381
0.937716 0.301592 0.938268
0.936907 0.299337 0.93831
0.937123 0.297147 0.938212
0.937646 0.294974 0.93807
0.936939 0.292729 0.938099
0.937206 0.29054 0.937993
0.937319 0.288342 0.937908
0.937125 0.286127 0.937866
0.937648 0.283949 0.937724
0.937402 0.281732 0.937689
0.937311 0.279522 0.937633
0.937782 0.277339 0.937498
0.937383 0.275115 0.937484
0.937292 0.272906 0.937428
0.937507 0.270709 0.937329
0.937159 0.268489 0.937308
0.937938 0.266313 0.937131
0.937641 0.264095 0.937103
0.938113 0.261904 0.936968
0.938533 0.25971 0.93684
0.93839 0.257497 0.936791
0.939117 0.25531 0.936621
0.940254 0.253131 0.936393
0.940213 0.250918 0.936329
0.941452 0.248735 0.936087
0.942077 0.246534 0.935931
0.942343 0.244324 0.935824
0.943377 0.242127 0.935611
0.943337 0.239908 0.935547
0.944422 0.237707 0.935326
0.945609 0.235502 0.93509
0.945568 0.23328 0.935026
0.946807 0.231069 0.934784
0.948352 0.228857 0.934498
0.948158 0.226629 0.934455
0.950317 0.224412 0.934083
0.95043 0.222181 0.933997
0.951668 0.219951 0.933754
0.952752 0.217717 0.933532
0.952711 0.215482 0.933468
0.954614 0.213239 0.933131
0.956569 0.210988 0.932787
0.956527 0.208746 0.932722
0.958021 0.20649 0.932442
0.959719 0.204226 0.932134
0.959984 0.201975 0.932026
0.961529 0.199704 0.931738
0.961539 0.197452 0.931666
0.962725 0.195179 0.931429
0.963553 0.192909 0.931242
0.963358 0.190658 0.931198
0.964544 0.188375 0.930961
0.965679 0.18609 0.93073
0.965382 0.183838 0.930701
0.965903 0.181564 0.930557
0.966015 0.179301 0.93047
0.965768 0.177048 0.930434
0.966596 0.17476 0.930246
0.966248 0.17251 0.930225
0.965491 0.170276 0.930261
0.965551 0.168014 0.930181
0.96505 0.165773 0.930181
0.964957 0.163517 0.930123
0.965222 0.161246 0.930015
0.964261 0.159029 0.93008
0.964526 0.156758 0.929972
0.964076 0.15452 0.929965
0.963523 0.152289 0.929972
0.963686 0.150023 0.929878
0.963134 0.147794 0.929886
0.962428 0.145576 0.929915
0.962846 0.143295 0.929785
0.96214 0.141079 0.929814
0.962457 0.138804 0.929699
0.96216 0.136565 0.92967
0.961403 0.134357 0.929707
0.961975 0.132064 0.929555
0.961167 0.129862 0.929599
0.961483 0.127584 0.929484
0.962157 0.12528 0.929317
0.9614 0.123078 0.929354
0.961614 0.120806 0.929253
0.962442 0.118486 0.929064
0.962298 0.116239 0.929014
0.963074 0.113919 0.928832
0.962931 0.111671 0.928782
0.9634 0.109373 0.928644
0.964533 0.107016 0.928411
0.964492 0.104757 0.928346
0.965421 0.102412 0.928143
0.965992 0.100097 0.92799
0.965798 0.0978489 0.927947
0.966624 0.0955064 0.927758
0.966378 0.0932628 0.927722
0.966847 0.0909508 0.927584
0.967981 0.0885716 0.92735
0.967837 0.0863163 0.9273
0.968561 0.0839729 0.927125
0.969235 0.0816322 0.926957
0.96904 0.0793804 0.926914
0.970326 0.0769707 0.926658
0.971101 0.0746119 0.926476
0.971315 0.0723123 0.926374
0.972345 0.0699203 0.926154
0.972304 0.0676467 0.926089
0.916762 0.559783 0.94718
0.916465 0.55755 0.947152
0.917299 0.555618 0.946973
0.918184 0.553697 0.946787
0.917887 0.551462 0.946759
0.918464 0.549457 0.946615
0.919041 0.547448 0.94647
0.918795 0.545227 0.946435
0.919577 0.543269 0.946263
0.919384 0.54106 0.946221
0.919395 0.538903 0.946152
0.919817 0.53685 0.946027
0.919469 0.534603 0.946006
0.919532 0.532458 0.94593
0.920109 0.530439 0.945785
0.919761 0.528193 0.945764
0.91967 0.52601 0.945708
0.920092 0.523951 0.945584
0.919949 0.521755 0.945535
0.919909 0.519584 0.945472
0.919716 0.517377 0.945431
0.919419 0.515146 0.945403
0.919892 0.513095 0.945271
0.91975 0.5109 0.945223
0.919915 0.508776 0.945132
0.920697 0.506791 0.944959
0.920554 0.504595 0.944911
0.920771 0.50248 0.944813
0.921142 0.500398 0.944696
0.921513 0.498314 0.944578
0.922192 0.496296 0.944418
0.922152 0.494121 0.944355
0.923036 0.492143 0.944168
0.923663 0.490108 0.944015
0.923623 0.48793 0.943953
0.924609 0.485967 0.943751
0.92575 0.484032 0.943529
0.92571 0.48185 0.943466
0.926337 0.479804 0.943313
0.926913 0.477745 0.943167
0.927129 0.475613 0.943069
0.927705 0.473551 0.942923
0.927511 0.471334 0.942881
0.928035 0.469259 0.942741
0.928611 0.467192 0.942595
0.928314 0.464955 0.942567
0.929197 0.462945 0.942378
0.929876 0.460892 0.942218
0.929527 0.458644 0.942197
0.930154 0.456578 0.942043
0.930011 0.454369 0.941994
0.930587 0.452291 0.941847
0.93147 0.450266 0.941658
0.931276 0.448046 0.941616
0.931646 0.445926 0.941497
0.93217 0.443831 0.941357
0.932129 0.441637 0.941294
0.932448 0.439504 0.941182
0.932767 0.43737 0.94107
0.933342 0.435278 0.940923
0.934173 0.433227 0.94074
0.933979 0.431004 0.940698
0.93476 0.42894 0.940523
0.935437 0.426857 0.940361
0.935397 0.424656 0.940298
0.936177 0.422586 0.940122
0.9367 0.420472 0.939982
0.936403 0.418229 0.939954
0.937491 0.4162 0.939736
0.937399 0.413988 0.939679
0.937974 0.411876 0.939532
0.9386 0.409769 0.939377
0.938047 0.407487 0.939384
0.938519 0.405356 0.93925
0.93935 0.403274 0.939067
0.938899 0.401008 0.93906
0.938449 0.398744 0.939052
0.939177 0.396643 0.938883
0.93888 0.3944 0.938855
0.939198 0.392241 0.938742
0.938645 0.389965 0.938749
0.93881 0.387784 0.938657
0.939333 0.38565 0.938516
0.938626 0.383356 0.938544
0.93833 0.381116 0.938516
0.938443 0.378929 0.938431
0.938146 0.37669 0.938403
0.938567 0.374539 0.938276
0.938475 0.372325 0.938219
0.937922 0.370058 0.938227
0.938394 0.36791 0.938092
0.938097 0.365674 0.938064
0.937903 0.363449 0.938022
0.938272 0.361288 0.937902
0.937463 0.358997 0.937945
0.938088 0.356862 0.937789
0.938253 0.354676 0.937697
0.937546 0.352399 0.937726
0.937967 0.35024 0.937598
0.93767 0.348007 0.93757
0.93763 0.3458 0.937507
0.938255 0.343658 0.937351
0.938061 0.341435 0.937309
0.938379 0.339261 0.937195
0.938492 0.337067 0.93711
0.938349 0.334849 0.937061
0.939332 0.332731 0.936855
0.939446 0.330534 0.93677
0.939456 0.328328 0.9367
0.939928 0.32616 0.936565
0.939631 0.323928 0.936537
0.939795 0.321733 0.936445
0.94042 0.319574 0.936288
0.939816 0.317318 0.936303
0.940237 0.315141 0.936175
0.941015 0.312989 0.935997
0.940514 0.310742 0.935998
0.941446 0.308597 0.935798
0.940944 0.306351 0.935799
0.94116 0.304154 0.9357
0.941426 0.30196 0.935593
0.941232 0.299736 0.935551
0.941652 0.297549 0.935422
0.942123 0.295364 0.935287
0.941417 0.29311 0.935316
0.941581 0.290906 0.935224
0.941592 0.288694 0.935153
0.941448 0.286473 0.935104
0.941817 0.284278 0.934983
0.941674 0.282057 0.934933
0.941736 0.279846 0.934855
0.942002 0.277644 0.934748
0.941501 0.275408 0.934749
0.941409 0.27319 0.934692
0.941727 0.270989 0.934578
0.941379 0.26876 0.934558
0.941799 0.266562 0.934429
0.941553 0.264338 0.934394
0.941973 0.262137 0.934266
0.942648 0.259943 0.934101
0.942454 0.25772 0.934059
0.942567 0.255507 0.933973
0.94314 0.253305 0.933823
0.942997 0.251083 0.933773
0.944082 0.248891 0.933551
0.944859 0.246688 0.933372
0.945483 0.244478 0.933214
0.946312 0.242271 0.933027
0.946271 0.240046 0.932963
0.947611 0.237841 0.932704
0.94844 0.235625 0.932517
0.948399 0.233397 0.932453
0.949841 0.231182 0.932179
0.951283 0.228963 0.931905
0.951242 0.226729 0.931841
0.953195 0.224504 0.931494
0.953512 0.222267 0.931379
0.955005 0.220031 0.931097
0.956242 0.21779 0.930851
0.956201 0.215547 0.930787
0.957847 0.213298 0.930483
0.959544 0.211042 0.930172
0.959502 0.208793 0.930107
0.961352 0.206527 0.929774
0.962896 0.204258 0.929484
0.962854 0.202003 0.929419
0.964551 0.199724 0.929107
0.964509 0.197466 0.929042
0.965644 0.195188 0.928809
0.966318 0.192914 0.928643
0.966276 0.190654 0.928577
0.966899 0.188377 0.928418
0.968033 0.186087 0.928185
0.967583 0.183833 0.928178
0.968052 0.181556 0.92804
0.968317 0.179282 0.927931
0.96802 0.177026 0.927903
0.96854 0.174743 0.927757
0.967937 0.172497 0.927772
0.967435 0.17025 0.927773
0.967751 0.167972 0.927657
0.96679 0.165745 0.927723
0.966799 0.16348 0.927651
0.967269 0.161196 0.927512
0.96641 0.158969 0.927564
0.966522 0.1567 0.927477
0.965918 0.154465 0.927493
0.96603 0.152196 0.927405
0.966142 0.149926 0.927318
0.965589 0.147691 0.927327
0.965905 0.145411 0.92721
0.966272 0.143125 0.927086
0.965822 0.140887 0.92708
0.966036 0.13861 0.926978
0.965688 0.136367 0.926957
0.965442 0.134119 0.926921
0.966218 0.131804 0.926739
0.965717 0.129572 0.92674
0.96593 0.127292 0.926638
0.966757 0.124969 0.926448
0.966 0.122757 0.926486
0.965602 0.120521 0.926472
0.967092 0.118142 0.926186
0.967101 0.115874 0.926114
0.967876 0.113544 0.925931
0.967733 0.111286 0.92588
0.968048 0.108991 0.925763
0.968568 0.106677 0.925617
0.96822 0.104436 0.925596
0.969251 0.102074 0.925376
0.970179 0.0997185 0.92517
0.969882 0.0974714 0.925142
0.970402 0.0951491 0.924995
0.970718 0.0928442 0.924878
0.97088 0.0905528 0.924783
0.971451 0.0882206 0.924629
0.971154 0.0859732 0.924601
0.97198 0.0836123 0.92441
0.973214 0.081206 0.924159
0.972866 0.0789621 0.924138
0.9741 0.0765498 0.923888
0.974619 0.0742108 0.923741
0.974526 0.0719376 0.923682
0.975556 0.0695386 0.923461
0.975514 0.067258 0.923396
0.921438 0.559175 0.94437
0.921758 0.557097 0.944259
0.922642 0.555167 0.944071
0.922345 0.552923 0.944043
0.923435 0.551042 0.943828
0.923754 0.548958 0.943717
0.922996 0.546595 0.943751
0.923726 0.544615 0.943584
0.924045 0.542528 0.943473
0.924262 0.540414 0.943376
0.924478 0.538299 0.943278
0.923668 0.535927 0.94332
0.923782 0.533787 0.943236
0.92405 0.531684 0.943132
0.9236 0.529405 0.943125
0.92397 0.527326 0.943006
0.924135 0.525196 0.942916
0.923428 0.522857 0.942944
0.923594 0.520727 0.942853
0.923451 0.518525 0.942804
0.923462 0.516358 0.942735
0.923525 0.514203 0.942658
0.923331 0.511989 0.942616
0.923753 0.509916 0.942491
0.924431 0.507899 0.94233
0.92398 0.505626 0.942323
0.924607 0.503596 0.942169
0.924875 0.501483 0.942065
0.924938 0.499324 0.941988
0.925975 0.497377 0.941778
0.925832 0.495171 0.941729
0.926254 0.493087 0.941603
0.927291 0.491133 0.941393
0.927097 0.488914 0.941351
0.927929 0.486911 0.941169
0.928966 0.484948 0.940959
0.928772 0.482727 0.940917
0.92945 0.480685 0.940755
0.929768 0.478568 0.940643
0.929574 0.476347 0.940601
0.930816 0.474412 0.940362
0.930468 0.472158 0.940341
0.930633 0.470007 0.94025
0.931516 0.467994 0.94006
0.931219 0.46575 0.940032
0.931333 0.463586 0.939948
0.932061 0.461538 0.939779
0.931919 0.459324 0.93973
0.932647 0.457272 0.939561
0.932402 0.455038 0.939526
0.932618 0.452888 0.939428
0.933705 0.450896 0.939209
0.933665 0.448698 0.939146
0.934035 0.446572 0.939026
0.934968 0.444544 0.938828
0.934928 0.442344 0.938765
0.935913 0.440319 0.93856
0.936282 0.438187 0.93844
0.936396 0.43601 0.938356
0.937636 0.434021 0.938115
0.937596 0.431815 0.938052
0.938632 0.429786 0.937839
0.939411 0.427711 0.937662
0.938909 0.425428 0.937663
0.939484 0.423318 0.937514
0.940468 0.42127 0.937309
0.940274 0.419035 0.937266
0.941155 0.416966 0.937075
0.941268 0.414777 0.93699
0.941587 0.412619 0.936876
0.942724 0.410581 0.936649
0.942479 0.408335 0.936614
0.942387 0.406113 0.936557
0.943063 0.404002 0.936394
0.942357 0.401691 0.936423
0.942367 0.399484 0.936352
0.942993 0.397361 0.936195
0.942184 0.39504 0.936239
0.942655 0.392895 0.936103
0.941897 0.390584 0.93614
0.941344 0.388302 0.936147
0.941867 0.386162 0.936005
0.941007 0.383843 0.936056
0.940813 0.381611 0.936013
0.941387 0.379475 0.935864
0.941039 0.377223 0.935843
0.9411 0.375022 0.935765
0.941213 0.372827 0.93568
0.940456 0.370529 0.935716
0.940979 0.368382 0.935574
0.940119 0.366075 0.935625
0.940129 0.363869 0.935554
0.940703 0.361725 0.935404
0.93759 0.359177 0.935771
0.937242 0.356936 0.93575
0.937407 0.35475 0.935658
0.936701 0.352474 0.935688
0.937121 0.350314 0.93556
0.936824 0.348081 0.935532
0.936784 0.345874 0.935468
0.937409 0.343732 0.935311
0.937215 0.341509 0.935269
0.937532 0.339335 0.935156
0.937646 0.337141 0.93507
0.937502 0.334923 0.935021
0.938485 0.332805 0.934814
0.938598 0.330608 0.934729
0.938609 0.328402 0.934658
0.93908 0.326234 0.934522
0.938784 0.324002 0.934495
0.938948 0.321808 0.934402
0.939572 0.319648 0.934245
0.938969 0.317393 0.93426
0.939389 0.315216 0.934132
0.940167 0.313063 0.933952
0.939666 0.310817 0.933954
0.940597 0.308672 0.933753
0.940096 0.306426 0.933754
0.940311 0.304229 0.933654
0.940577 0.302034 0.933547
0.940383 0.29981 0.933505
0.940803 0.297624 0.933376
0.941274 0.295439 0.93324
0.940568 0.293184 0.933271
0.940732 0.290981 0.933178
0.940742 0.288768 0.933107
0.940599 0.286547 0.933058
0.940968 0.284353 0.932936
0.940825 0.282132 0.932886
0.940887 0.279921 0.932808
0.941153 0.277719 0.932701
0.940652 0.275482 0.932702
0.94056 0.273264 0.932646
0.940877 0.271063 0.932531
0.94053 0.268835 0.932511
0.940949 0.266636 0.932382
0.940704 0.264412 0.932347
0.941123 0.262212 0.932218
0.941798 0.260018 0.932052
0.941604 0.257795 0.93201
0.941717 0.255582 0.931925
0.94229 0.25338 0.931773
0.942147 0.251158 0.931724
0.943231 0.248965 0.9315
0.944007 0.246762 0.931319
0.944631 0.244553 0.93116
0.945459 0.242346 0.930972
0.945419 0.240121 0.930908
0.946757 0.237916 0.930647
0.947585 0.2357 0.930458
0.947544 0.233471 0.930394
0.948986 0.231257 0.930118
0.950426 0.229038 0.929842
0.950385 0.226804 0.929777
0.952337 0.224579 0.929427
0.952654 0.222343 0.929312
0.954146 0.220107 0.929027
0.955382 0.217865 0.92878
0.955341 0.215622 0.928715
0.956986 0.213373 0.928409
0.958682 0.211118 0.928095
0.95864 0.208869 0.92803
0.960489 0.206603 0.927694
0.962032 0.204334 0.927401
0.96199 0.202079 0.927336
0.963686 0.1998 0.927021
0.963644 0.197542 0.926956
0.964778 0.195264 0.926722
0.965451 0.19299 0.926554
0.96541 0.19073 0.926489
0.966032 0.188454 0.926328
0.967165 0.186163 0.926094
0.966715 0.183909 0.926088
0.966878 0.18164 0.925993
0.967296 0.179363 0.925862
0.966999 0.177107 0.925833
0.967366 0.174829 0.925709
0.966609 0.172589 0.925747
0.966414 0.170331 0.925704
0.96673 0.168054 0.925587
0.96577 0.165827 0.925655
0.965779 0.163563 0.925583
0.966248 0.161278 0.925444
0.96539 0.159052 0.925497
0.965655 0.156776 0.925388
0.965051 0.154541 0.925404
0.965163 0.152272 0.925316
0.965275 0.150002 0.925229
0.964723 0.147767 0.925238
0.965038 0.145487 0.925121
0.965405 0.143202 0.924997
0.964955 0.140963 0.924991
0.965169 0.138686 0.924889
0.964821 0.136443 0.924868
0.964576 0.134195 0.924833
0.965351 0.13188 0.924649
0.96485 0.129648 0.924651
0.965063 0.127369 0.924548
0.965889 0.125045 0.924357
0.965133 0.122833 0.924396
0.964735 0.120597 0.924383
0.966224 0.118218 0.924094
0.966233 0.11595 0.924022
0.967008 0.11362 0.923838
0.966864 0.111363 0.923787
0.96718 0.109067 0.92367
0.967699 0.106753 0.923523
0.967352 0.104512 0.923502
0.968381 0.102151 0.92328
0.969309 0.0997948 0.923073
0.969012 0.0975478 0.923045
0.969532 0.0952254 0.922898
0.969847 0.0929205 0.92278
0.970009 0.0906292 0.922685
0.97058 0.088297 0.92253
0.970283 0.0860496 0.922502
0.971108 0.0836887 0.922309
0.972341 0.0812826 0.922057
0.971993 0.0790386 0.922036
0.973227 0.0766264 0.921784
0.973746 0.0742875 0.921636
0.973653 0.0720142 0.921578
0.974682 0.0696153 0.921355
0.97464 0.0673347 0.921289
0.920605 0.559248 0.942362
0.920924 0.55717 0.94225
0.921808 0.55524 0.942061
0.921512 0.552996 0.942034
0.922601 0.551115 0.941817
0.92292 0.549031 0.941705
0.922161 0.546668 0.941741
0.922891 0.544688 0.941573
0.92321 0.542601 0.941461
0.923427 0.540487 0.941363
0.923643 0.538372 0.941265
0.922834 0.536001 0.941308
0.922947 0.53386 0.941224
0.923215 0.531757 0.941119
0.922765 0.529478 0.941113
0.923135 0.527399 0.940994
0.9233 0.525269 0.940903
0.922593 0.52293 0.940932
0.922758 0.520801 0.940841
0.922616 0.518598 0.940792
0.922627 0.516431 0.940722
0.92269 0.514276 0.940645
0.922496 0.512062 0.940604
0.922917 0.509989 0.940478
0.923595 0.507973 0.940316
0.923145 0.5057 0.94031
0.923771 0.503669 0.940155
0.924039 0.501556 0.94005
0.924102 0.499397 0.939973
0.925138 0.497451 0.939761
0.924995 0.495245 0.939712
0.925417 0.493161 0.939586
0.926453 0.491206 0.939374
0.926259 0.488988 0.939332
0.92709 0.486985 0.939149
0.928127 0.485022 0.938937
0.927933 0.482801 0.938895
0.92861 0.480759 0.938732
0.928929 0.478642 0.93862
0.928735 0.47642 0.938578
0.929976 0.474486 0.938337
0.929628 0.472232 0.938317
0.929793 0.47008 0.938225
0.930521 0.468038 0.938055
0.930225 0.465794 0.938028
0.930492 0.46366 0.937922
0.93122 0.461612 0.937752
0.931077 0.459397 0.937703
0.931652 0.457317 0.937554
0.93156 0.455111 0.937498
0.931776 0.452962 0.937399
0.932863 0.45097 0.937179
0.932822 0.448772 0.937115
0.933192 0.446646 0.936995
0.934125 0.444618 0.936796
0.934084 0.442418 0.936732
0.935069 0.440394 0.936526
0.935438 0.438261 0.936405
0.935551 0.436084 0.93632
0.936791 0.434095 0.936078
0.936751 0.431889 0.936015
0.937786 0.42986 0.935801
0.938565 0.427785 0.935622
0.938063 0.425503 0.935623
0.938637 0.423392 0.935474
0.939621 0.421344 0.935266
0.939427 0.419109 0.935224
0.940307 0.41704 0.935032
0.940421 0.414852 0.934946
0.940738 0.412693 0.934832
0.941875 0.410655 0.934603
0.94163 0.40841 0.934568
0.941538 0.406188 0.934512
0.942214 0.404076 0.934347
0.941508 0.401766 0.934377
0.941518 0.399558 0.934306
0.942143 0.397436 0.934149
0.941335 0.395115 0.934193
0.941806 0.392969 0.934057
0.941049 0.390658 0.934094
0.940496 0.388377 0.934103
0.941018 0.386237 0.93396
0.940159 0.383917 0.934012
0.939965 0.381685 0.933969
0.940385 0.37953 0.933841
0.940037 0.377279 0.93382
0.940252 0.375097 0.933721
0.940263 0.37289 0.93365
0.939608 0.370604 0.933673
0.94013 0.368457 0.933529
0.939117 0.366132 0.933603
0.939281 0.363944 0.933511
0.939855 0.3618 0.93336
0.938944 0.359491 0.93342
0.939466 0.35734 0.933276
0.939733 0.35516 0.933169
0.939078 0.352883 0.933192
0.9396 0.350729 0.933049
0.939304 0.34849 0.933022
0.939212 0.346272 0.932965
0.939581 0.3441 0.932843
0.939131 0.341847 0.932838
0.939346 0.339659 0.932738
0.939765 0.337488 0.932609
0.939725 0.335275 0.932545
0.941014 0.333179 0.932292
0.941229 0.330985 0.932192
0.941035 0.328756 0.93215
0.941761 0.326604 0.931977
0.941618 0.324378 0.931928
0.942293 0.322218 0.931762
0.943275 0.32008 0.931552
0.942928 0.317836 0.931532
0.943092 0.315631 0.931439
0.944073 0.313486 0.931229
0.943726 0.311242 0.931209
0.944452 0.309075 0.931035
0.94436 0.306848 0.930978
0.944422 0.304633 0.9309
0.945096 0.302456 0.930733
0.944749 0.300213 0.930713
0.945168 0.298018 0.930584
0.945843 0.295836 0.930417
0.945393 0.293587 0.930412
0.945557 0.291374 0.930318
0.945822 0.289165 0.93021
0.945526 0.286926 0.930183
0.945996 0.284727 0.930045
0.945495 0.282478 0.930047
0.945403 0.280251 0.929991
0.945516 0.278032 0.929905
0.945117 0.275791 0.929892
0.944718 0.273551 0.929879
0.945598 0.271364 0.929683
0.945454 0.269135 0.929634
0.945669 0.266919 0.929533
0.945322 0.264682 0.929513
0.94477 0.262439 0.929522
0.945853 0.26025 0.929297
0.945812 0.258024 0.929232
0.945823 0.255798 0.929161
0.946241 0.253584 0.929031
0.945945 0.25135 0.929003
0.946977 0.249149 0.928785
0.9476 0.246934 0.928624
0.947712 0.244707 0.928538
0.948693 0.242496 0.928326
0.948652 0.240264 0.928262
0.94953 0.238046 0.928065
0.950868 0.23583 0.927801
0.950827 0.233594 0.927737
0.952523 0.231375 0.927421
0.954065 0.229149 0.927127
0.954024 0.226908 0.927063
0.955719 0.224674 0.926746
0.956443 0.222432 0.926571
0.957474 0.220187 0.926351
0.959118 0.217939 0.926041
0.959077 0.215688 0.925976
0.960363 0.213432 0.925719
0.962364 0.211168 0.925357
0.962322 0.208911 0.925292
0.963762 0.206641 0.925012
0.965354 0.204365 0.92471
0.965312 0.202103 0.924645
0.966649 0.199822 0.924379
0.966454 0.19756 0.924336
0.967281 0.195281 0.924144
0.96826 0.192995 0.92393
0.968218 0.190728 0.923865
0.96833 0.188458 0.923778
0.96936 0.186164 0.923556
0.969165 0.183899 0.923513
0.96943 0.181621 0.923403
0.969796 0.179339 0.923278
0.968887 0.177096 0.92334
0.968998 0.174822 0.923252
0.967936 0.172589 0.923336
0.96815 0.170312 0.923233
0.968669 0.168023 0.923086
0.967913 0.165783 0.923125
0.967821 0.163518 0.923067
0.96834 0.161226 0.92292
0.96738 0.158999 0.922989
0.968002 0.156701 0.922827
0.967399 0.154461 0.922844
0.967867 0.152168 0.922704
0.968081 0.149887 0.922601
0.967937 0.147624 0.922551
0.968457 0.145325 0.922403
0.968721 0.143039 0.922293
0.96822 0.140796 0.922295
0.968791 0.13849 0.922139
0.969004 0.136204 0.922037
0.968707 0.133951 0.922009
0.96938 0.131634 0.921838
0.968879 0.129394 0.921841
0.969041 0.127109 0.921745
0.969612 0.124795 0.92159
0.969111 0.122557 0.921592
0.969783 0.120233 0.921421
0.970812 0.117879 0.921198
0.970464 0.115629 0.921178
0.971391 0.113279 0.920969
0.97135 0.111004 0.920904
0.971461 0.108716 0.920816
0.972388 0.106359 0.920607
0.97204 0.104108 0.920587
0.97261 0.101778 0.920431
0.973078 0.0994543 0.92029
0.97273 0.0972039 0.92027
0.973198 0.0948784 0.920129
0.973564 0.0925609 0.920003
0.973063 0.0903259 0.920005
0.973684 0.0879819 0.919841
0.973642 0.0857021 0.919776
0.974161 0.0833652 0.919627
0.975495 0.0809418 0.919357
0.9753 0.0786747 0.919314
0.975615 0.0763536 0.919195
0.977153 0.0738982 0.918895
0.977111 0.071612 0.918829
0.978037 0.0692171 0.91862
0.97825 0.0669002 0.918516
0.925157 0.560765 0.939609
0.925476 0.558677 0.939497
0.926666 0.556819 0.939264
0.926267 0.554539 0.93925
0.92674 0.552488 0.939116
0.927366 0.550475 0.938961
0.926864 0.548169 0.938962
0.927132 0.546061 0.938857
0.927502 0.543979 0.938737
0.927154 0.541713 0.938716
0.927626 0.539655 0.938582
0.927176 0.537365 0.938576
0.927238 0.535203 0.938499
0.927455 0.533078 0.9384
0.926799 0.53074 0.938423
0.926862 0.528578 0.938346
0.927078 0.526453 0.938247
0.926884 0.524229 0.938206
0.927151 0.522115 0.9381
0.926752 0.519843 0.938087
0.926661 0.517644 0.938031
0.926621 0.515457 0.937968
0.926427 0.513234 0.937927
0.926694 0.511118 0.937821
0.927218 0.509059 0.937679
0.927024 0.506836 0.937638
0.927752 0.50482 0.937467
0.927712 0.502631 0.937404
0.927672 0.500441 0.937341
0.928502 0.498443 0.937157
0.928513 0.496263 0.937086
0.929344 0.49426 0.936901
0.92997 0.492209 0.936745
0.929776 0.489983 0.936703
0.930401 0.48793 0.936547
0.931232 0.485917 0.936362
0.931192 0.483721 0.936298
0.931868 0.481673 0.936135
0.932647 0.479642 0.935956
0.932351 0.477392 0.935929
0.933028 0.475337 0.935765
0.932578 0.473057 0.935759
0.932691 0.470889 0.935674
0.933265 0.46881 0.935525
0.932969 0.46656 0.935497
0.933236 0.46442 0.935391
0.933861 0.462346 0.935234
0.933513 0.460087 0.935214
0.934036 0.457991 0.935071
0.934252 0.455837 0.934972
0.934467 0.453682 0.934872
0.93586 0.451739 0.934606
0.935717 0.449516 0.934557
0.936394 0.447439 0.934393
0.936763 0.445305 0.934271
0.936722 0.443098 0.934208
0.93791 0.441104 0.933971
0.938945 0.439079 0.933755
0.939058 0.436894 0.93367
0.939989 0.434846 0.933469
0.939795 0.432608 0.933427
0.941137 0.430623 0.933167
0.942222 0.428591 0.932944
0.942181 0.426374 0.93288
0.942601 0.424231 0.932751
0.943379 0.422143 0.932571
0.943236 0.419908 0.932522
0.944117 0.417831 0.932327
0.944587 0.415689 0.932191
0.944496 0.41346 0.932134
0.94558 0.411407 0.93191
0.94554 0.409184 0.931846
0.945192 0.406916 0.931826
0.94556 0.404753 0.931704
0.944701 0.402414 0.931756
0.944916 0.400228 0.931656
0.945489 0.398091 0.931504
0.944988 0.395805 0.931506
0.944998 0.393589 0.931435
0.944292 0.391278 0.931466
0.943893 0.38901 0.931453
0.944262 0.386843 0.931331
0.943351 0.38451 0.931391
0.94285 0.382232 0.931393
0.943219 0.380064 0.93127
0.942462 0.377756 0.931309
0.942728 0.375575 0.931201
0.942943 0.373386 0.931101
0.942647 0.371136 0.931073
0.943015 0.368965 0.930951
0.941236 0.366546 0.931136
0.941093 0.364318 0.931087
0.941614 0.362164 0.930942
0.941318 0.359918 0.930915
0.941328 0.357706 0.930844
0.941697 0.355533 0.930722
0.941196 0.353267 0.930724
0.941922 0.351128 0.93055
0.941728 0.348894 0.930508
0.941943 0.346701 0.930408
0.94226 0.344518 0.930292
0.941912 0.342269 0.930272
0.942332 0.340094 0.930142
0.943006 0.33794 0.929975
0.942966 0.335719 0.929912
0.943334 0.333535 0.929789
0.944366 0.331407 0.92957
0.944479 0.329197 0.929484
0.945613 0.327072 0.929251
0.94547 0.324838 0.929201
0.945634 0.322629 0.929108
0.947433 0.320548 0.928778
0.947136 0.318299 0.928751
0.947504 0.316101 0.928628
0.948843 0.313973 0.928364
0.948137 0.311694 0.928396
0.949067 0.309532 0.928192
0.949333 0.307321 0.928083
0.949445 0.305098 0.927997
0.950068 0.302909 0.927836
0.949874 0.300665 0.927794
0.950344 0.298463 0.927656
0.951018 0.296271 0.927488
0.95067 0.294017 0.927468
0.950936 0.291799 0.927359
0.951048 0.289572 0.927273
0.950854 0.287328 0.927231
0.95117 0.28511 0.927114
0.950516 0.282843 0.927139
0.950271 0.280598 0.927104
0.95069 0.278384 0.926973
0.950036 0.276121 0.926998
0.950097 0.273891 0.926919
0.950158 0.27166 0.92684
0.949351 0.269395 0.926887
0.94982 0.26718 0.926748
0.94983 0.264948 0.926676
0.949738 0.262711 0.926619
0.950106 0.26049 0.926496
0.949809 0.258247 0.926468
0.94987 0.256015 0.926389
0.950544 0.253799 0.926221
0.950197 0.251555 0.926201
0.950768 0.249333 0.926047
0.951544 0.247114 0.925863
0.951656 0.244879 0.925777
0.952432 0.242656 0.925593
0.952288 0.240414 0.925543
0.953217 0.238189 0.925337
0.954401 0.235964 0.925093
0.95436 0.233721 0.925029
0.955901 0.231493 0.924732
0.957135 0.229257 0.924481
0.957094 0.227009 0.924416
0.9594 0.224771 0.924007
0.960226 0.222522 0.923815
0.960797 0.220268 0.92366
0.962287 0.218013 0.923371
0.962245 0.215755 0.923306
0.964194 0.21349 0.922948
0.965836 0.21122 0.922636
0.965641 0.208957 0.922593
0.966977 0.206681 0.922325
0.968007 0.204403 0.922103
0.967966 0.202135 0.922037
0.969148 0.19985 0.921792
0.969107 0.19758 0.921726
0.969473 0.195303 0.921601
0.970248 0.193017 0.921415
0.969951 0.19075 0.921388
0.970776 0.188458 0.921194
0.971398 0.186169 0.921031
0.970642 0.183913 0.921071
0.970957 0.18163 0.920953
0.971476 0.17934 0.920804
0.970771 0.177086 0.920837
0.971188 0.174798 0.920704
0.970484 0.172546 0.920736
0.970136 0.170284 0.920716
0.970604 0.167992 0.920575
0.970053 0.165739 0.920585
0.969756 0.163477 0.920558
0.970785 0.161159 0.920334
0.97059 0.158891 0.920291
0.97116 0.156589 0.920135
0.97066 0.154336 0.920137
0.970669 0.15206 0.920064
0.971392 0.149746 0.919885
0.970891 0.147495 0.919888
0.971155 0.145204 0.919777
0.971929 0.142882 0.919591
0.971734 0.140614 0.919548
0.9721 0.138313 0.919422
0.97267 0.135998 0.919265
0.972322 0.13374 0.919245
0.9733 0.131395 0.919028
0.97285 0.129143 0.919023
0.973114 0.126844 0.918912
0.97348 0.124536 0.918785
0.973133 0.122278 0.918765
0.9736 0.119961 0.918624
0.974425 0.117615 0.918429
0.97372 0.115385 0.918462
0.974748 0.113019 0.918237
0.974707 0.110737 0.918171
0.975123 0.108416 0.918037
0.975744 0.106077 0.917872
0.975396 0.103819 0.917852
0.975813 0.101495 0.917718
0.976076 0.099183 0.917606
0.976034 0.0968979 0.91754
0.976298 0.0945843 0.917429
0.976715 0.0922551 0.917294
0.972852 0.0903384 0.917801
0.97281 0.0880586 0.917735
0.972769 0.0857788 0.91767
0.973287 0.0834418 0.91752
0.97462 0.0810185 0.917248
0.974425 0.0787515 0.917205
0.97474 0.0764304 0.917086
0.976277 0.0739751 0.916783
0.976235 0.0716889 0.916718
0.97716 0.069294 0.916506
0.977373 0.0669771 0.916402
0.929188 0.562144 0.936911
0.929353 0.560007 0.936819
0.930491 0.558128 0.936591
0.930041 0.555826 0.936586
0.930308 0.553713 0.936479
0.931088 0.551733 0.936301
0.930638 0.549432 0.936296
0.931007 0.547343 0.936175
0.931838 0.54537 0.935989
0.930978 0.542966 0.936041
0.93104 0.540797 0.935964
0.930692 0.538525 0.935944
0.930806 0.536368 0.935859
0.931278 0.534299 0.935724
0.930725 0.531978 0.935733
0.930685 0.529783 0.935669
0.930798 0.527625 0.935585
0.930502 0.525369 0.935558
0.930871 0.523271 0.935437
0.930831 0.521076 0.935373
0.930637 0.518845 0.935332
0.930597 0.516649 0.935269
0.9303 0.514395 0.935242
0.930413 0.512235 0.935157
0.93109 0.510203 0.934992
0.93105 0.508007 0.934929
0.931214 0.505857 0.934837
0.931737 0.503785 0.934694
0.931697 0.501588 0.934631
0.932578 0.499592 0.934437
0.932691 0.497426 0.934352
0.933009 0.495304 0.934238
0.933378 0.493191 0.934117
0.933184 0.490958 0.934075
0.934373 0.489016 0.933837
0.935407 0.487038 0.933621
0.93506 0.48477 0.933602
0.935378 0.482639 0.933487
0.935849 0.480539 0.933351
0.935604 0.478292 0.933317
0.936177 0.47621 0.933166
0.936137 0.474004 0.933103
0.935789 0.471738 0.933083
0.936004 0.469582 0.932983
0.932535 0.466713 0.933408
0.932392 0.464494 0.933359
0.933017 0.46242 0.933201
0.93267 0.460161 0.933181
0.933192 0.458065 0.933038
0.933408 0.455911 0.932938
0.933623 0.453756 0.932838
0.935015 0.451813 0.93257
0.934872 0.44959 0.932521
0.935548 0.447513 0.932355
0.935917 0.445379 0.932233
0.935877 0.443172 0.93217
0.937064 0.441178 0.931931
0.938097 0.439153 0.931713
0.93821 0.436968 0.931628
0.939142 0.434921 0.931425
0.938947 0.432683 0.931383
0.940288 0.430697 0.931122
0.941372 0.428665 0.930897
0.941332 0.426449 0.930833
0.941751 0.424306 0.930703
0.942529 0.422217 0.930522
0.942386 0.419983 0.930473
0.943266 0.417906 0.930277
0.943736 0.415763 0.930139
0.943644 0.413535 0.930083
0.944729 0.411481 0.929857
0.944688 0.409258 0.929793
0.94434 0.406991 0.929773
0.944708 0.404828 0.92965
0.94385 0.402488 0.929704
0.944064 0.400303 0.929603
0.944637 0.398166 0.929451
0.944136 0.39588 0.929453
0.944146 0.393664 0.929382
0.943441 0.391353 0.929414
0.943042 0.389085 0.929402
0.94341 0.386917 0.929279
0.942501 0.384584 0.92934
0.941898 0.382293 0.929358
0.942368 0.380138 0.92922
0.941612 0.37783 0.92926
0.941724 0.37563 0.929173
0.942092 0.373461 0.92905
0.941796 0.371211 0.929024
0.942164 0.369039 0.928901
0.940386 0.366621 0.929088
0.940243 0.364392 0.929039
0.940764 0.362238 0.928894
0.940468 0.359993 0.928867
0.940478 0.357781 0.928796
0.940847 0.355607 0.928673
0.940346 0.353341 0.928676
0.941072 0.351203 0.928501
0.940877 0.348969 0.928459
0.941092 0.346776 0.928358
0.941409 0.344592 0.928242
0.941062 0.342344 0.928223
0.941481 0.340168 0.928092
0.942155 0.338015 0.927924
0.942115 0.335794 0.92786
0.942482 0.33361 0.927737
0.943514 0.331482 0.927517
0.943627 0.329272 0.92743
0.94476 0.327146 0.927195
0.944617 0.324913 0.927146
0.944781 0.322704 0.927052
0.946578 0.320622 0.92672
0.946282 0.318374 0.926693
0.94665 0.316176 0.926569
0.947987 0.314048 0.926303
0.947283 0.311769 0.926336
0.948212 0.309607 0.92613
0.948477 0.307396 0.926021
0.948589 0.305173 0.925934
0.949212 0.302984 0.925773
0.949018 0.30074 0.925731
0.949487 0.298538 0.925592
0.950161 0.296346 0.925423
0.949814 0.294092 0.925403
0.950079 0.291874 0.925294
0.950191 0.289647 0.925207
0.949997 0.287403 0.925165
0.950313 0.285185 0.925049
0.94966 0.282918 0.925074
0.949414 0.280673 0.92504
0.949833 0.27846 0.924908
0.949179 0.276197 0.924934
0.94924 0.273966 0.924854
0.949301 0.271735 0.924775
0.948495 0.26947 0.924824
0.948964 0.267256 0.924684
0.948974 0.265023 0.924612
0.948882 0.262786 0.924555
0.949249 0.260565 0.924431
0.948953 0.258322 0.924404
0.949014 0.25609 0.924325
0.949687 0.253874 0.924155
0.94934 0.25163 0.924136
0.949911 0.249409 0.923981
0.950686 0.24719 0.923796
0.950798 0.244955 0.923709
0.951573 0.242731 0.923524
0.95143 0.24049 0.923475
0.952358 0.238264 0.923267
0.953541 0.23604 0.923021
0.9535 0.233796 0.922956
0.95504 0.231568 0.922658
0.956273 0.229333 0.922404
0.956232 0.227084 0.922339
0.958537 0.224847 0.921927
0.959363 0.222597 0.921733
0.959933 0.220344 0.921577
0.961421 0.218089 0.921285
0.96138 0.215831 0.92122
0.963327 0.213566 0.92086
0.964968 0.211296 0.920545
0.964774 0.209033 0.920502
0.966109 0.206757 0.920232
0.967138 0.204479 0.920008
0.967096 0.202212 0.919943
0.968278 0.199926 0.919695
0.968237 0.197656 0.91963
0.968603 0.195379 0.919504
0.969377 0.193093 0.919317
0.96908 0.190826 0.919289
0.969905 0.188535 0.919095
0.970526 0.186246 0.91893
0.969771 0.18399 0.918971
0.970086 0.181707 0.918853
0.970604 0.179417 0.918703
0.969747 0.177167 0.91876
0.970164 0.174879 0.918626
0.969613 0.172623 0.918637
0.969265 0.170361 0.918617
0.969733 0.168069 0.918475
0.969182 0.165816 0.918486
0.968885 0.163554 0.918459
0.969913 0.161235 0.918233
0.969719 0.158968 0.918191
0.970288 0.156665 0.918034
0.969788 0.154413 0.918037
0.969797 0.152136 0.917964
0.97052 0.149822 0.917784
0.970019 0.147572 0.917787
0.970283 0.14528 0.917676
0.971056 0.142958 0.917488
0.970862 0.140691 0.917445
0.971228 0.13839 0.917318
0.971797 0.136075 0.917161
0.97145 0.133816 0.917141
0.972426 0.131472 0.916922
0.971977 0.12922 0.916918
0.972241 0.12692 0.916807
0.972606 0.124612 0.91668
0.972259 0.122355 0.91666
0.972726 0.120037 0.916518
0.97355 0.117691 0.916321
0.972846 0.115461 0.916356
0.973874 0.113096 0.916129
0.973832 0.110813 0.916063
0.974248 0.108493 0.915928
0.974868 0.106154 0.915762
0.974521 0.103896 0.915743
0.974937 0.101572 0.915608
0.975201 0.0992598 0.915496
0.975159 0.0969747 0.91543
0.975422 0.0946611 0.915318
0.975838 0.092332 0.915183
0.975694 0.0900554 0.915132
0.976569 0.087679 0.914928
0.975916 0.0854524 0.914954
0.976332 0.083119 0.914819
0.977715 0.0806837 0.914537
0.97752 0.0784098 0.914494
0.978293 0.0760329 0.914305
0.978912 0.0736697 0.914138
0.978768 0.0713887 0.914088
0.979795 0.0689766 0.913859
0.980364 0.0666131 0.9137
0.928348 0.562218 0.934887
0.928513 0.560081 0.934795
0.929651 0.558201 0.934565
0.929201 0.5559 0.93456
0.929468 0.553787 0.934453
0.930247 0.551807 0.934274
0.929797 0.549506 0.934269
0.930166 0.547417 0.934147
0.930996 0.545444 0.93396
0.930137 0.54304 0.934014
0.930199 0.54087 0.933936
0.929851 0.538599 0.933917
0.929964 0.536442 0.933832
0.930436 0.534373 0.933695
0.929884 0.532052 0.933705
0.929844 0.529857 0.933642
0.929957 0.527699 0.933557
0.929661 0.525443 0.93353
0.93003 0.523345 0.933409
0.929989 0.52115 0.933346
0.929796 0.518918 0.933304
0.929755 0.516723 0.933241
0.929459 0.514469 0.933215
0.929572 0.512309 0.933129
0.930248 0.510277 0.932964
0.930208 0.508081 0.932901
0.930373 0.505931 0.932808
0.930895 0.503859 0.932664
0.930855 0.501662 0.932601
0.931735 0.499666 0.932406
0.931848 0.4975 0.932321
0.932166 0.495378 0.932206
0.932535 0.493265 0.932084
0.932341 0.491032 0.932043
0.933529 0.48909 0.931803
0.934562 0.487112 0.931585
0.934215 0.484844 0.931566
0.934533 0.482713 0.931451
0.935004 0.480613 0.931314
0.934759 0.478366 0.93128
0.935332 0.476284 0.931128
0.935291 0.474078 0.931065
0.935353 0.471892 0.930987
0.93567 0.469756 0.930872
0.935118 0.46745 0.930882
0.935334 0.465293 0.930781
0.936009 0.463223 0.930615
0.935662 0.460957 0.930595
0.93603 0.458827 0.930473
0.936399 0.456694 0.93035
0.936819 0.45457 0.93022
0.93775 0.452537 0.930016
0.937607 0.450308 0.929968
0.938282 0.448224 0.9298
0.939826 0.446292 0.929508
0.939785 0.444077 0.929444
0.940512 0.441995 0.929269
0.941187 0.439901 0.929102
0.941146 0.437684 0.929038
0.942588 0.435716 0.928759
0.943058 0.433581 0.928621
0.94358 0.431452 0.928476
0.94451 0.429389 0.928271
0.944367 0.427149 0.928222
0.944939 0.425023 0.928069
0.945716 0.422928 0.927886
0.94542 0.420662 0.927859
0.946299 0.418579 0.927662
0.946973 0.416461 0.927493
0.946779 0.41421 0.927452
0.947811 0.412142 0.927231
0.947566 0.409883 0.927197
0.947167 0.407601 0.927185
0.948046 0.405505 0.926987
0.947392 0.403188 0.927012
0.946891 0.400894 0.927015
0.947259 0.398722 0.926891
0.946861 0.396444 0.926879
0.947228 0.394271 0.926755
0.946523 0.391953 0.926788
0.94592 0.389651 0.926806
0.946288 0.387477 0.926682
0.945277 0.385125 0.92676
0.944929 0.38286 0.926741
0.944991 0.380647 0.926662
0.944286 0.37834 0.926695
0.944041 0.37609 0.926661
0.944408 0.373915 0.926537
0.943652 0.371605 0.926578
0.944173 0.369447 0.926431
0.943264 0.367123 0.926494
0.942866 0.364859 0.926483
0.943387 0.362699 0.926337
0.942988 0.360437 0.926325
0.94305 0.358225 0.926246
0.943264 0.356029 0.926145
0.942662 0.353747 0.926163
0.943029 0.351566 0.926039
0.943346 0.349379 0.925923
0.94356 0.34718 0.925821
0.944132 0.345016 0.925667
0.943938 0.342776 0.925625
0.944204 0.340579 0.925516
0.94498 0.338429 0.925332
0.944837 0.336193 0.925283
0.945714 0.334048 0.925083
0.947256 0.331958 0.924786
0.947062 0.329713 0.924744
0.948144 0.327577 0.924515
0.948103 0.325344 0.92445
0.949133 0.323197 0.924228
0.950726 0.321091 0.923922
0.950276 0.318822 0.923918
0.951001 0.316643 0.923741
0.952439 0.314514 0.923458
0.952143 0.312255 0.923431
0.953174 0.31009 0.923208
0.953949 0.307904 0.923023
0.953856 0.305657 0.922966
0.955091 0.303497 0.922712
0.954641 0.301225 0.922708
0.954957 0.299003 0.92259
0.955324 0.296782 0.922465
0.954977 0.294518 0.922446
0.955344 0.292295 0.922321
0.955864 0.290079 0.922173
0.955363 0.287808 0.922176
0.955475 0.285569 0.922089
0.954924 0.283297 0.9221
0.954576 0.281037 0.922081
0.955198 0.278822 0.921918
0.954647 0.276553 0.921929
0.954861 0.274318 0.921826
0.955074 0.272082 0.921724
0.954319 0.269808 0.921765
0.954176 0.267559 0.921716
0.954339 0.265321 0.921621
0.953481 0.263048 0.921678
0.954001 0.260822 0.92153
0.953501 0.258563 0.921534
0.953358 0.256315 0.921484
0.954081 0.254092 0.921305
0.953887 0.251843 0.921264
0.954458 0.249612 0.921108
0.955079 0.247381 0.920944
0.955038 0.245134 0.920879
0.955609 0.242898 0.920723
0.955465 0.240648 0.920674
0.95624 0.238412 0.920487
0.95732 0.236178 0.920254
0.957278 0.233926 0.920189
0.958817 0.23169 0.919888
0.960407 0.22945 0.919578
0.960365 0.227193 0.919514
0.962159 0.224945 0.919173
0.963136 0.222688 0.918955
0.963401 0.220426 0.918844
0.964837 0.218163 0.918557
0.964541 0.215899 0.91853
0.96613 0.213628 0.91822
0.967821 0.211352 0.917894
0.967677 0.209082 0.917844
0.9684 0.206805 0.917664
0.969326 0.204523 0.917453
0.969182 0.202251 0.917403
0.970465 0.19996 0.917138
0.970729 0.19768 0.917026
0.97084 0.195401 0.916938
0.971461 0.193113 0.916772
0.971266 0.190839 0.91673
