ply
format ascii 1.0
comment PCL generated
element vertex 1578
property float x
property float y
property float z
element camera 0
property float view_px
property float view_py
property float view_pz
property float x_axisx
property float x_axisy
property float x_axisz
property float y_axisx
property float y_axisy
property float y_axisz
property float z_axisx
property float z_axisy
property float z_axisz
property float focal
property float scalex
property float scaley
property float centerx
property float centery
property int viewportx
property int viewporty
property float k1
property float k2
end_header
1.03707 -0.026046401 0.91012597
1.0370899 -0.116085 0.91009599
1.03711 0.058207698 0.91006601
1.03713 -0.115928 0.91003603
1.03715 0.0048315302 0.91000599
1.0371701 0.033816501 0.90997601
1.0372 -0.120779 0.90994602
1.03722 0.12919199 0.90991598
1.03724 0.044578999 0.909886
1.0372601 -0.109909 0.90985602
1.03728 0.080484398 0.90982598
1.0373 -0.115763 0.909796
1.03732 -0.077960797 0.90976602
1.03734 -0.059474502 0.90973598
1.03736 -0.0787917 0.909706
1.03738 0.020245001 0.90967602
1.0374 0.054819301 0.90964597
1.03743 -0.097692803 0.90961599
1.03745 -0.0158842 0.90958601
1.03747 0.087817699 0.90955597
1.03749 -0.0084987199 0.90952599
1.03751 -0.071497001 0.90949601
1.0375299 -0.047258802 0.90946603
1.03755 -0.088625699 0.90943599
1.03757 -0.0141179 0.90940601
1.03759 -0.061523698 0.90937603
1.0376101 -0.0420467 0.90934598
1.03763 -0.0541366 0.909316
1.03765 0.0649717 0.90928602
1.03767 0.11032 0.90925598
1.03769 0.085177504 0.909226
1.03772 0.099847801 0.90919602
1.03774 0.0246865 0.90916598
1.03776 -0.0436767 0.909136
1.03778 0.106682 0.90910602
1.0378 -0.069529101 0.90907598
1.03782 -0.089282997 0.90904599
1.03784 0.122164 0.90901601
1.03786 0.13606399 0.90898597
1.0378799 0.074331403 0.90895599
1.0379 -0.0106684 0.90892601
1.03792 -0.055895202 0.90889603
1.03794 0.0143765 0.90886599
1.0379601 0.063874602 0.90883601
1.03798 -0.114715 0.90880603
1.038 0.082186297 0.90877599
1.03802 -0.076908097 0.908746
1.03804 0.069483399 0.90871602
1.0380599 -0.081300899 0.90868598
1.03808 -0.116163 0.908656
1.0381 -0.062801197 0.90862602
1.03812 0.0290068 0.90859598
1.03815 -0.14455201 0.908566
1.03817 -0.0152371 0.90853602
1.03819 0.105936 0.90850598
1.03821 -0.047140799 0.908476
1.0382299 -0.0229146 0.90844601
1.03825 -0.072682798 0.90841597
1.03827 -0.0594013 0.90838599
1.03829 -0.070197403 0.90835601
1.0383101 -0.052976601 0.90832603
1.03833 -0.033431001 0.90829599
1.03835 0.042681798 0.90826601
1.03837 0.080542102 0.90823603
1.03839 -0.029753599 0.90820599
1.0384099 -0.14755701 0.908176
1.03843 0.000340892 0.90814602
1.03845 -0.089597799 0.90811598
1.03847 -0.14705101 0.908086
1.0384901 -0.071278498 0.90805602
1.03851 -0.109077 0.90802598
1.03853 -0.0089284899 0.907996
1.03855 -0.020623701 0.90796602
1.03857 0.063749298 0.90793598
1.03859 -0.140237 0.907906
1.03861 -0.145823 0.90787601
1.03863 0.0415572 0.90784597
1.03865 0.080454499 0.90781599
1.0386699 0.0460659 0.90778601
1.03869 0.0224595 0.90775597
1.03871 0.0504632 0.90772599
1.03873 0.028405899 0.90769601
1.0387501 0.0066810199 0.90766603
1.03877 -0.084912904 0.90763599
1.03879 -0.142179 0.90760601
1.03881 -0.074601904 0.90757602
1.03883 -0.084459998 0.90754598
1.0388499 0.0164748 0.907516
1.03887 0.115689 0.90748602
1.03889 0.00273469 0.90745598
1.03891 -0.0172948 0.907426
1.0389301 0.086549997 0.90739602
1.03895 -0.087304197 0.90736598
1.03897 0.118764 0.907336
1.03899 0.036331501 0.90730602
1.039 -0.119918 0.90727597
1.0390199 0.0045093698 0.90724599
1.03904 -0.038852401 0.90721601
1.03906 -0.040319599 0.90718597
1.03908 0.0511651 0.90715599
1.0391001 0.13834099 0.90712601
1.03912 -0.139075 0.90709603
1.03914 -0.045819599 0.90706599
1.03916 -0.0884308 0.90703601
1.03918 -0.0020155199 0.90700603
1.0391999 -0.0243035 0.90697598
1.03922 -0.064640798 0.906946
1.03924 -0.0269878 0.90691602
1.03926 0.037383098 0.90688598
1.0392801 -0.14538699 0.906856
1.0393 -0.076442897 0.90682602
1.03932 0.083743498 0.90679598
1.03934 -0.124021 0.906766
1.03936 0.106269 0.90673602
1.03938 -0.00397798 0.90670598
1.03939 -0.052507699 0.90667599
1.03941 0.067975298 0.90664601
1.03943 -0.0285463 0.90661597
1.03945 -0.133451 0.90658599
1.03947 -0.0414556 0.90655601
1.03949 -0.106619 0.90652603
1.03951 -0.119596 0.90649599
1.03953 0.024632299 0.90646601
1.0395499 0.0989388 0.90643603
1.03957 0.14026999 0.90640599
1.03959 0.142874 0.906376
1.03961 -0.112505 0.90634602
1.0396301 0.042316299 0.90631598
1.0396399 0.0259916 0.906286
1.03966 0.138868 0.90625602
1.03968 0.0086987196 0.90622598
1.0397 0.035117701 0.906196
1.0397201 -0.139561 0.90616602
1.03974 0.0584874 0.90613598
1.03976 -0.102948 0.906106
1.03978 -0.107481 0.90607601
1.0398 0.034301899 0.90604597
1.03982 0.00773521 0.90601599
1.03984 -0.0564835 0.90598601
1.03985 0.099237204 0.90595597
1.03987 -0.027221199 0.90592599
1.0398901 -0.058211301 0.90589601
1.03991 0.092302002 0.90586603
1.03993 -0.071551196 0.90583599
1.03995 -0.114089 0.90580601
1.03997 -0.10142 0.90577602
1.0399899 -0.100888 0.90574598
1.04001 0.0041385498 0.905716
1.04002 -0.119525 0.90568602
1.04004 0.124995 0.90565598
1.04006 0.132305 0.905626
1.04008 0.142364 0.90559602
1.0401 -0.0342062 0.90556598
1.04012 -0.00175237 0.905536
1.04014 0.10129 0.90550601
1.0401599 -0.0139174 0.90547597
1.04017 -0.0093743904 0.90544599
1.04019 -0.056916598 0.90541601
1.04021 -0.103305 0.90538597
1.04023 0.055147398 0.90535599
1.0402499 0.080536097 0.90532601
1.04027 0.0580412 0.90529603
1.04029 -0.027287699 0.90526599
1.04031 0.084151298 0.90523601
1.04032 0.0039613098 0.90520602
1.0403399 0.130358 0.90517598
1.04036 -0.059532899 0.905146
1.04038 -0.123564 0.90511602
1.0404 -0.035259102 0.90508598
1.0404201 0.0511414 0.905056
1.04044 0.031050701 0.90502602
1.04045 -0.117461 0.90499502
1.04047 -0.016261499 0.90496498
1.04049 0.0102574 0.904935
1.0405101 0.124595 0.90490502
1.04053 0.059771899 0.90487498
1.04055 0.121037 0.904845
1.04056 0.0740337 0.90481502
1.04058 -0.070715003 0.90478498
1.0405999 0.0321781 0.904755
1.04062 0.084726401 0.90472502
1.04064 0.047733702 0.90469497
1.04066 0.138704 0.90466499
1.04067 0.138532 0.90463501
1.0406899 0.041507199 0.90460497
1.04071 -0.088485703 0.90457499
1.04073 -0.090950601 0.90454501
1.04075 -0.0579914 0.90451503
1.0407701 -0.0138578 0.90448499
1.0407799 0.0204714 0.90445501
1.0408 -0.0299401 0.90442502
1.04082 -0.090792596 0.90439498
1.04084 -0.137078 0.904365
1.0408601 -0.127358 0.90433502
1.04087 -0.079491898 0.90430498
1.04089 -0.14367101 0.904275
1.04091 0.13448 0.90424502
1.04093 -0.13145 0.90421498
1.0409499 -0.110391 0.904185
1.04096 -0.037398901 0.90415502
1.04098 -0.078514896 0.90412498
1.041 0.124423 0.90409499
1.04102 0.0042460398 0.90406501
1.0410399 0.122556 0.90403497
1.04105 -0.138521 0.90400499
1.04107 -0.049240299 0.90397501
1.04109 0.084266998 0.90394503
1.04111 0.011987 0.90391499
1.0411299 -0.149105 0.90388501
1.04114 0.0283095 0.90385503
1.04116 0.104239 0.90382499
1.04118 0.053517099 0.903795
1.0412 -0.095788904 0.90376502
1.0412101 0.146503 0.90373498
1.04123 0.0294686 0.903705
1.04125 0.111134 0.90367502
1.04127 0.130854 0.90364498
1.04129 0.028832201 0.903615
1.0413001 0.048693798 0.90358502
1.04132 0.11127 0.90355498
1.04134 -0.102109 0.90352499
1.04136 0.076058 0.90349501
1.04137 0.0094867796 0.90346497
1.0413899 -0.112767 0.90343499
1.04141 -0.137953 0.90340501
1.04143 0.144095 0.90337503
1.04144 0.0263383 0.90334499
1.04146 0.106779 0.90331501
1.0414799 0.018148201 0.90328503
1.0415 0.0938318 0.90325499
1.04152 -0.069556698 0.903225
1.04153 0.066747002 0.90319502
1.04155 0.0113215 0.90316498
1.0415699 0.0839779 0.903135
1.04158 -0.063744001 0.90310502
1.0416 -0.1023 0.90307498
1.04162 -0.032977801 0.903045
1.04164 0.122224 0.90301502
1.0416501 -0.0039890502 0.90298498
1.04167 0.058677901 0.902955
1.04169 0.095916197 0.90292501
1.04171 0.122792 0.90289497
1.04172 -0.13438299 0.90286499
1.0417399 -0.0767968 0.90283501
1.04176 -0.129866 0.90280497
1.04178 -0.0165096 0.90277499
1.04179 -0.112902 0.90274501
1.04181 0.0127832 0.90271503
1.0418299 0.0783199 0.90268499
1.04184 -0.0211841 0.90265501
1.04186 -0.101236 0.90262502
1.04188 -0.0346517 0.90259498
1.0419 0.13904101 0.902565
1.0419101 0.016098799 0.90253502
1.04193 0.115283 0.90250498
1.04195 -0.109374 0.902475
1.04196 0.094775699 0.90244502
1.04198 0.117487 0.90241498
1.0420001 0.069905601 0.902385
1.04202 0.0993037 0.90235502
1.04203 -0.072366998 0.90232497
1.04205 0.031614199 0.90229499
1.04207 0.131063 0.90226501
1.04208 0.033075999 0.90223497
1.0421 -0.0665842 0.90220499
1.04212 -0.017638801 0.90217501
1.04213 0.125551 0.90214503
1.04215 0.145319 0.90211499
1.04217 0.128538 0.90208501
1.04219 0.073152699 0.90205503
1.0422 -0.055955902 0.90202498
1.04222 0.0539313 0.901995
1.04224 0.0135657 0.90196502
1.04225 -0.0995024 0.90193498
1.0422699 -0.031477999 0.901905
1.04229 0.074185997 0.90187502
1.0423 -0.059591301 0.90184498
1.04232 0.0215779 0.901815
1.04234 0.044938501 0.90178502
1.0423501 0.065312199 0.90175498
1.04237 0.113808 0.90172499
1.04239 -0.055477198 0.90169501
1.0424 -0.148553 0.90166497
1.04242 0.0145044 0.90163499
1.0424401 0.144595 0.90160501
1.04245 0.14287999 0.90157503
1.04247 -0.091858603 0.90154499
1.04249 -0.068434 0.90151501
1.0425 0.033735398 0.90148503
1.04252 -0.059581101 0.90145499
1.04254 0.066881403 0.901425
1.04255 0.043345802 0.90139502
1.04257 -0.0033899499 0.90136498
1.04259 -0.078891501 0.901335
1.0426 0.031578299 0.90130502
1.0426199 -0.032967299 0.90127498
1.04263 0.127702 0.901245
1.04265 0.0375298 0.90121502
1.04267 0.0127831 0.90118498
1.04268 -0.123966 0.90115499
1.0427001 0.127074 0.90112501
1.04272 -0.068091497 0.90109497
1.04273 0.0347628 0.90106499
1.04275 0.089765698 0.90103501
1.04277 0.122947 0.90100503
1.04278 0.10638 0.90097499
1.0427999 0.0117066 0.90094501
1.04281 -0.13032401 0.90091503
1.04283 0.094580904 0.90088499
1.04285 -0.100375 0.900855
1.04286 0.12306 0.90082502
1.0428801 0.041683398 0.90079498
1.0429 0.096824601 0.900765
1.04291 -0.0149405 0.90073502
1.04293 -0.043736 0.90070498
1.04294 -0.0044577401 0.900675
1.04296 0.036959201 0.90064502
1.04298 -0.145377 0.90061498
1.04299 -0.0083785504 0.900585
1.04301 -0.042504299 0.90055501
1.04302 0.0728046 0.90052497
1.04304 -0.095864996 0.90049499
1.0430599 0.0229809 0.90046501
1.04307 -0.098098703 0.90043497
1.04309 -0.126996 0.90040499
1.0431 0.118358 0.90037501
1.04312 -0.091512904 0.90034503
1.0431401 -0.0083176596 0.90031499
1.0431499 0.062142599 0.90028501
1.04317 -0.110676 0.90025502
1.04318 -0.115488 0.90022498
1.0432 -0.0533561 0.900195
1.04321 -0.074491099 0.90016502
1.0432301 0.0085457396 0.90013498
1.04325 -0.100734 0.900105
1.04326 -0.0996214 0.90007502
1.04328 -0.086687297 0.90004498
1.04329 0.107755 0.900015
1.04331 0.048736099 0.89998502
1.0433199 0.057851199 0.89995497
1.04334 -0.093906403 0.89992499
1.04336 0.0601964 0.89989501
1.04337 0.146071 0.89986497
1.04339 -0.023215899 0.89983499
1.0434 0.0154304 0.89980501
1.04342 -0.024217401 0.89977503
1.04343 -0.090501398 0.89974499
1.04345 -0.109064 0.89971501
1.04347 0.00178659 0.89968503
1.04348 -0.096267603 0.89965498
1.0434999 0.053242698 0.899625
1.04351 -0.077094696 0.89959502
1.04353 0.067081898 0.89956498
1.04354 0.099455997 0.899535
1.04356 0.072873503 0.89950502
1.04357 0.119123 0.89947498
1.0435899 0.052270301 0.899445
1.0436 0.14641801 0.89941502
1.04362 -0.0711013 0.89938498
1.04364 -0.0603531 0.89935499
1.04365 0.0191717 0.89932501
1.0436701 0.030953299 0.89929497
1.04368 0.078794397 0.89926499
1.0437 -0.081134297 0.89923501
1.04371 -0.0107622 0.89920503
1.04373 0.039878301 0.89917499
1.04374 0.143215 0.89914501
1.0437599 -0.12251 0.89911503
1.04377 -0.111096 0.89908499
1.04379 0.141349 0.899055
1.0438 -0.136618 0.89902502
1.04382 0.14480899 0.89899498
1.04383 0.060109701 0.898965
1.0438499 0.104115 0.89893502
1.04386 -0.039251398 0.89890498
1.04388 -0.120302 0.898875
1.04389 -0.089893103 0.89884502
1.04391 0.102368 0.89881498
1.04392 0.037086502 0.898785
1.0439399 0.0737473 0.89875501
1.04395 -0.040808301 0.89872497
1.04397 0.085951403 0.89869499
1.04398 0.069029696 0.89866501
1.044 -0.066293098 0.89863503
1.04401 0.025281901 0.89860499
1.04403 -0.084564596 0.89857501
1.04404 0.10565 0.89854503
1.04406 0.141849 0.89851499
1.04407 0.118119 0.898485
1.04409 -0.087117702 0.89845502
1.0441 -0.032124501 0.89842498
1.04412 -0.125201 0.898395
1.04413 -0.121642 0.89836502
1.04415 -0.0123489 0.89833498
1.04416 -0.103158 0.898305
1.04418 -0.0036212699 0.89827502
1.04419 0.141168 0.89824498
1.04421 -0.053093798 0.898215
1.04422 -0.078872703 0.89818501
1.04423 0.0082967998 0.89815497
1.04425 -0.042649601 0.89812499
1.04426 0.023290001 0.89809501
1.0442801 -0.0841645 0.89806497
1.0442899 0.138244 0.89803499
1.04431 0.099431299 0.89800501
1.04432 0.069029197 0.89797503
1.04434 -0.02355 0.89794499
1.04435 0.070902601 0.89791501
1.0443701 -0.086282097 0.89788502
1.0443799 0.051080801 0.89785498
1.04439 0.024054199 0.897825
1.04441 0.030811001 0.89779502
1.04442 -0.117137 0.89776498
1.04444 0.0050517502 0.897735
1.04445 -0.058210999 0.89770502
1.04447 0.134184 0.89767498
1.04448 0.13642099 0.897645
1.0445 0.022201899 0.89761502
1.04451 0.088155903 0.89758497
1.04452 -0.118839 0.89755499
1.04454 0.0825826 0.89752501
1.0445499 0.059188001 0.89749497
1.04457 0.072906502 0.89746499
1.04458 0.146639 0.89743501
1.0446 0.0180114 0.89740503
1.04461 0.129656 0.89737499
1.04462 -0.115007 0.89734501
1.0446399 0.0175076 0.89731503
1.04465 -0.14021701 0.89728498
1.04467 -0.040181499 0.897255
1.04468 -0.0104977 0.89722502
1.04469 0.068915598 0.89719498
1.04471 0.104966 0.897165
1.0447201 0.0089694997 0.89713502
1.04474 0.0089256 0.89710498
1.04475 0.108383 0.897075
1.04476 0.078104503 0.89704502
1.04478 0.0241355 0.89701498
1.04479 0.091155902 0.89698499
1.0448101 -0.021784 0.89695501
1.04482 -0.093583703 0.89692497
1.04483 -0.104893 0.89689499
1.04485 0.0410382 0.89686501
1.04486 0.115899 0.89683503
1.04488 -0.11886 0.89680499
1.04489 -0.134151 0.89677501
1.0448999 -0.0542937 0.89674503
1.04492 -0.076530799 0.89671499
1.04493 -0.096371099 0.896685
1.04495 0.066658497 0.89665502
1.04496 -0.119817 0.89662498
1.04497 0.088751301 0.896595
1.0449899 0.075765498 0.89656502
1.045 0.13516501 0.89653498
1.04501 0.0058635501 0.896505
1.04503 -0.036623199 0.89647502
1.04504 -0.0064292001 0.89644498
1.04505 -0.144004 0.896415
1.0450701 -0.0115997 0.89638501
1.0450799 -0.033505801 0.89635497
1.0451 -0.107296 0.89632499
1.04511 0.082900397 0.89629501
1.04512 -0.0152634 0.89626497
1.04514 0.078968003 0.89623499
1.04515 0.066983998 0.89620501
1.0451601 -0.102481 0.89617503
1.04518 0.018434901 0.89614499
1.04519 0.071068399 0.89611501
1.0452 0.073486403 0.89608502
1.04522 0.088786997 0.89605498
1.04523 0.047568802 0.896025
1.04524 -0.015211 0.89599502
1.04526 0.042568401 0.89596498
1.04527 0.040079899 0.895935
1.04528 -0.053319801 0.89590502
1.0453 0.131468 0.89587498
1.04531 0.0237503 0.895845
1.04532 0.022751501 0.89581501
1.0453399 0.086199798 0.89578497
1.04535 -0.098268501 0.89575499
1.04536 0.035817899 0.89572501
1.04538 0.11689 0.89569497
1.04539 -0.126479 0.89566499
1.0454 0.038065702 0.89563501
1.0454201 0.13066401 0.89560503
1.0454299 -0.055773299 0.89557499
1.04544 -0.139336 0.89554501
1.04546 -0.084710598 0.89551502
1.04547 -0.036102898 0.89548498
1.04548 -0.12889899 0.895455
1.04549 0.081848301 0.89542502
1.0455101 0.135176 0.89539498
1.0455199 -0.031084901 0.895365
1.04553 -0.149423 0.89533502
1.04555 0.037064701 0.89530498
1.04556 -0.088570997 0.895275
1.04557 -0.0430924 0.89524502
1.04559 0.077160098 0.89521497
1.0456001 -0.104758 0.89518499
1.04561 -0.035684101 0.89515501
1.04562 -0.093430698 0.89512497
1.04564 -0.060817402 0.89509499
1.04565 0.138796 0.89506501
1.04566 0.139303 0.89503503
1.04568 0.088397697 0.89500499
1.0456899 -0.099684097 0.89497399
1.0457 -0.143124 0.89494401
1.04571 0.137679 0.89491397
1.04573 -0.019814299 0.89488399
1.04574 0.064926602 0.89485401
1.04575 -0.055548999 0.89482403
1.04576 0.132202 0.89479399
1.0457799 -0.149716 0.89476401
1.04579 -0.142419 0.89473403
1.0458 -0.095491298 0.89470398
1.04581 0.14594699 0.894674
1.04583 0.068223096 0.89464402
1.04584 -0.137519 0.89461398
1.04585 0.135703 0.894584
1.0458699 -0.0040212101 0.89455402
1.04588 -0.124969 0.89452398
1.04589 0.020969599 0.894494
1.0459 -0.13605499 0.89446402
1.04591 0.092506699 0.89443398
1.04593 -0.038496599 0.89440399
1.04594 0.071726799 0.89437401
1.0459501 0.149664 0.89434397
1.0459599 0.027736099 0.89431399
1.04598 0.14243799 0.89428401
1.04599 0.054047301 0.89425403
1.046 0.028269701 0.89422399
1.04601 0.028615 0.89419401
1.04603 -0.0411129 0.89416403
1.0460401 -0.0432432 0.89413399
1.04605 0.103659 0.894104
1.04606 -0.035555001 0.89407402
1.04608 0.024329999 0.89404398
1.04609 0.0160577 0.894014
1.0461 -0.129816 0.89398402
1.04611 0.0876389 0.89395398
1.04612 -0.0794461 0.893924
1.04614 -0.0454376 0.89389402
1.04615 0.0311315 0.89386398
1.04616 0.127765 0.89383399
1.04617 0.0722697 0.89380401
1.04618 -0.021200599 0.89377397
1.0462 -0.112112 0.89374399
1.0462101 0.122349 0.89371401
1.0462199 -0.0744109 0.89368403
1.04623 -0.085097201 0.89365399
1.04624 0.036415301 0.89362401
1.04626 -0.031045699 0.89359403
1.04627 -0.047743998 0.89356399
1.04628 0.108426 0.893534
1.04629 -0.097139597 0.89350402
1.0463001 -0.118947 0.89347398
1.04632 -0.046121899 0.893444
1.04633 -0.112918 0.89341402
1.04634 0.121002 0.89338398
1.04635 -0.066031799 0.893354
1.04636 0.142456 0.89332402
1.04637 0.029612901 0.89329398
1.0463901 -0.0305502 0.893264
1.0464 -0.116727 0.89323401
1.04641 -0.0150095 0.89320397
1.04642 -0.116117 0.89317399
1.04643 0.141836 0.89314401
1.04644 -0.048689 0.89311397
1.04646 -0.0319084 0.89308399
1.04647 -0.057781499 0.89305401
1.0464799 0.0268657 0.89302403
1.04649 0.041094799 0.89299399
1.0465 -0.12717301 0.89296401
1.04651 0.127858 0.89293402
1.04653 0.12667499 0.89290398
1.04654 0.127069 0.892874
1.04655 -0.087972201 0.89284402
1.04656 0.0185173 0.89281398
1.0465699 -0.14103299 0.892784
1.04658 -0.088676602 0.89275402
1.04659 0.137134 0.89272398
1.04661 0.082523197 0.892694
1.04662 0.060688499 0.89266402
1.04663 0.018626999 0.89263397
1.04664 0.034660202 0.89260399
1.0466501 -0.0152527 0.89257401
1.0466599 -0.121433 0.89254397
1.04667 0.078264698 0.89251399
1.04668 -0.091680802 0.89248401
1.0467 0.0125561 0.89245403
1.04671 -0.081267998 0.89242399
1.04672 0.035133999 0.89239401
1.04673 -0.102621 0.89236403
1.0467401 -0.079021402 0.89233398
1.0467499 -0.128001 0.892304
1.04676 -0.116836 0.89227402
1.04677 0.080976099 0.89224398
1.04679 0.070400901 0.892214
1.0468 -0.109041 0.89218402
1.04681 -0.105485 0.89215398
1.04682 -0.078780003 0.892124
1.0468301 0.0080704801 0.89209402
1.04684 -0.019211501 0.89206398
1.04685 -0.0010938901 0.89203399
1.04686 0.021787601 0.89200401
1.04687 -0.14189 0.89197397
1.04688 0.0069407499 0.89194399
1.0469 0.0144702 0.89191401
1.04691 0.016276401 0.89188403
1.0469199 -0.123713 0.89185399
1.04693 -0.149382 0.89182401
1.04694 0.096504897 0.89179403
1.04695 0.020099301 0.89176399
1.04696 0.126251 0.891734
1.04697 -0.087029196 0.89170402
1.04698 0.032825101 0.89167398
1.04699 0.076014303 0.891644
1.0470001 0.027248099 0.89161402
1.0470099 -0.0477475 0.89158398
1.04702 -0.1399 0.891554
1.04704 0.0197265 0.89152402
1.04705 -0.057189599 0.89149398
1.04706 -0.0151556 0.89146399
1.04707 -0.038194999 0.89143401
1.04708 0.0063925199 0.89140397
1.0470901 0.13484301 0.89137399
1.0470999 0.088513099 0.89134401
1.04711 0.075070903 0.89131403
1.04712 0.0659182 0.89128399
1.04713 -0.13097 0.89125401
1.04714 0.130619 0.89122403
1.04715 -0.141617 0.89119399
1.04716 0.116615 0.891164
1.04717 -0.099300601 0.89113402
1.0471801 0.10976 0.89110398
1.04719 -0.118516 0.891074
1.0472 -0.0129901 0.89104402
1.04721 -0.00189302 0.89101398
1.04722 0.076121204 0.890984
1.04723 0.086260803 0.89095402
1.04724 -0.068603799 0.89092398
1.04726 -0.082000203 0.890894
1.0472701 -0.0578973 0.89086401
1.04728 0.086183801 0.89083397
1.04729 0.058235899 0.89080399
1.0473 -0.0415029 0.89077401
1.04731 0.072567903 0.89074397
1.04732 -0.016636301 0.89071399
1.04733 0.12663899 0.89068401
1.04734 0.059339199 0.89065403
1.04735 0.048411801 0.89062399
1.0473599 -0.0888163 0.89059401
1.04737 0.0213736 0.89056402
1.04738 -0.0094744004 0.89053398
1.04739 -0.0318905 0.890504
1.0474 -0.089459099 0.89047402
1.04741 -0.100489 0.89044398
1.04742 -0.13507 0.890414
1.04743 0.0592991 0.89038402
1.0474401 0.141838 0.89035398
1.0474499 0.044504501 0.890324
1.04746 0.12304 0.89029402
1.04747 -0.031829901 0.89026397
1.04748 -0.00073009002 0.89023399
1.04749 -0.090149097 0.89020401
1.0475 -0.107397 0.89017397
1.04751 0.052848499 0.89014399
1.04752 0.063491799 0.89011401
1.0475301 -0.14653701 0.89008403
1.0475399 -0.048959602 0.89005399
1.04755 -0.0590313 0.89002401
1.04755 -0.068121597 0.88999403
1.04756 -0.0812416 0.88996398
1.04757 -0.12464 0.889934
1.04758 -0.12446 0.88990402
1.04759 0.0207437 0.88987398
1.0476 0.090811498 0.889844
1.04761 0.123788 0.88981402
1.0476201 0.0376761 0.88978398
1.04763 -0.0183711 0.889754
1.04764 -0.095777497 0.88972402
1.04765 0.115789 0.88969398
1.04766 -0.0495512 0.88966399
1.04767 0.038160998 0.88963401
1.04768 -0.0119832 0.88960397
1.04769 0.022893 0.88957399
1.0477 -0.053428099 0.88954401
1.0477099 -0.0626074 0.88951403
1.04772 -0.0354647 0.88948399
1.04773 -0.0047836802 0.88945401
1.04774 -0.063537702 0.88942403
1.04775 0.113512 0.88939399
1.04775 -0.090588301 0.889364
1.04776 -0.053375501 0.88933402
1.04777 -0.0099359397 0.88930398
1.04778 -0.079372503 0.889274
1.0477901 0.100814 0.88924402
1.0477999 0.066207401 0.88921398
1.04781 -0.040487699 0.889184
1.04782 0.082782798 0.88915402
1.04783 -0.111925 0.88912398
1.04784 0.077337697 0.889094
1.04785 0.0218661 0.88906401
1.04786 -0.031990301 0.88903397
1.04786 0.0792832 0.88900399
1.04787 0.0586964 0.88897401
1.0478801 0.073092803 0.88894397
1.0478899 0.0945521 0.88891399
1.0479 -0.109873 0.88888401
1.04791 -0.038587902 0.88885403
1.04792 -0.00190056 0.88882399
1.04793 0.091294602 0.888794
1.04794 -0.035431299 0.88876402
1.04795 0.067877598 0.88873398
1.04795 0.0117604 0.888704
1.04796 -0.0125738 0.88867402
1.0479701 -0.080357298 0.88864398
1.04798 0.0508941 0.888614
1.04799 0.024888299 0.88858402
1.048 0.100188 0.88855398
1.04801 0.111343 0.888524
1.04802 0.120102 0.88849401
1.04803 0.148689 0.88846397
1.04803 -0.102481 0.88843399
1.04804 -0.0021505801 0.88840401
1.04805 0.060624599 0.88837397
1.0480601 0.13968299 0.88834399
1.04807 -0.0135393 0.88831401
1.04808 -0.143466 0.88828403
1.04809 -0.046121199 0.88825399
1.04809 0.0106751 0.88822401
1.0481 0.14722501 0.88819402
1.04811 -0.14811701 0.88816398
1.04812 -0.0156146 0.888134
1.04813 -0.025038499 0.88810402
1.04814 0.079697698 0.88807398
1.0481499 -0.120607 0.888044
1.0481499 0.065112002 0.88801402
1.04816 0.026107499 0.88798398
1.04817 -0.109855 0.887954
1.04818 -0.13482399 0.88792402
1.04819 0.137108 0.88789397
1.0482 0.108027 0.88786399
1.0482 0.022666899 0.88783401
1.04821 0.056976799 0.88780397
1.04822 -0.13699999 0.88777399
1.0482301 -0.046356998 0.88774401
1.0482399 0.117804 0.88771403
1.04825 -0.076463498 0.88768399
1.04825 0.093890101 0.88765401
1.04826 0.100137 0.88762403
1.04827 -0.0554366 0.88759398
1.04828 -0.0099675804 0.887564
1.04829 -0.133766 0.88753402
1.0483 0.085940503 0.88750398
1.0483 0.106543 0.887474
1.04831 0.084674701 0.88744402
1.0483201 -0.044458602 0.88741398
1.0483299 0.00372625 0.887384
1.04834 -0.0732437 0.88735402
1.04834 0.11783 0.88732398
1.04835 -0.069513999 0.88729399
1.04836 -0.026549701 0.88726401
1.04837 0.0182338 0.88723397
1.04838 -0.140194 0.88720399
1.04838 -0.034137402 0.88717401
1.04839 -0.092005298 0.88714403
1.0484 0.120871 0.88711399
1.0484101 -0.0132162 0.88708401
1.04842 -0.051433001 0.88705403
1.04842 -0.095049299 0.88702399
1.04843 -0.121851 0.886994
1.04844 0.018804399 0.88696402
1.04845 0.0154884 0.88693398
1.04845 -0.097887799 0.886904
1.04846 -0.0376243 0.88687402
1.04847 -0.047779601 0.88684398
1.04848 -0.108524 0.886814
1.04848 0.0032166101 0.88678402
1.04849 -0.094713897 0.88675398
1.0484999 0.065804303 0.886724
1.04851 0.018520299 0.88669401
1.04852 -0.099097803 0.88666397
1.04852 0.072829798 0.88663399
1.04853 0.018763 0.88660401
1.04854 -0.129971 0.88657397
1.04855 0.079291597 0.88654399
1.04855 -0.115268 0.88651401
1.04856 -0.0244736 0.88648403
1.04857 -0.13437299 0.88645399
1.0485801 0.0654618 0.88642401
1.0485801 0.108096 0.88639402
1.0485899 -0.00149764 0.88636398
1.0486 0.079792202 0.886334
1.04861 0.038632002 0.88630402
1.04861 -0.054064699 0.88627398
1.04862 -0.0766486 0.886244
1.04863 0.062840201 0.88621402
1.04863 0.11431 0.88618398
1.04864 0.12858699 0.886154
1.04865 0.0057878299 0.88612401
1.04866 0.14076801 0.88609397
1.04866 0.122483 0.88606399
1.0486701 -0.106012 0.88603401
1.0486799 0.067226298 0.88600397
1.04869 -0.0014101 0.88597399
1.04869 0.0137265 0.88594401
1.0487 0.0181746 0.88591403
1.04871 -0.083176598 0.88588399
1.04871 0.105957 0.88585401
1.04872 0.120255 0.88582402
1.04873 0.042305801 0.88579398
1.04873 -0.030631499 0.885764
1.04874 0.0556635 0.88573402
1.04875 0.12819099 0.88570398
1.0487601 -0.084251702 0.885674
1.0487601 0.089625299 0.88564402
1.04877 0.071856 0.88561398
1.04878 0.124801 0.885584
1.04878 0.060553301 0.88555402
1.04879 -0.052427601 0.88552397
1.0488 0.078651398 0.88549399
1.0488 -0.147642 0.88546401
1.04881 -0.13215099 0.88543397
1.04882 0.0898678 0.88540399
1.04882 0.0210675 0.88537401
1.04883 0.149517 0.88534403
1.04884 0.0136573 0.88531399
1.04884 0.127823 0.88528401
1.0488501 -0.067061603 0.88525403
1.04886 0.058936201 0.88522398
1.04886 -0.126192 0.885194
1.04887 0.069244497 0.88516402
1.04888 0.122431 0.88513398
1.04888 -0.0075964099 0.885104
1.04889 -0.025341799 0.88507402
1.0489 0.0644482 0.88504398
1.0489 -0.029435299 0.885014
1.04891 -0.05649 0.884983
1.04892 -0.050753199 0.88495302
1.04892 -0.092518203 0.88492298
1.04893 -0.025063699 0.884893
1.0489399 0.087950699 0.88486302
1.0489399 -0.102581 0.88483298
1.04895 -0.117059 0.884803
1.04896 -0.10531 0.88477302
1.04896 0.0484493 0.88474298
1.04897 0.139294 0.88471299
1.04898 -0.090148799 0.88468301
1.04898 0.0372306 0.88465297
1.04899 0.00611956 0.88462299
1.04899 -0.057381202 0.88459301
1.049 0.13040601 0.88456303
1.04901 -0.119817 0.88453299
1.04901 0.084376901 0.88450301
1.0490201 0.043347299 0.88447303
1.0490299 -0.113893 0.88444299
1.0490299 -0.0237743 0.884413
1.04904 -0.023138 0.88438302
1.04904 -0.089134999 0.88435298
1.04905 -0.102597 0.884323
1.04906 -0.100409 0.88429302
1.04906 -0.0061100898 0.88426298
1.04907 -0.104726 0.884233
1.04907 0.114321 0.88420302
1.04908 -0.114351 0.88417298
1.04909 -0.021179499 0.88414299
1.04909 -0.018043401 0.88411301
1.0491 0.051685601 0.88408297
1.0491 0.0106457 0.88405299
1.0491101 0.11404 0.88402301
1.0491199 -0.075689197 0.88399303
1.0491199 -0.075978503 0.88396299
1.04913 -0.085967399 0.88393301
1.04913 0.126867 0.88390303
1.04914 -0.102039 0.88387299
1.04914 0.0828242 0.883843
1.04915 -0.050814699 0.88381302
1.04916 -0.100826 0.88378298
1.04916 -0.028445 0.883753
1.04917 -0.0188495 0.88372302
1.04917 0.113605 0.88369298
1.04918 -0.0080918204 0.883663
1.04918 -0.141599 0.88363302
1.04919 -0.114853 0.88360298
1.0492001 0.084813602 0.883573
1.0492001 -0.026774701 0.88354301
1.04921 0.099743202 0.88351297
1.04921 -0.109474 0.88348299
1.04922 -0.083834998 0.88345301
1.04922 -0.0464927 0.88342297
1.04923 -0.086797498 0.88339299
1.04923 -0.071922198 0.88336301
1.04924 0.052521501 0.88333303
1.04925 -0.046120699 0.88330299
1.04925 -0.082419902 0.88327301
1.04926 -0.0592518 0.88324302
1.04926 0.090785801 0.88321298
1.04927 -0.136683 0.883183
1.04927 0.113166 0.88315302
1.04928 0.0967457 0.88312298
1.04928 -0.083164997 0.883093
1.0492899 -0.12269 0.88306302
1.0492899 0.051860601 0.88303298
1.0493 0.0149933 0.883003
1.0493 0.0097545804 0.88297302
1.04931 -0.145969 0.88294297
1.04931 -0.079846002 0.88291299
1.04932 -0.0161348 0.88288301
1.04933 -0.111468 0.88285297
1.04933 0.0458172 0.88282299
1.04934 -0.0990417 0.88279301
1.04934 -0.138485 0.88276303
1.04935 -0.085126199 0.88273299
1.04935 0.082268499 0.88270301
1.04936 -0.13365801 0.88267303
1.04936 0.033250399 0.88264298
1.0493701 0.0837484 0.882613
1.0493701 -0.029245799 0.88258302
1.0493799 0.0208402 0.88255298
1.0493799 -0.070433199 0.882523
1.04939 -0.0118338 0.88249302
1.04939 0.062486701 0.88246298
1.0494 -0.112084 0.882433
1.0494 0.120452 0.88240302
1.04941 -0.093683198 0.88237298
1.04941 0.107461 0.88234299
1.04941 -0.0100589 0.88231301
1.04942 0.0081513403 0.88228297
1.04942 0.079600297 0.88225299
1.04943 0.11656 0.88222301
1.04943 -0.037515201 0.88219303
1.04944 0.061138 0.88216299
1.04944 -0.11163 0.88213301
1.04945 0.082117103 0.88210303
1.04945 0.134451 0.88207299
1.0494601 -0.128328 0.882043
1.0494601 0.147558 0.88201302
1.0494699 0.054151598 0.88198298
1.0494699 -0.0173933 0.881953
1.04948 0.0244193 0.88192302
1.04948 0.018699501 0.88189298
1.04948 0.112551 0.881863
1.04949 -0.0721884 0.88183302
1.04949 0.00017630099 0.88180298
1.0495 0.053056899 0.88177299
1.0495 0.087981299 0.88174301
1.04951 0.048408099 0.88171297
1.04951 -0.114297 0.88168299
1.04952 0.0168234 0.88165301
1.04952 0.065548003 0.88162303
1.04952 -0.141167 0.88159299
1.04953 0.000302659 0.88156301
1.04953 -0.038668498 0.88153303
1.04954 0.070460699 0.88150299
1.04954 -0.0776297 0.881473
1.0495501 -0.072420001 0.88144302
1.0495501 0.140673 0.88141298
1.0495501 -0.100388 0.881383
1.04956 0.12962399 0.88135302
1.04956 0.072889999 0.88132298
1.04957 0.0378059 0.881293
1.04957 0.0121961 0.88126302
1.04957 0.0139628 0.88123298
1.04958 0.062534504 0.881203
1.04958 0.0148086 0.88117301
1.04959 0.090247899 0.88114297
1.04959 -0.086814798 0.88111299
1.04959 -0.119686 0.88108301
1.0496 0.062004499 0.88105297
1.0496 0.078709103 0.88102299
1.04961 0.013682 0.88099301
1.04961 0.058581699 0.88096303
1.04961 0.074898198 0.88093299
1.04962 -0.064575396 0.88090301
1.04962 -0.0613035 0.88087302
1.04963 0.140175 0.88084298
1.04963 0.0306003 0.880813
1.04963 -0.037475899 0.88078302
1.0496401 0.074797697 0.88075298
1.0496401 0.067699 0.880723
1.0496401 9.4841898e-06 0.88069302
1.04965 0.077004097 0.88066298
1.04965 -0.073253602 0.880633
1.04966 -0.063228898 0.88060302
1.04966 -0.0035278599 0.88057297
1.04966 0.127432 0.88054299
1.04967 0.0188947 0.88051301
1.04967 0.0236717 0.88048297
1.04967 -0.14475299 0.88045299
1.04968 0.0040965099 0.88042301
1.04968 -0.00172023 0.88039303
1.04968 0.092093699 0.88036299
1.04969 -0.062224101 0.88033301
1.04969 -0.148287 0.88030303
1.0497 -0.0022210099 0.88027298
1.0497 0.0539474 0.880243
1.0497 -0.055826999 0.88021302
1.04971 0.064674698 0.88018298
1.04971 -0.137642 0.880153
1.04971 0.135387 0.88012302
1.04972 -0.13918801 0.88009298
1.04972 -0.052076001 0.880063
1.04972 0.118047 0.88003302
1.0497299 0.092387199 0.88000298
1.0497299 -0.102311 0.87997299
1.0497299 0.039974399 0.87994301
1.04974 -0.060886301 0.87991297
1.04974 -0.032956701 0.87988299
1.04974 -0.031225299 0.87985301
1.04975 0.149088 0.87982303
1.04975 0.0785091 0.87979299
1.04975 0.104097 0.87976301
1.04975 -0.123375 0.87973303
1.04976 0.104032 0.87970299
1.04976 -0.0340892 0.879673
1.04976 0.077128403 0.87964302
1.04977 0.036616102 0.87961298
1.04977 0.140919 0.879583
1.04977 0.0708092 0.87955302
1.04978 0.085315898 0.87952298
1.04978 0.0066008898 0.879493
1.04978 -0.082144603 0.87946302
1.04978 -0.0102148 0.87943298
1.04979 0.0188867 0.879403
1.04979 -0.111337 0.87937301
1.04979 -0.034761898 0.87934297
1.0498 -0.0216088 0.87931299
1.0498 0.13010301 0.87928301
1.0498 0.104996 0.87925297
1.0498 -0.13268299 0.87922299
1.0498101 -0.132974 0.87919301
1.0498101 0.100694 0.87916303
1.0498101 0.130035 0.87913299
1.0498199 -0.0199997 0.879103
1.0498199 -0.0685798 0.87907302
1.0498199 0.089534096 0.87904298
1.0498199 -0.109487 0.879013
1.04983 0.077976599 0.87898302
1.04983 0.034406301 0.87895298
1.04983 -0.0196629 0.878923
1.04983 -0.0278302 0.87889302
1.04984 -0.073805697 0.87886298
1.04984 0.129427 0.878833
1.04984 -0.077478901 0.87880301
1.04984 0.0776169 0.87877297
1.04985 -0.015695401 0.87874299
1.04985 -0.147884 0.87871301
1.04985 -0.13481501 0.87868297
1.04985 0.0112109 0.87865299
1.04986 -0.033518299 0.87862301
1.04986 -0.13416301 0.87859303
1.04986 -0.14562 0.87856299
1.04986 0.132495 0.87853301
1.04987 0.148498 0.87850302
1.04987 0.106129 0.87847298
1.04987 -0.084087998 0.878443
1.04987 -0.059934601 0.87841302
1.04987 -0.0687472 0.87838298
1.04988 0.0025537601 0.878353
1.04988 0.111325 0.87832302
1.04988 0.0351662 0.87829298
1.04988 -0.027620601 0.878263
1.04989 0.138009 0.87823302
1.04989 0.00361075 0.87820297
1.04989 -0.0197847 0.87817299
1.04989 -0.093568698 0.87814301
1.04989 0.064815 0.87811297
1.0499001 -0.084004298 0.87808299
1.0499001 -0.14461 0.87805301
1.0499001 0.090436198 0.87802303
1.0499001 -0.073007397 0.87799299
1.0499001 -0.14516699 0.87796301
1.0499099 -0.043814 0.87793303
1.0499099 0.14358 0.87790298
1.0499099 0.101457 0.877873
1.0499099 -0.0628727 0.87784302
1.0499099 0.017905001 0.87781298
1.04992 0.0036768501 0.877783
1.04992 -0.097861297 0.87775302
1.04992 0.109586 0.87772298
1.04992 0.0051644798 0.877693
1.04992 0.044584699 0.87766302
1.04992 -0.039877601 0.87763298
1.04993 0.116347 0.87760299
1.04993 0.14747301 0.87757301
1.04993 0.022645 0.87754297
1.04993 0.128389 0.87751299
1.04993 -0.10106 0.87748301
1.04993 -0.052068699 0.87745303
1.04994 -0.0234221 0.87742299
1.04994 -0.13604 0.87739301
1.04994 0.031798199 0.87736303
1.04994 0.092102498 0.87733299
1.04994 -0.119093 0.877303
1.04994 0.018377701 0.87727302
1.04994 0.0363997 0.87724298
1.04995 -0.113606 0.877213
1.04995 0.079988398 0.87718302
1.04995 0.124224 0.87715298
1.04995 -0.0237583 0.877123
1.04995 0.0543525 0.87709302
1.04995 0.113556 0.87706298
1.04995 0.097589701 0.877033
1.04996 -0.0744574 0.87700301
1.04996 0.063579001 0.87697297
1.04996 0.0968697 0.87694299
1.04996 0.12524299 0.87691301
1.04996 -0.127514 0.87688297
1.04996 0.102756 0.87685299
1.04996 -0.115112 0.87682301
1.04996 0.037271202 0.87679303
1.04997 -0.145895 0.87676299
1.04997 0.0216546 0.87673301
1.04997 0.143518 0.87670302
1.04997 0.0150872 0.87667298
1.04997 -0.070289999 0.876643
1.04997 -0.111121 0.87661302
1.04997 0.088331901 0.87658298
1.04997 -0.071472801 0.876553
1.04997 0.0022261499 0.87652302
1.04998 0.0548831 0.87649298
1.04998 0.090351202 0.876463
1.04998 -0.115833 0.87643301
1.04998 0.0520912 0.87640297
1.04998 -0.108995 0.87637299
1.04998 -0.124624 0.87634301
1.04998 -0.079737902 0.87631297
1.04998 -0.13095599 0.87628299
1.04998 -0.033946201 0.87625301
1.04998 -0.111179 0.87622303
1.04998 0.0320502 0.87619299
1.0499901 0.132064 0.87616301
1.0499901 0.068908401 0.87613302
1.0499901 -0.087492399 0.87610298
1.0499901 0.067853101 0.876073
1.0499901 -0.093295299 0.87604302
1.0499901 0.032641198 0.87601298
1.0499901 0.0446737 0.875983
1.0499901 -0.101028 0.87595302
1.0499901 -0.146239 0.87592298
1.0499901 0.069362402 0.875893
1.0499901 0.108172 0.87586302
1.0499901 0.122978 0.87583297
1.0499901 -0.071946502 0.87580299
1.0499901 0.087973602 0.87577301
1.0499901 0.092538297 0.87574297
1.0499901 -0.113297 0.87571299
1.0499901 -0.0294572 0.87568301
1.05 0.040330399 0.87565303
1.05 0.020745501 0.87562299
1.05 0.111224 0.87559301
1.05 -0.10784 0.87556303
1.05 0.136969 0.87553298
1.05 0.0038244899 0.875503
1.05 -0.115655 0.87547302
1.05 -0.064213902 0.87544298
1.05 -0.14654499 0.875413
1.05 0.061629798 0.87538302
1.05 0.062404599 0.87535298
1.05 0.045702402 0.875323
1.05 -0.0050722398 0.87529302
1.05 -0.0164764 0.87526298
1.05 -0.125238 0.87523299
1.05 -0.0947503 0.87520301
1.05 0.0149333 0.87517297
1.05 0.090557098 0.87514299
1.05 0.139817 0.87511301
1.05 -0.0572289 0.87508303
1.05 -0.0202071 0.87505299
1.05 -0.020764699 0.87502301
1.05 -0.0782611 0.87499201
1.05 -0.082820803 0.87496197
1.05 0.116462 0.87493199
1.05 -0.128572 0.87490201
1.05 -0.076654904 0.87487203
1.05 0.098897099 0.87484199
1.05 -0.062685199 0.87481201
1.05 0.0125288 0.87478203
1.05 -0.0143274 0.87475199
1.05 0.143187 0.874722
1.05 0.080427401 0.87469202
1.05 -0.045945201 0.87466198
1.05 -0.0376729 0.874632
1.05 -0.0967599 0.87460202
1.05 0.125554 0.87457198
1.05 0.14586399 0.874542
1.05 0.031937301 0.87451202
1.05 0.144657 0.87448198
1.05 0.091532901 0.87445199
1.05 -0.111382 0.87442201
1.05 -0.026565401 0.87439197
1.05 -0.023430601 0.87436199
1.05 -0.0145735 0.87433201
1.0499901 0.0287429 0.87430203
1.0499901 0.043668199 0.87427199
1.0499901 0.042009801 0.87424201
1.0499901 0.13457599 0.87421203
1.0499901 0.044436 0.87418199
1.0499901 -0.089749202 0.874152
1.0499901 0.112243 0.87412202
1.0499901 0.022979099 0.87409198
1.0499901 0.076752 0.874062
1.0499901 0.115448 0.87403202
1.0499901 -0.068545297 0.87400198
1.0499901 0.0213781 0.873972
1.0499901 -0.116928 0.87394202
1.0499901 0.140682 0.87391198
1.0499901 -0.138083 0.873882
1.0499901 -0.027641799 0.87385201
1.04998 0.13470399 0.87382197
1.04998 0.0054351999 0.87379199
1.04998 0.046354301 0.87376201
1.04998 -0.040378701 0.87373197
1.04998 -0.149128 0.87370199
1.04998 0.087890297 0.87367201
1.04998 0.139938 0.87364203
1.04998 0.032706499 0.87361199
1.04998 0.137385 0.87358201
1.04998 0.117378 0.87355202
1.04998 0.066355601 0.87352198
1.04998 -0.0262735 0.873492
1.04997 0.052051 0.87346202
1.04997 0.12623499 0.87343198
1.04997 0.122528 0.873402
1.04997 -0.132157 0.87337202
1.04997 -0.080190003 0.87334198
1.04997 -0.0207157 0.873312
1.04997 0.000735579 0.87328202
1.04997 0.101556 0.87325197
1.04997 0.081959598 0.87322199
1.04996 -0.018293301 0.87319201
1.04996 -0.066345602 0.87316197
1.04996 0.064150698 0.87313199
1.04996 0.058126699 0.87310201
1.04996 -0.055050001 0.87307203
1.04996 -0.029246001 0.87304199
1.04996 -0.117461 0.87301201
1.04996 -0.0979819 0.87298203
1.04995 -0.0181484 0.87295198
1.04995 -0.102655 0.872922
1.04995 -0.091476001 0.87289202
1.04995 0.104569 0.87286198
1.04995 0.083933003 0.872832
1.04995 -0.107072 0.87280202
1.04995 0.14192 0.87277198
1.04994 -0.031088101 0.872742
1.04994 0.072079897 0.87271202
1.04994 0.070320703 0.87268198
1.04994 -0.0415712 0.87265199
1.04994 0.147588 0.87262201
1.04994 0.046747401 0.87259197
1.04993 -0.120211 0.87256199
1.04993 -0.117051 0.87253201
1.04993 -0.121716 0.87250203
1.04993 0.0458855 0.87247199
1.04993 -0.075529799 0.87244201
1.04993 -0.0369271 0.87241203
1.04992 -0.095351703 0.87238199
1.04992 0.00125634 0.872352
1.04992 -0.048099399 0.87232202
1.04992 0.0153925 0.87229198
1.04992 0.12646 0.872262
1.04992 0.0632222 0.87223202
1.0499099 -0.042687699 0.87220198
1.0499099 0.105437 0.872172
1.0499099 -0.068101197 0.87214202
1.0499099 0.122525 0.87211198
1.0499099 0.074030101 0.872082
1.0499001 0.043464299 0.87205201
1.0499001 -0.048994601 0.87202197
1.0499001 0.111439 0.87199199
1.0499001 -0.117846 0.87196201
1.0499001 0.043098502 0.87193203
1.04989 0.043793801 0.87190199
1.04989 -0.019971499 0.87187201
1.04989 0.143307 0.87184203
1.04989 -0.067585297 0.87181199
1.04989 -0.074940301 0.871782
1.04988 -0.035253402 0.87175202
1.04988 -0.130439 0.87172198
1.04988 -0.115131 0.871692
1.04988 -0.054378301 0.87166202
1.04988 -0.147273 0.87163198
1.04987 -0.109636 0.871602
1.04987 -0.084247597 0.87157202
1.04987 -0.104479 0.87154198
1.04987 -0.12762199 0.871512
1.04986 -0.083969101 0.87148201
1.04986 -0.122256 0.87145197
1.04986 -0.138275 0.87142199
1.04986 0.047651801 0.87139201
1.04985 0.12875199 0.87136197
1.04985 -0.0208095 0.87133199
1.04985 -0.043686599 0.87130201
1.04985 0.131658 0.87127203
1.04985 -0.101749 0.87124199
1.04984 -0.079785198 0.87121201
1.04984 0.037211999 0.87118202
1.04984 -0.0161382 0.87115198
1.04984 0.089101397 0.871122
1.04983 -0.107755 0.87109202
1.04983 0.071777299 0.87106198
1.04983 -0.064112701 0.871032
1.0498199 -0.0295338 0.87100202
1.0498199 -0.137565 0.87097198
1.0498199 -0.11236 0.870942
1.0498199 0.032623 0.87091202
1.0498101 0.108957 0.87088197
1.0498101 0.050821699 0.87085199
1.0498101 0.0471518 0.87082201
1.0498101 -0.128497 0.87079197
1.0498 -0.063533403 0.87076199
1.0498 -0.0070199501 0.87073201
1.0498 -0.117937 0.87070203
1.04979 -0.117941 0.87067199
1.04979 -0.111358 0.87064201
1.04979 0.112541 0.87061203
1.04979 0.125817 0.87058198
1.04978 -0.033469401 0.870552
1.04978 0.0667115 0.87052202
1.04978 0.14087801 0.87049198
1.04977 0.108746 0.870462
1.04977 -0.019516001 0.87043202
1.04977 -0.052355099 0.87040198
1.04977 0.10645 0.870372
1.04976 -0.0289513 0.87034202
1.04976 -0.124483 0.87031198
1.04976 0.131423 0.87028199
1.04975 -0.085165396 0.87025201
1.04975 0.124306 0.87022197
1.04975 0.116504 0.87019199
1.04974 0.048338901 0.87016201
1.04974 -0.078202903 0.87013203
1.04974 0.065894797 0.87010199
1.0497299 0.058040701 0.87007201
1.0497299 0.12983 0.87004203
1.0497299 0.0464058 0.87001199
1.04972 0.083696902 0.869982
1.04972 0.072701901 0.86995202
1.04972 0.0124477 0.86992198
1.04971 -0.10285 0.869892
1.04971 -0.102164 0.86986202
1.04971 -0.055301402 0.86983198
1.0497 0.0809552 0.869802
1.0497 0.058065299 0.86977202
1.0497 -0.0083074998 0.86974198
1.04969 0.088517003 0.869712
1.04969 -0.066673502 0.86968201
1.04969 0.067685097 0.86965197
1.04968 0.130897 0.86962199
1.04968 0.035391498 0.86959201
1.04968 0.039806999 0.86956197
1.04967 0.073346198 0.86953199
1.04967 -0.036496099 0.86950201
1.04967 0.044872399 0.86947203
1.04966 0.118897 0.86944199
1.04966 0.046216801 0.869412
1.04965 0.045858402 0.86938202
1.04965 0.0111523 0.86935198
1.04965 0.099349096 0.869322
1.0496401 0.120826 0.86929202
1.0496401 0.072180599 0.86926198
1.0496401 -0.14149199 0.869232
1.04963 0.073578298 0.86920202
1.04963 -0.042855401 0.86917198
1.04962 -0.13008 0.869142
1.04962 0.0361396 0.86911201
1.04962 -0.112486 0.86908197
1.04961 -0.102031 0.86905199
1.04961 -0.117564 0.86902201
1.0496 -0.054040801 0.86899197
1.0496 0.059671301 0.86896199
1.0496 0.042193402 0.86893201
1.04959 0.113982 0.86890203
1.04959 -0.033933699 0.86887199
1.04958 -0.0124492 0.86884201
1.04958 0.0471716 0.86881202
1.04958 0.099878699 0.86878198
1.04957 0.0126254 0.868752
1.04957 0.066938803 0.86872202
1.04956 0.046346199 0.86869198
1.04956 0.0129214 0.868662
1.04956 0.116734 0.86863202
1.0495501 0.14889701 0.86860198
1.0495501 -0.051385 0.868572
1.04954 -0.10371 0.86854202
1.04954 0.090846099 0.86851197
1.04953 -0.0749285 0.86848199
1.04953 -0.072436899 0.86845201
1.04953 -0.022221999 0.86842197
1.04952 0.052102301 0.86839199
1.04952 -0.061544001 0.86836201
1.04951 0.0404987 0.86833203
1.04951 0.0116581 0.86830199
1.0495 -0.063703097 0.86827201
1.0495 -0.0147104 0.86824203
1.0495 -0.108088 0.86821198
1.04949 0.139332 0.868182
1.04949 0.057588801 0.86815202
1.04948 -0.00831044 0.86812198
1.04948 0.0047583599 0.868092
1.0494699 -0.100472 0.86806202
1.0494699 0.0057067601 0.86803198
1.0494601 0.121843 0.868002
1.0494601 -0.025168199 0.86797202
1.04945 -0.045529202 0.86794198
1.04945 0.126177 0.86791199
1.04945 0.036562301 0.86788201
1.04944 0.056383099 0.86785197
1.04944 0.0184149 0.86782199
1.04943 -0.081799597 0.86779201
1.04943 0.098533399 0.86776203
1.04942 -0.113321 0.86773199
1.04942 -0.064417802 0.86770201
1.04941 0.028482201 0.86767203
1.04941 -0.095221803 0.86764199
1.0494 0.0035377201 0.867612
1.0494 -0.129132 0.86758202
1.04939 0.103953 0.86755198
1.04939 -0.0169247 0.867522
1.0493799 0.147779 0.86749202
1.0493799 0.00333781 0.86746198
1.0493701 -0.14928301 0.867432
1.0493701 0.109094 0.86740202
1.04936 0.074190103 0.86737198
1.04936 -0.061036099 0.867342
1.04935 0.020668801 0.86731201
1.04935 -0.037970301 0.86728197
1.04934 -0.131485 0.86725199
1.04934 -0.134076 0.86722201
1.04933 0.0143589 0.86719197
1.04933 0.0059611499 0.86716199
1.04932 0.035481598 0.86713201
1.04932 -0.037168499 0.86710203
1.04931 0.091089197 0.86707199
1.04931 0.121173 0.86704201
1.0493 -0.107056 0.86701202
1.0493 0.031953 0.86698198
1.0492899 -0.0112724 0.866952
1.0492899 -0.146896 0.86692202
1.04928 0.131319 0.86689198
1.04928 0.1468 0.866862
1.04927 -0.104729 0.86683202
1.04926 0.033258401 0.86680198
1.04926 -0.0427709 0.866772
1.04925 -0.0439527 0.86674201
1.04925 -0.030263901 0.86671197
1.04924 -0.0221505 0.86668199
1.04924 0.130199 0.86665201
1.04923 0.046969801 0.86662197
1.04923 0.14571799 0.86659199
1.04922 -0.120619 0.86656201
1.04922 0.11801 0.86653203
1.04921 -0.109947 0.86650199
1.0492001 0.0475027 0.86647201
1.0492001 -0.027075499 0.86644202
1.04919 0.105166 0.86641198
1.04919 -0.00023715199 0.866382
1.04918 -0.058526602 0.86635202
1.04918 0.075009398 0.86632198
1.04917 0.123064 0.866292
1.04916 -0.079142302 0.86626202
1.04916 0.0163281 0.86623198
1.04915 0.021736899 0.866202
1.04915 0.0094218897 0.86617202
1.04914 0.109295 0.86614197
1.04914 0.0230924 0.86611199
1.04913 -0.0032356801 0.86608201
1.0491199 -0.0084446901 0.86605197
1.0491199 0.118821 0.86602199
1.0491101 -0.078019597 0.86599201
1.0491101 0.13320801 0.86596203
1.0491 0.0046207602 0.86593199
1.04909 0.046554301 0.86590201
1.04909 0.040899999 0.86587203
1.04908 -0.069626197 0.86584198
1.04908 0.079306297 0.865812
1.04907 0.0059351102 0.86578202
1.04906 0.0271788 0.86575198
1.04906 -0.095357001 0.865722
1.04905 -0.0114158 0.86569202
1.04905 0.0883772 0.86566198
1.04904 0.098586999 0.865632
1.0490299 0.089470401 0.86560202
1.0490299 0.0616845 0.86557198
1.0490201 0.133369 0.86554199
1.0490201 0.102284 0.86551201
1.04901 0.085763097 0.86548197
1.049 -0.0057302099 0.86545199
1.049 0.11941 0.86542201
1.04899 -0.026888801 0.86539203
1.04898 -0.0540318 0.86536199
1.04898 -0.069204196 0.86533201
1.04897 -0.0109361 0.86530203
1.04897 -0.117066 0.86527199
1.04896 0.101828 0.865242
1.04895 -0.099789903 0.86521202
1.04895 0.051619399 0.86518198
1.0489399 0.0740835 0.865152
1.04893 -0.130758 0.86512202
1.04893 -0.091209099 0.86509198
1.04892 -0.106224 0.865062
1.04891 -0.123614 0.86503202
1.04891 -0.113109 0.86500198
1.0489 -0.13358299 0.86497098
1.04889 0.12327 0.864941
1.04889 -0.059310701 0.86491102
1.04888 0.120488 0.86488098
1.04887 -0.078242503 0.864851
1.04887 -0.016731801 0.86482102
1.04886 -0.048446301 0.86479098
1.0488501 -0.0055208001 0.86476099
1.0488501 -0.0511331 0.86473101
1.04884 -0.108786 0.86470097
1.04883 0.112294 0.86467099
1.04883 0.141424 0.86464101
1.04882 -0.065826297 0.86461103
1.04881 -0.0541889 0.86458099
1.04881 0.043661099 0.86455101
1.0488 0.0310202 0.86452103
1.04879 0.0550403 0.86449099
1.04879 -0.133194 0.864461
1.04878 -0.087755203 0.86443102
1.04877 0.10382 0.86440098
1.04877 0.071210302 0.864371
1.0487601 0.079276301 0.86434102
1.04875 -0.0847091 0.86431098
1.04875 0.0894804 0.864281
1.04874 0.071593598 0.86425102
1.04873 -0.080000997 0.86422098
1.04872 0.112065 0.864191
1.04872 0.065613903 0.86416101
1.04871 0.0089459 0.86413097
1.0487 -0.117709 0.86410099
1.0487 0.149968 0.86407101
1.04869 0.0449357 0.86404097
1.0486799 0.1024 0.86401099
1.0486701 -0.084160499 0.86398101
1.0486701 0.011598 0.86395103
1.04866 0.062954299 0.86392099
1.04865 0.092325203 0.86389101
1.04865 0.0025367299 0.86386102
1.04864 -0.094728798 0.86383098
1.04863 -0.0488002 0.863801
1.04862 0.044916801 0.86377102
1.04862 -0.0141518 0.86374098
1.04861 0.071131296 0.863711
1.0486 0.027361801 0.86368102
1.0485899 0.125865 0.86365098
1.0485899 -0.14827199 0.863621
1.0485801 0.0444928 0.86359102
1.04857 0.082350403 0.86356097
1.04856 -0.033594001 0.86353099
1.04856 0.036421999 0.86350101
1.04855 0.0546952 0.86347097
1.04854 -0.117662 0.86344099
1.04853 0.116328 0.86341101
1.04853 0.0093249902 0.86338103
1.04852 0.067926601 0.86335099
1.04851 0.14147 0.86332101
1.0484999 0.0684302 0.86329103
1.0484999 0.061498199 0.86326098
1.04849 0.14518 0.863231
1.04848 0.088397302 0.86320102
1.04847 0.057257298 0.86317098
1.04847 -0.070086598 0.863141
1.04846 0.058302298 0.86311102
1.04845 -0.065005697 0.86308098
1.04844 -0.0593719 0.863051
1.04843 -0.115949 0.86302102
1.04843 0.0240012 0.86299098
1.04842 -0.14187901 0.86296099
1.0484101 -0.12387 0.86293101
1.0484 0.021624301 0.86290097
1.0484 0.052360401 0.86287099
1.04839 0.057557698 0.86284101
1.04838 -0.091565602 0.86281103
