ply
format ascii 1.0
comment PCL generated
element vertex 1450
property float x
property float y
property float z
element camera 0
property float view_px
property float view_py
property float view_pz
property float x_axisx
property float x_axisy
property float x_axisz
property float y_axisx
property float y_axisy
property float y_axisz
property float z_axisx
property float z_axisy
property float z_axisz
property float focal
property float scalex
property float scaley
property float centerx
property float centery
property int viewportx
property int viewporty
property float k1
property float k2
end_header
0.7880457 0.641523 0.72038591
0.78800702 0.63941544 0.72032529
0.78796828 0.63730794 0.72026461
0.78792959 0.63520038 0.72020394
0.78789085 0.63309288 0.72014332
0.78785217 0.63098532 0.72008264
0.78591728 0.62819493 0.72068131
0.7858786 0.62609094 0.72062075
0.78583997 0.6239869 0.72056019
0.78580135 0.62188286 0.72049963
0.78576267 0.61977881 0.72043908
0.78572404 0.61767477 0.72037858
0.78576785 0.66403431 0.71976733
0.78572917 0.66193032 0.71970677
0.78569055 0.65982628 0.71964622
0.78565192 0.65772223 0.71958566
0.78750896 0.65634668 0.71886384
0.78747022 0.65423912 0.71880323
0.79027492 0.65321386 0.71775037
0.79023606 0.65110105 0.71768957
0.79019725 0.64898825 0.71762872
0.79015845 0.64687544 0.71756792
0.79011965 0.64476264 0.71750712
0.78723794 0.64159387 0.71843928
0.78719926 0.63948631 0.7183786
0.78716058 0.63737881 0.71831799
0.78712183 0.63527125 0.71825731
0.78708315 0.63316369 0.71819663
0.78704441 0.63105619 0.71813601
0.78700572 0.62894863 0.71807534
0.78696698 0.62684107 0.71801472
0.7869283 0.62473351 0.71795404
0.78688955 0.62262595 0.71789336
0.78685087 0.62051845 0.71783274
0.78681213 0.61841089 0.71777207
0.78496146 0.66410506 0.71782392
0.78492278 0.66200107 0.71776336
0.78488415 0.65989703 0.71770281
0.78484553 0.65779299 0.71764225
0.7867012 0.65641755 0.71691722
0.78666246 0.65430999 0.71685654
0.78946513 0.65328491 0.71579885
0.78942633 0.6511721 0.71573806
0.78938752 0.64905924 0.71567726
0.78934872 0.64694643 0.71561641
0.78930992 0.64483368 0.71555561
0.78643024 0.64166474 0.71649265
0.7863915 0.63955718 0.71643198
0.78635281 0.63744968 0.7163713
0.78631407 0.63534212 0.71631068
0.78627539 0.63323456 0.71625
0.7862367 0.631127 0.71618932
0.78619796 0.62901944 0.71612871
0.78615928 0.62691194 0.71606803
0.78612053 0.62480438 0.71600741
0.78608185 0.62269682 0.71594673
0.78604311 0.62058932 0.71588606
0.78600442 0.61848176 0.71582544
0.78604829 0.6649186 0.71521318
0.78884941 0.66391993 0.71415138
0.78881061 0.66180712 0.71409059
0.78877181 0.65969431 0.71402973
0.78873301 0.65758151 0.71396893
0.7886942 0.6554687 0.71390814
0.79054821 0.65407765 0.71317941
0.79050934 0.65196133 0.71311849
0.79047048 0.649845 0.71305758
0.79043162 0.64772868 0.71299666
0.79039276 0.64561236 0.71293581
0.79035389 0.6434961 0.71287489
0.79031503 0.64137977 0.71281397
0.79027611 0.63926345 0.71275306
0.79023725 0.63714713 0.71269214
0.79019839 0.63503081 0.71263123
0.79015952 0.63291454 0.71257037
0.78822851 0.63011509 0.71317846
0.78818971 0.62800229 0.71311766
0.78815091 0.62588948 0.71305686
0.7881121 0.62377661 0.71299607
0.7880733 0.62166387 0.71293527
0.78803444 0.61955106 0.71287441
0.78524053 0.66498941 0.71326655
0.78803962 0.66399097 0.71219987
0.78800082 0.66187817 0.71213907
0.78796202 0.65976536 0.71207827
0.78792322 0.65765256 0.71201742
0.78788441 0.65553975 0.71195662
0.78973711 0.65414882 0.71122468
0.78969824 0.65203249 0.71116376
0.78965938 0.64991617 0.71110284
0.78962052 0.64779985 0.71104193
0.78958166 0.64568353 0.71098101
0.78954279 0.6435672 0.71092016
0.78950393 0.64145094 0.71085924
0.78946501 0.63933462 0.71079832
0.78942615 0.6372183 0.71073741
0.78938729 0.63510197 0.71067649
0.78934842 0.63298565 0.71061558
0.78741872 0.63018608 0.71122694
0.78737992 0.62807328 0.71116614
0.78734112 0.62596053 0.71110535
0.78730232 0.62384766 0.71104455
0.78726351 0.62173486 0.71098375
0.78722471 0.61962211 0.71092296
0.7873075 0.66828763 0.71036994
0.7872687 0.66617483 0.71030915
0.78912038 0.66480148 0.70957446
0.78908151 0.66268522 0.70951355
0.78904265 0.66056889 0.70945263
0.78900379 0.65845257 0.70939171
0.78896493 0.65633625 0.7093308
0.79081619 0.65494192 0.70859551
0.79077727 0.65282208 0.70853448
0.79073834 0.6507023 0.7084735
0.79069936 0.64858246 0.70841247
0.79066044 0.64646268 0.70835149
0.78873169 0.64363837 0.70896536
0.78869283 0.64152205 0.70890445
0.78865391 0.63940579 0.70884359
0.78861505 0.63728946 0.70878267
0.78857619 0.63517314 0.70872176
0.78853732 0.63305682 0.70866084
0.78849846 0.6309405 0.70859993
0.7884596 0.62882423 0.70853901
0.78842068 0.62670791 0.70847815
0.78838181 0.62459159 0.70841724
0.78834295 0.62247527 0.70835632
0.78830409 0.62035894 0.7082954
0.788387 0.66910529 0.7077415
0.78834814 0.66698897 0.70768058
0.78830928 0.66487265 0.70761973
0.79015952 0.66349244 0.70688152
0.79012054 0.66137266 0.70682055
0.79008162 0.65925282 0.70675951
0.7900427 0.65713298 0.70669854
0.79000378 0.65501314 0.7066375
0.7899648 0.65289336 0.70657653
0.78992587 0.65077353 0.70651549
0.78988695 0.64865375 0.70645452
0.78984803 0.64653391 0.70639348
0.78980905 0.64441413 0.7063325
0.78977013 0.64229429 0.70627147
0.7897312 0.64017445 0.70621049
0.78969228 0.63805467 0.70614946
0.78965336 0.63593483 0.70608842
0.78961438 0.63381499 0.70602745
0.78768736 0.63101166 0.70664519
0.7876485 0.62889534 0.70658427
0.78760958 0.62677908 0.70652336
0.78757071 0.62466276 0.70646244
0.78753185 0.62254643 0.70640159
0.78749299 0.62043011 0.70634067
0.7875759 0.66917646 0.70578676
0.78753704 0.66706014 0.70572585
0.78749818 0.66494381 0.70566493
0.78934705 0.66356373 0.70492357
0.78930813 0.66144395 0.70486253
0.78926915 0.65932411 0.70480156
0.78923023 0.65720427 0.70474052
0.78919131 0.65508443 0.70467955
0.78915238 0.65296465 0.70461851
0.78911346 0.65084481 0.70455754
0.78907448 0.64872497 0.7044965
0.78903556 0.64660519 0.70443553
0.78899664 0.64448535 0.70437449
0.78895772 0.64236557 0.70431352
0.78891873 0.64024574 0.70425248
0.78887981 0.6381259 0.70419145
0.78884089 0.63600612 0.70413047
0.78880197 0.63388628 0.70406944
0.78687626 0.63108283 0.70469046
0.7868374 0.62896651 0.70462954
0.78679848 0.62685019 0.70456862
0.78675961 0.62473387 0.70450771
0.78672075 0.6226176 0.70444679
0.78668189 0.62050128 0.70438588
0.7867648 0.66924757 0.70383203
0.78672594 0.6671313 0.70377111
0.78857356 0.6657548 0.70302659
0.78853458 0.66363502 0.70296556
0.78849566 0.66151518 0.70290458
0.78845674 0.6593954 0.70284355
0.78841782 0.65727556 0.70278257
0.78837883 0.65515572 0.70272154
0.79116911 0.65411413 0.70163417
0.79113007 0.65198904 0.70157301
0.79109102 0.64986396 0.70151186
0.79105198 0.64773893 0.70145071
0.78818417 0.64455664 0.70241648
0.78814524 0.6424368 0.7023555
0.78810632 0.64031702 0.70229447
0.7880674 0.63819718 0.70223349
0.78802842 0.63607734 0.70217246
0.78610402 0.63327032 0.70279658
0.78606516 0.631154 0.70273566
0.7860263 0.62903768 0.70267481
0.78598738 0.62692136 0.70261389
0.78594851 0.62480503 0.70255297
0.78590965 0.62268871 0.70249206
0.78587079 0.62057245 0.70243114
0.78783894 0.6700657 0.70119059
0.78780001 0.66794592 0.70112962
0.7905888 0.66693604 0.70003831
0.79054981 0.66481096 0.69997716
0.79051077 0.66268587 0.69991601
0.79047173 0.66056085 0.69985479
0.79043269 0.6584357 0.69979364
0.79039365 0.65631068 0.69973248
0.79035461 0.65418559 0.69967133
0.79031557 0.65206051 0.69961017
0.79027659 0.64993542 0.69954902
0.79023755 0.64781034 0.69948786
0.7901985 0.64568526 0.69942671
0.78733277 0.64250809 0.70039749
0.78729385 0.64038825 0.70033652
0.78725493 0.63826847 0.70027548
0.78721601 0.63614863 0.70021451
0.78529292 0.63334143 0.70084184
0.78525406 0.63122517 0.70078093
0.78521514 0.62910885 0.70072001
0.78517628 0.62699252 0.70065916
0.78513741 0.6248762 0.70059824
0.78509855 0.62275988 0.70053732
0.78505969 0.62064356 0.70047641
0.78702652 0.67013699 0.69923264
0.7869876 0.66801721 0.6991716
0.78977436 0.66700751 0.69807547
0.78973532 0.66488242 0.69801426
0.78969628 0.66275734 0.6979531
0.78965724 0.66063225 0.69789195
0.78961825 0.65850717 0.6978308
0.78957921 0.65638208 0.69776964
0.78954017 0.65425706 0.69770849
0.78950113 0.65213192 0.69764733
0.78946209 0.65000689 0.69758618
0.78942305 0.64788181 0.69752502
0.78655928 0.64469922 0.69850051
0.78652036 0.64257938 0.69843954
0.78648144 0.64045954 0.6983785
0.78455955 0.63764524 0.69900894
0.78452069 0.63552892 0.69894803
0.78448182 0.6334126 0.69888711
0.78444296 0.63129628 0.69882619
0.78440404 0.62917995 0.69876528
0.78436518 0.62706369 0.69870436
0.78432631 0.62494737 0.69864345
0.78428745 0.62283105 0.69858259
0.78424859 0.62071472 0.69852167
0.78903794 0.67132908 0.69623494
0.7889989 0.669204 0.69617379
0.78895992 0.66707891 0.69611257
0.78892088 0.66495389 0.69605142
0.78888184 0.6628288 0.69599026
0.7888428 0.66070372 0.69592911
0.78880376 0.65857863 0.69586796
0.78594154 0.65536952 0.69684756
0.78590256 0.65324974 0.69678658
0.78586364 0.6511299 0.69672555
0.78582472 0.64901006 0.69666457
0.78578579 0.64689028 0.69660354
0.78386503 0.64406532 0.6972369
0.78382617 0.641949 0.69717598
0.78378731 0.63983268 0.69711506
0.78374845 0.63771641 0.69705415
0.78370959 0.63560009 0.69699323
0.78367072 0.63348377 0.69693238
0.78363186 0.63136744 0.69687146
0.78359294 0.62925112 0.69681054
0.78355408 0.6271348 0.69674963
0.78351521 0.62501854 0.69668871
0.78347635 0.62290221 0.6966278
0.78343749 0.62078589 0.69656694
0.78822351 0.67140055 0.6942721
0.78818446 0.66927546 0.69421089
0.78814542 0.66715038 0.69414973
0.78810638 0.66502529 0.69408858
0.7880674 0.66290027 0.69402742
0.78802836 0.66077518 0.69396627
0.78798932 0.6586501 0.69390512
0.78512907 0.65544081 0.69488961
0.78509015 0.65332103 0.69482857
0.78505123 0.65120119 0.69476759
0.78501225 0.64908135 0.69470656
0.78497332 0.64696157 0.69464558
0.78305393 0.64413649 0.69528216
0.78301507 0.64202017 0.69522125
0.78297621 0.63990384 0.69516033
0.78293735 0.63778752 0.69509941
0.78289849 0.6356712 0.6950385
0.78285962 0.63355494 0.69497758
0.78282076 0.63143861 0.69491673
0.78278184 0.62932229 0.69485581
0.78274298 0.62720597 0.69479489
0.78270411 0.62508965 0.69473398
0.78266525 0.62297338 0.69467306
0.78262639 0.62085706 0.69461215
0.78740907 0.67147201 0.6923092
0.78737003 0.66934693 0.69224805
0.78733099 0.66722184 0.69218689
0.78729194 0.66509676 0.69212574
0.78443342 0.66187155 0.69311464
0.7843945 0.65975171 0.6930536
0.78435558 0.65763193 0.69299263
0.78431666 0.65551209 0.69293159
0.78427768 0.65339226 0.69287062
0.78423876 0.65127248 0.69280958
0.78419983 0.64915264 0.69274861
0.78416091 0.64703286 0.69268757
0.78224283 0.64420766 0.69332737
0.78032494 0.64138943 0.6939674
0.78028613 0.63927662 0.69390661
0.78024733 0.63716388 0.69384581
0.78020853 0.63505107 0.69378501
0.78016973 0.63293821 0.69372416
0.78013092 0.63082546 0.69366336
0.78009212 0.62871265 0.69360256
0.78005332 0.62659985 0.69354177
0.78001451 0.62448704 0.69348097
0.78185415 0.62304449 0.69271833
0.78181529 0.62092823 0.69265741
0.78659457 0.67154342 0.69034636
0.78655553 0.66941839 0.69028521
0.78651649 0.66729325 0.69022405
0.78647751 0.66516823 0.6901629
0.78362101 0.66194284 0.69115663
0.78358203 0.659823 0.69109565
0.78354311 0.65770316 0.69103462
0.78350419 0.65558338 0.69097364
0.78346527 0.65346354 0.6909126
0.78342634 0.6513437 0.69085163
0.78338736 0.64922392 0.69079059
0.78334844 0.64710408 0.69072962
0.78143173 0.64427876 0.69137263
0.77951521 0.64146048 0.69201589
0.7794764 0.63934767 0.69195509
0.7794376 0.63723487 0.69189429
0.7793988 0.63512212 0.6918335
0.77936 0.63300925 0.69177264
0.77932119 0.63089645 0.69171184
0.77928233 0.6287837 0.69165105
0.77924353 0.6266709 0.69159025
0.77920473 0.62455803 0.69152945
0.78104305 0.62311566 0.69076359
0.78100419 0.62099934 0.69070268
0.78296429 0.67049336 0.68944269
0.78292537 0.66837353 0.68938166
0.78288645 0.66625375 0.68932068
0.78284746 0.66413391 0.68925965
0.78093165 0.66128045 0.68990517
0.78089273 0.65916413 0.68984425
0.78085387 0.65704781 0.68978333
0.78081501 0.65493149 0.68972242
0.78077614 0.65281516 0.6896615
0.77886069 0.64998275 0.69030762
0.77882189 0.64786994 0.69024682
0.77878308 0.64575714 0.69018602
0.77874422 0.64364433 0.69012517
0.77870542 0.64153153 0.69006437
0.77866662 0.63941872 0.69000357
0.77862781 0.63730592 0.68994278
0.77858901 0.63519311 0.68988198
0.77855021 0.6330803 0.68982118
0.7785114 0.6309675 0.68976033
0.7784726 0.62885469 0.68969953
0.7784338 0.62674189 0.68963873
0.778395 0.62462908 0.68957794
0.77835619 0.62251627 0.68951714
0.77831739 0.62040347 0.68945634
0.780276 0.66981685 0.68819404
0.78023714 0.66770053 0.68813312
0.78019828 0.66558421 0.6880722
0.78015941 0.66346788 0.68801129
0.77824497 0.66061783 0.68866014
0.77539283 0.65740961 0.68966407
0.77535409 0.65530205 0.68960345
0.7753154 0.65319449 0.68954277
0.77527666 0.65108699 0.68948215
0.77523798 0.64897943 0.68942147
0.77519923 0.64687186 0.6893608
0.77516055 0.64476436 0.68930018
0.77512187 0.6426568 0.6892395
0.77508312 0.64054924 0.68917882
0.77504444 0.63844168 0.68911821
0.7750057 0.63633412 0.68905753
0.77496701 0.63422662 0.68899691
0.77492827 0.63211906 0.68893623
0.77488959 0.6300115 0.68887556
0.77485085 0.627904 0.68881494
0.77481216 0.62579644 0.68875426
0.77477342 0.62368888 0.68869364
0.77754641 0.62258732 0.68756562
0.7775076 0.62047452 0.68750483
0.7794649 0.66988796 0.6862393
0.77942604 0.6677717 0.68617839
0.77938718 0.66565537 0.68611747
0.77934831 0.66353905 0.68605655
0.77743518 0.66068888 0.68670863
0.77458507 0.65748048 0.68771744
0.77454638 0.65537292 0.68765676
0.77450764 0.65326536 0.68759614
0.77446896 0.65115786 0.68753546
0.77443022 0.6490503 0.68747485
0.77439153 0.64694273 0.68741417
0.77435279 0.64483517 0.68735349
0.77431411 0.64272761 0.68729287
0.77427536 0.64062011 0.6872322
0.77423668 0.63851255 0.68717158
0.774198 0.63640499 0.6871109
0.77415925 0.63429749 0.68705022
0.77412057 0.63218993 0.68698961
0.77408183 0.63008237 0.68692893
0.77404314 0.62797487 0.68686825
0.7740044 0.62586731 0.68680763
0.77396572 0.62375975 0.68674695
0.77673668 0.62265837 0.68561411
0.77669787 0.62054557 0.68555331
0.77678066 0.66921109 0.68500036
0.77674186 0.66709828 0.6849395
0.77670306 0.66498548 0.68487871
0.77666426 0.66287267 0.68481791
0.77381605 0.65965885 0.68583143
0.77377731 0.65755135 0.68577081
0.77186584 0.65471679 0.68642652
0.77182722 0.65261275 0.68636596
0.77178854 0.6505087 0.68630546
0.77174991 0.64840466 0.6862449
0.77171129 0.64630061 0.68618435
0.77354509 0.64490604 0.68540686
0.77350634 0.64279848 0.68534619
0.77159536 0.63998854 0.68600267
0.77155668 0.6378845 0.68594211
0.77151805 0.63578045 0.68588156
0.77335149 0.63436836 0.6851036
0.77331281 0.6322608 0.68504292
0.77327412 0.63015324 0.6849823
0.77323538 0.62804568 0.68492162
0.7731967 0.62593818 0.68486094
0.77315795 0.62383062 0.68480033
0.77311927 0.62172306 0.68473965
0.77308053 0.6196155 0.68467903
0.77316314 0.6681599 0.68412739
0.7731244 0.66605234 0.68406677
0.77308571 0.66394484 0.68400609
0.77304703 0.66183728 0.68394542
0.77113676 0.65899557 0.68460423
0.77109808 0.65689152 0.68454367
0.77105945 0.65478748 0.68448311
0.77102083 0.6526835 0.68442255
0.77098215 0.65057945 0.68436199
0.77094352 0.64847541 0.6843015
0.7709049 0.64637136 0.68424094
0.77086622 0.64426732 0.68418038
0.77082759 0.64216328 0.68411982
0.77078891 0.64005923 0.68405926
0.77075028 0.63795525 0.6839987
0.77071166 0.6358512 0.68393815
0.77254379 0.63443923 0.68315691
0.77250504 0.63233167 0.68309629
0.77246636 0.63022411 0.68303561
0.77242762 0.62811655 0.68297499
0.77238894 0.62600899 0.68291432
0.77235025 0.62390149 0.68285364
0.77231151 0.62179393 0.68279302
0.77227283 0.61968637 0.68273234
0.77235538 0.66823077 0.68218076
0.77231669 0.66612321 0.68212008
0.77227795 0.66401565 0.68205947
0.77223927 0.66190815 0.68199879
0.77033037 0.65906632 0.68266082
0.77029169 0.65696228 0.68260026
0.77025306 0.65485823 0.6825397
0.77021444 0.65275419 0.68247914
0.77017576 0.65065014 0.68241858
0.77013713 0.64854616 0.68235809
0.77009845 0.64644212 0.68229753
0.77005982 0.64433807 0.68223697
0.7700212 0.64223403 0.68217641
0.76998252 0.64012998 0.68211585
0.76994389 0.63802594 0.68205529
0.76990527 0.6359219 0.68199474
0.77173603 0.63451004 0.68121028
0.77169734 0.63240248 0.6811496
0.7716586 0.63029498 0.68108898
0.77442384 0.62920988 0.67994201
0.77438498 0.62709707 0.67988122
0.77434617 0.62498426 0.67982036
0.77430737 0.62287146 0.67975956
0.77426857 0.62075865 0.67969877
0.76687479 0.66643065 0.68204796
0.76683623 0.66433185 0.68198752
0.76679772 0.66223305 0.68192714
0.76675916 0.66013432 0.68186671
0.76672059 0.65803552 0.68180633
0.76668209 0.65593672 0.68174595
0.76664352 0.65383798 0.68168551
0.76660496 0.65173918 0.68162513
0.7665664 0.64964038 0.68156469
0.76652789 0.64754164 0.68150431
0.76929206 0.64651281 0.68035412
0.76925343 0.64440882 0.68029356
0.76921481 0.64230478 0.680233
0.76917613 0.64020073 0.68017244
0.7691375 0.63809669 0.68011189
0.76909888 0.63599265 0.68005133
0.77092826 0.63458091 0.67926365
0.77088958 0.63247335 0.67920297
0.7708509 0.63036579 0.6791423
0.77361405 0.62928092 0.6779905
0.77357525 0.62716812 0.6779297
0.77353644 0.62505531 0.6778689
0.77349764 0.62294251 0.67780805
0.77345884 0.6208297 0.67774725
0.76420265 0.66575265 0.68083817
0.76416415 0.66365743 0.68077785
0.7641257 0.66156214 0.68071753
0.76595479 0.66020489 0.67992818
0.76591623 0.65810609 0.67986774
0.76587766 0.65600729 0.67980736
0.7658391 0.65390855 0.67974699
0.7658006 0.65180975 0.67968655
0.76576203 0.64971095 0.67962617
0.76572347 0.64761221 0.67956579
0.76848567 0.64658356 0.67841071
0.76844704 0.64447951 0.67835015
0.76840842 0.64237547 0.67828959
0.77023667 0.6409744 0.67749894
0.77019799 0.63886684 0.67743832
0.77015924 0.63675928 0.67737764
0.77012056 0.63465178 0.67731696
0.77008182 0.63254422 0.67725635
0.77284312 0.63146478 0.67609978
0.77280432 0.62935197 0.67603898
0.77276552 0.62723917 0.67597818
0.77272666 0.62512636 0.67591739
0.77455425 0.62368488 0.6751256
0.77451533 0.62156862 0.67506468
0.7633996 0.6658231 0.6789028
0.76336116 0.66372788 0.67884254
0.76332265 0.6616326 0.67878222
0.76515037 0.6602754 0.6779896
0.76511186 0.6581766 0.67792922
0.7650733 0.65607786 0.67786884
0.76503474 0.65397912 0.6778084
0.76499617 0.65188032 0.67774802
0.76495767 0.64978153 0.67768759
0.7649191 0.64768279 0.67762721
0.76767927 0.64665431 0.67646724
0.76764065 0.64455026 0.67640674
0.76760197 0.64244622 0.67634618
0.76942891 0.64104527 0.67555231
0.76939023 0.63893771 0.67549163
0.76935154 0.63683015 0.67543101
0.7693128 0.63472265 0.67537034
0.76927412 0.63261509 0.67530966
0.77203333 0.63153583 0.67414826
0.77199453 0.62942302 0.67408746
0.77195573 0.62731022 0.67402667
0.77191693 0.62519741 0.67396587
0.77374315 0.62375605 0.6731708
0.77370423 0.62163973 0.67310995
0.7607314 0.6651448 0.67770278
0.76069295 0.66305304 0.67764258
0.7625196 0.66170305 0.67684692
0.76248109 0.65960777 0.6767866
0.76244265 0.65751249 0.67672628
0.76240414 0.6554172 0.67666602
0.76236564 0.65332192 0.6766057
0.76232719 0.65122664 0.67654538
0.76415324 0.6498521 0.67574906
0.76411474 0.6477533 0.67568862
0.76687288 0.64672506 0.67452383
0.76683426 0.64462101 0.67446333
0.76679558 0.64251697 0.67440277
0.77141762 0.64217085 0.67250079
0.77137882 0.64005804 0.67243999
0.77134001 0.63794523 0.6723792
0.77130121 0.63583249 0.6723184
0.77126241 0.63371962 0.67225754
0.7712236 0.63160682 0.67219675
0.7711848 0.62949407 0.67213595
0.771146 0.62738127 0.67207515
0.77297091 0.62594354 0.67127699
0.77293205 0.62382722 0.67121607
0.77289313 0.6217109 0.67115515
0.75992966 0.66521513 0.6757707
0.75989127 0.66312337 0.6757105
0.76171654 0.66177344 0.67491162
0.7616781 0.65967816 0.6748513
0.7616396 0.65758294 0.67479098
0.76160109 0.65548766 0.67473072
0.76156265 0.65339237 0.6746704
0.76152414 0.65129709 0.67461008
0.76334888 0.64992267 0.67381048
0.76331031 0.64782387 0.6737501
0.76606649 0.64679581 0.67258042
0.76602787 0.64469177 0.67251986
0.76598918 0.64258772 0.67245936
0.77060789 0.6422419 0.67054927
0.77056903 0.64012909 0.67048848
0.77053022 0.63801628 0.67042768
0.77049142 0.63590348 0.67036688
0.77045262 0.63379067 0.67030609
0.7722764 0.63236362 0.66950494
0.77223754 0.63024729 0.66944408
0.77219868 0.62813097 0.66938317
0.77402216 0.62668991 0.66858166
0.77398324 0.62457013 0.66852063
0.77394432 0.62245029 0.66845965
0.75912797 0.66528547 0.67383862
0.75908959 0.6631937 0.67377841
0.75905114 0.66110194 0.67371821
0.75901276 0.65901017 0.67365801
0.75897431 0.65691841 0.67359781
0.7607981 0.65555811 0.67279536
0.76075959 0.65346283 0.6727351
0.76072109 0.65136755 0.67267478
0.76254451 0.64999324 0.67187196
0.76250595 0.64789444 0.67181152
0.7652601 0.64686656 0.67063701
0.76522142 0.64476252 0.67057645
0.76518279 0.64265847 0.67051589
0.7697981 0.64231294 0.66859776
0.7697593 0.64020014 0.66853696
0.76972049 0.63808733 0.66847616
0.76968169 0.63597453 0.66841537
0.76964289 0.63386172 0.66835457
0.7714653 0.63243479 0.66755021
0.77142644 0.63031846 0.66748929
0.77138758 0.62820214 0.66742837
0.77320975 0.6267612 0.66662365
0.77317083 0.62464136 0.66656268
0.77313185 0.62252158 0.66650164
0.75646526 0.66460669 0.67265153
0.75642687 0.66251844 0.67259145
0.75638855 0.66043019 0.67253131
0.75821102 0.65908051 0.67172599
0.75817263 0.65698874 0.67166579
0.75999504 0.65562856 0.67086005
0.75995654 0.65353328 0.67079973
0.75991809 0.651438 0.67073947
0.76174015 0.65006381 0.66993338
0.76170158 0.64796501 0.669873
0.76445371 0.64693731 0.6686936
0.76627541 0.64554381 0.66788697
0.76623666 0.64343625 0.66782635
0.76898837 0.64238399 0.66664624
0.77080971 0.64097118 0.66583908
0.77077085 0.63885486 0.66577816
0.77073193 0.63673854 0.6657173
0.77255303 0.63531172 0.66490972
0.7725141 0.63319194 0.66484869
0.77247518 0.6310721 0.66478771
0.7724362 0.62895226 0.66472667
0.77239728 0.62683249 0.6646657
0.77514786 0.62572056 0.66348386
0.77510881 0.62359554 0.6634227
0.75566489 0.6646769 0.67072266
0.75562656 0.66258866 0.67066258
0.75558817 0.66050041 0.6706025
0.75740933 0.65915084 0.6697939
0.75737095 0.65705907 0.6697337
0.75919199 0.65569901 0.66892475
0.76101285 0.65433192 0.66811562
0.76097429 0.65223312 0.66805524
0.76093572 0.65013433 0.66799486
0.76089722 0.64803559 0.66793442
0.76364732 0.647008 0.66675019
0.76546764 0.64561468 0.66594034
0.76542896 0.64350712 0.66587967
0.76817858 0.64245498 0.66469479
0.76999861 0.64104235 0.66388434
0.76995975 0.63892603 0.66382343
0.76992083 0.63680971 0.66376251
0.77174062 0.63538301 0.66295171
0.77170163 0.63326323 0.66289073
0.77166271 0.63114339 0.6628297
0.77162379 0.62902355 0.66276866
0.77437246 0.62791711 0.66158217
0.77619171 0.62646407 0.6607706
0.77615261 0.62433553 0.66070938
0.75207692 0.66362315 0.66992104
0.75203866 0.66154009 0.66986108
0.75478786 0.66057062 0.66867363
0.75660765 0.65922117 0.66786182
0.75656921 0.65712941 0.66780162
0.75838894 0.65576947 0.66698945
0.75835049 0.65367419 0.66692913
0.75831199 0.6515789 0.66686881
0.76013136 0.6502049 0.66605628
0.76009279 0.64810616 0.6659959
0.76284087 0.64707875 0.66480678
0.76465988 0.64568549 0.66399372
0.7646212 0.64357793 0.66393304
0.76736885 0.64252603 0.66274327
0.76918751 0.64111346 0.66192961
0.76914859 0.6389972 0.66186869
0.76910973 0.63688087 0.66180778
0.77092814 0.6354543 0.6609937
0.77088922 0.63333446 0.66093272
0.7708503 0.63121468 0.66087168
0.77081132 0.62909484 0.66081071
0.77355796 0.62798858 0.65961933
0.7753759 0.62653565 0.65880454
0.7753368 0.62440705 0.65874326
0.7752977 0.62227851 0.65868199
0.75127864 0.66369319 0.66799706
0.75124037 0.66161013 0.6679371
0.75398749 0.66064084 0.66674483
0.75580597 0.65929151 0.66592973
0.75576752 0.65719974 0.66586953
0.75758594 0.65583986 0.66505414
0.75754744 0.65374464 0.66499382
0.75750893 0.65164936 0.6649335
0.76211178 0.65135759 0.66298449
0.76207316 0.64925355 0.66292393
0.76203448 0.6471495 0.66286337
0.76385218 0.64575636 0.66204703
0.76381344 0.6436488 0.66198641
0.76841527 0.64330095 0.66003573
0.7702325 0.64188498 0.65921879
0.77019358 0.6397652 0.65915775
0.77015465 0.63764536 0.65909672
0.77289963 0.63656032 0.65790111
0.77286059 0.63443524 0.65783995
0.77282161 0.63231015 0.6577788
0.77278256 0.63018507 0.65771765
0.77459919 0.62873584 0.65689969
0.77456009 0.62660724 0.65683842
0.77452099 0.62447864 0.6567772
0.77448189 0.62235004 0.65671593
0.75048029 0.66376323 0.66607308
0.75044203 0.66168016 0.66601312
0.75318712 0.66071105 0.66481596
0.75500429 0.65936184 0.66399765
0.75496584 0.65727007 0.66393745
0.75678289 0.65591031 0.66311878
0.7585997 0.65454364 0.66229999
0.75856113 0.65244484 0.66223961
0.76130539 0.65142834 0.66104108
0.76126677 0.6493243 0.66098052
0.76122808 0.64722025 0.66091996
0.76582694 0.64689374 0.65896183
0.76578814 0.64478093 0.65890104
0.76760417 0.64337212 0.658081
0.76942009 0.64195627 0.65726078
0.76938111 0.63983649 0.65719974
0.76934218 0.63771665 0.65713876
0.77208519 0.63663179 0.65593827
0.77204615 0.6345067 0.65587711
0.77200711 0.63238162 0.65581596
0.77196807 0.63025653 0.6557548
0.77378339 0.62880737 0.65493363
0.77374429 0.62667882 0.65487236
0.77370518 0.62455022 0.65481108
0.77366608 0.62242162 0.65474981
0.74968195 0.66383326 0.66414911
0.74964368 0.6617502 0.66408914
0.75238681 0.66078126 0.66288716
0.75420254 0.65943217 0.66206557
0.75416416 0.65734041 0.66200536
0.75412571 0.65524864 0.66194516
0.75779533 0.65461421 0.66036141
0.75775677 0.65251541 0.66030103
0.75771821 0.65041661 0.66024065
0.75767964 0.64831787 0.66018021
0.76042169 0.647291 0.65897655
0.76223665 0.6458981 0.65815377
0.76219797 0.64379054 0.65809309
0.76493955 0.64273918 0.65688872
0.76675421 0.64132696 0.65606534
0.76671529 0.63921064 0.65600443
0.76852971 0.63778794 0.65518075
0.76849079 0.6356681 0.65511978
0.76845187 0.63354832 0.65505874
0.76841295 0.63142848 0.65499777
0.76837403 0.62930864 0.65493673
0.77111459 0.62820292 0.65373081
0.77107555 0.62607783 0.65366966
0.77103651 0.62395275 0.6536085
0.77285028 0.62249321 0.65278375
0.74888361 0.6639033 0.66222513
0.74884534 0.66182023 0.66216516
0.75158644 0.66085148 0.66095829
0.75340086 0.65950251 0.66013354
0.75336248 0.65741074 0.66007334
0.75332403 0.65531898 0.66001314
0.75699091 0.65468472 0.65842289
0.7569524 0.65258598 0.65836245
0.75691384 0.65048718 0.65830207
0.75687528 0.64838839 0.65824169
0.7596153 0.64736176 0.65703315
0.76142895 0.64596897 0.65620708
0.76139021 0.64386141 0.65614647
0.76412982 0.64281017 0.65493721
0.76594311 0.64139813 0.65411061
0.76590419 0.63928181 0.65404969
0.7677173 0.63785917 0.6532228
0.76767838 0.63573939 0.65316176
0.7676394 0.63361955 0.65310079
0.76760048 0.63149977 0.65303975
0.76756155 0.62937993 0.65297878
0.77030015 0.62827432 0.65176797
0.77026111 0.6261493 0.65170681
0.77022207 0.62402421 0.65164566
0.77203447 0.62256479 0.65081769
0.74808526 0.66397333 0.66030115
0.74804699 0.66189027 0.66024119
0.75078607 0.66092169 0.65902948
0.75259918 0.65957284 0.65820146
0.75256073 0.65748107 0.65814126
0.75252235 0.65538931 0.65808105
0.75433528 0.65402645 0.65725255
0.75429678 0.65193117 0.65719223
0.75610948 0.65055776 0.65636355
0.75607091 0.64845896 0.65630311
0.75880891 0.64743251 0.65508974
0.75877029 0.64532846 0.65502918
0.7587316 0.64322442 0.65496862
0.76332003 0.64288121 0.65298569
0.76328123 0.64076841 0.6529249
0.76324242 0.6386556 0.6528641
0.76505423 0.63723665 0.65203404
0.76686591 0.63581061 0.65120381
0.76682699 0.63369083 0.65114278
0.76678807 0.63157099 0.6510818
0.76674908 0.62945122 0.65102077
0.76671016 0.62733138 0.65095973
0.76944661 0.6262207 0.64974397
0.76940763 0.62409568 0.64968282
0.76936859 0.62197053 0.64962161
0.74728692 0.66404331 0.65837717
0.74724871 0.6619603 0.65831721
0.74998575 0.66099191 0.65710062
0.7517975 0.65964317 0.65626937
0.75175905 0.65755135 0.65620917
0.75172067 0.65545964 0.65614897
0.75353223 0.6540969 0.65531725
0.75349379 0.65200162 0.65525693
0.75530505 0.65062833 0.65442497
0.75526655 0.64852953 0.65436459
0.75522798 0.64643079 0.65430415
0.75796384 0.64539921 0.65308577
0.75792521 0.64329517 0.65302521
0.75973606 0.64189559 0.65219247
0.7624715 0.64083946 0.65097338
0.76243269 0.63872665 0.65091258
0.76424313 0.63730776 0.65007931
0.76420426 0.6351915 0.65001839
0.7641654 0.63307518 0.64995748
0.76412654 0.63095886 0.64989656
0.76408768 0.62884253 0.64983565
0.76589775 0.62740266 0.64900178
0.76585877 0.62528282 0.64894074
0.76581985 0.62316304 0.64887977
0.76578093 0.62104321 0.64881873
0.74648863 0.66411334 0.65645319
0.74645036 0.66203034 0.65639323
0.74918538 0.66106206 0.65517181
0.75099581 0.65971345 0.65433729
0.75095737 0.65762168 0.65427709
0.75276768 0.65626258 0.6534422
0.75272924 0.65416729 0.65338194
0.75269073 0.65207201 0.65332162
0.75450069 0.6506989 0.65248638
0.75446212 0.6486001 0.652426
0.75442356 0.64650136 0.65236562
0.75715744 0.6454699 0.65114236
0.75711882 0.64336586 0.6510818
0.7589283 0.6419664 0.65024585
0.76166171 0.64091051 0.64902186
0.76162291 0.6387977 0.64896107
0.76343203 0.63737893 0.64812452
0.76339316 0.63526261 0.64806366
0.7633543 0.63314635 0.64800274
0.76331544 0.63103002 0.64794183
0.76327658 0.6289137 0.64788091
0.76508528 0.62747389 0.64704376
0.76504636 0.62535411 0.64698279
0.76500744 0.62323427 0.64692175
0.76496845 0.62111449 0.64686078
0.74569029 0.66418338 0.65452921
0.74565202 0.66210037 0.65446925
0.74838501 0.66113228 0.65324295
0.75019407 0.65978378 0.6524052
0.75015569 0.65769202 0.652345
0.75196469 0.65633303 0.6515069
0.75192618 0.65423775 0.65144664
0.75188768 0.65214247 0.65138632
0.75369632 0.65076947 0.65054786
0.75365776 0.64867067 0.65048748
0.75361919 0.64657193 0.65042704
0.75358063 0.64447314 0.65036666
0.75354213 0.64237434 0.65030622
0.75812054 0.64203727 0.64829916
0.75808185 0.63992977 0.64823854
0.75804311 0.63782221 0.64817786
0.75800443 0.63571471 0.64811724
0.76073557 0.63464314 0.64688796
0.76069671 0.63253033 0.64682716
0.76250434 0.63110119 0.64598709
0.76246542 0.62898487 0.64592618
0.76242656 0.62686855 0.64586526
0.76238769 0.62475222 0.64580435
0.76234883 0.6226359 0.64574343
0.76415604 0.62118572 0.64490277
0.74766141 0.66537905 0.6514343
0.74762303 0.66329074 0.65137422
0.74943084 0.66194588 0.65053332
0.74939239 0.65985411 0.65047312
0.749354 0.65776235 0.65041292
0.75116163 0.65640348 0.6495716
0.75112313 0.6543082 0.64951128
0.75108463 0.65221292 0.64945102
0.7528919 0.65083998 0.64860928
0.75285339 0.64874125 0.6485489
0.75281483 0.64664245 0.64848852
0.75277627 0.64454365 0.64842808
0.7527377 0.64244491 0.6483677
0.75546736 0.64140338 0.64713442
0.75727409 0.64000064 0.64629185
0.75723541 0.63789308 0.64623123
0.75719666 0.63578552 0.64617056
0.75715798 0.63367802 0.64610994
0.75711924 0.63157046 0.64604926
0.75984818 0.63048857 0.64481485
0.75980937 0.62837577 0.64475399
0.75977057 0.62626296 0.6446932
0.76157659 0.62482339 0.64384961
0.76153773 0.62270707 0.6437887
0.76149887 0.62059075 0.64372778
0.74870598 0.66619974 0.64872164
0.74866754 0.66410798 0.64866143
0.74862915 0.66201621 0.64860123
0.74859071 0.65992445 0.64854103
0.74855226 0.65783268 0.64848083
0.75035858 0.65647393 0.64763629
0.75216466 0.65510815 0.64679158
0.7521261 0.65300936 0.64673114
0.75208753 0.65091056 0.64667076
0.75204897 0.64881182 0.64661032
0.75201046 0.64671302 0.64654994
0.7519719 0.64461422 0.64648956
0.75193334 0.64251548 0.64642912
0.75466096 0.64147413 0.64519101
0.75646633 0.64007151 0.64434522
0.75642765 0.63796395 0.64428455
0.75638896 0.63585639 0.64422393
0.75635022 0.63374883 0.64416325
0.75631154 0.63164127 0.64410257
0.75903839 0.63055962 0.64286333
0.75899959 0.62844682 0.64280254
0.75896078 0.62633395 0.64274168
0.76076549 0.62489456 0.64189488
0.76072663 0.62277824 0.64183396
0.76068777 0.62066191 0.64177305
0.7479043 0.66627008 0.64678961
0.74786586 0.66417831 0.64672941
0.74782741 0.66208655 0.64666921
0.74778903 0.65999478 0.64660901
0.74775058 0.65790302 0.64654881
0.74955553 0.65654439 0.64570099
0.74951708 0.65444911 0.64564067
0.74947858 0.65235382 0.64558035
0.74944007 0.6502586 0.64552009
0.74940163 0.64816332 0.64545977
0.74936312 0.64606804 0.64539945
0.75116754 0.64468479 0.64455098
0.75112897 0.64258605 0.6444906
0.75109041 0.64048725 0.64443016
0.75381595 0.63944083 0.64318705
0.75377727 0.63733679 0.64312649
0.7555812 0.63592726 0.64227724
0.75554246 0.6338197 0.64221662
0.75550377 0.63171214 0.64215595
0.75546509 0.62960464 0.64209533
0.75542635 0.62749708 0.64203465
0.75538766 0.62538952 0.64197397
0.75811225 0.62429219 0.64072937
0.75807345 0.62217945 0.64066857
0.75987667 0.62073308 0.63981831
0.74894494 0.66709119 0.64406717
0.74890643 0.66499591 0.64400685
0.74702573 0.66215688 0.64473712
0.74698734 0.66006511 0.64467692
0.7469489 0.65797335 0.64461672
0.74875253 0.65661484 0.64376563
0.74871403 0.65451956 0.64370537
0.74867553 0.65242428 0.64364505
0.74863708 0.65032899 0.64358473
0.74859858 0.64823371 0.64352447
0.74856007 0.64613843 0.64346415
0.75036311 0.64475536 0.64261246
0.75032461 0.64265662 0.64255202
0.75028604 0.64055783 0.64249164
0.75300956 0.63951153 0.64124364
0.75297087 0.63740748 0.64118308
0.75477344 0.63599813 0.64033061
0.75473475 0.63389057 0.64026994
0.75469601 0.63178301 0.64020932
0.75465733 0.62967551 0.64014864
0.75461859 0.62756795 0.64008802
0.7545799 0.62546039 0.64002734
0.75730246 0.62436324 0.63877785
0.75726366 0.62225044 0.63871706
0.75906557 0.62080425 0.63786352
0.74998277 0.66791248 0.64133829
0.74994421 0.66581368 0.64127791
0.74806494 0.66297108 0.64201123
0.74802643 0.6608758 0.64195096
0.74798793 0.65878052 0.64189065
0.74794948 0.65668523 0.64183033
0.74791098 0.65459001 0.64177006
0.74787247 0.65249473 0.64170974
0.74783403 0.65039945 0.64164943
0.74779552 0.64830416 0.64158911
0.74775702 0.64620888 0.64152884
0.74771857 0.64411366 0.64146852
0.74768007 0.64201838 0.64140821
0.74948168 0.6406284 0.64055306
0.75220317 0.63958228 0.63930023
0.75216448 0.63747823 0.63923967
0.75212586 0.63537419 0.63917911
0.75208718 0.63327014 0.63911855
0.75204855 0.63116616 0.63905799
0.75384957 0.62974638 0.63820201
0.75381088 0.62763882 0.63814133
0.75377214 0.62553126 0.63808072
0.75649273 0.62443429 0.63682634
0.75645393 0.62232149 0.63676554
0.75825447 0.62087536 0.63590878
0.74917841 0.66798306 0.63939977
0.74913985 0.66588426 0.63933933
0.74726188 0.66304153 0.64007592
0.74722338 0.66094625 0.6400156
0.74718493 0.65885097 0.63995534
0.74714643 0.65675569 0.63989502
0.74710792 0.65466046 0.6398347
0.74706948 0.65256518 0.63977444
0.74703097 0.6504699 0.63971412
0.74699247 0.64837462 0.6396538
0.74695402 0.64627934 0.63959354
0.74691552 0.64418411 0.63953322
0.74687701 0.64208883 0.6394729
0.74867725 0.64069897 0.63861454
0.75139672 0.63965303 0.63735682
0.75135809 0.63754898 0.63729626
0.75131947 0.63544494 0.6372357
0.75128078 0.6333409 0.63717514
0.75124216 0.63123685 0.63711458
0.75304186 0.62981719 0.63625532
0.75300312 0.62770969 0.63619471
0.75296444 0.62560213 0.63613403
0.75568295 0.62450534 0.63487488
0.75564414 0.62239254 0.63481402
0.75560534 0.62027973 0.63475323
0.75296956 0.66993141 0.63546115
0.75109273 0.66707623 0.63620061
0.75105411 0.66497225 0.63614005
0.75101542 0.6628682 0.63607949
0.7509768 0.66076416 0.63601893
0.74818128 0.65755975 0.63715917
0.74814272 0.65546095 0.63709879
0.74810416 0.65336221 0.63703841
0.74806565 0.65126342 0.63697797
0.74802709 0.64916462 0.63691759
0.74798852 0.64706588 0.63685715
0.74794996 0.64496708 0.63679677
0.74791145 0.64286828 0.63673639
0.75062901 0.64182782 0.63547397
0.75059032 0.63972378 0.63541341
0.7505517 0.63761973 0.63535285
0.75051308 0.63551569 0.63529229
0.75047439 0.63341165 0.63523173
0.75043577 0.6313076 0.63517118
0.7522341 0.62988806 0.6343087
0.75219536 0.6277805 0.63424802
0.75491202 0.62668914 0.63298416
0.75487322 0.62457639 0.63292336
0.75483441 0.62246358 0.63286257
0.75479561 0.62035078 0.63280171
0.75216186 0.67000228 0.63351446
0.75028634 0.66714698 0.6342572
0.75024772 0.665043 0.63419664
0.75020903 0.66293895 0.63413608
0.75017041 0.66083491 0.63407552
0.74737692 0.65763032 0.63522065
0.74733835 0.65553153 0.63516021
0.74729979 0.65343279 0.63509983
0.74726123 0.65133399 0.63503945
0.74722272 0.64923519 0.63497901
0.74718416 0.64713645 0.63491863
0.74714559 0.64503765 0.63485825
0.74710703 0.64293885 0.63479781
0.74982262 0.64189857 0.63353056
0.74978393 0.63979453 0.63347
0.74974531 0.63769048 0.63340944
0.74970669 0.63558644 0.63334888
0.749668 0.6334824 0.63328832
0.74962938 0.63137835 0.63322777
0.75142634 0.62995893 0.63236207
0.75138766 0.62785137 0.63230139
0.75410223 0.62676018 0.63103265
0.75406343 0.62464738 0.63097185
0.75402462 0.62253463 0.63091105
0.75398582 0.62042183 0.6308502
0.75410742 0.67120016 0.63035804
0.75406861 0.66908735 0.63029724
0.75127667 0.66585803 0.63144654
0.75123799 0.66375047 0.63138586
0.74936402 0.66090566 0.63213211
0.74932534 0.65880162 0.63207155
0.74928671 0.65669757 0.632011
0.74924809 0.65459353 0.63195044
0.7492094 0.65248948 0.63188988
0.74917078 0.65038544 0.63182932
0.74637979 0.64720702 0.63298005
0.74634123 0.64510822 0.63291967
0.74630266 0.64300942 0.63285929
0.74901623 0.64196932 0.63158715
0.74897754 0.63986528 0.63152659
0.74893892 0.63776124 0.63146603
0.74890023 0.63565719 0.63140547
0.74886161 0.63355315 0.63134491
0.74882299 0.6314491 0.63128436
0.75061864 0.6300298 0.63041538
0.75057989 0.62792224 0.63035476
0.7532925 0.62683123 0.62908113
0.7532537 0.62471843 0.62902033
0.7532149 0.62260562 0.62895954
0.75501007 0.62116003 0.62808979
0.75513184 0.67202264 0.6275968
0.75325888 0.66915834 0.62834573
0.75322008 0.66704553 0.62828493
0.75318128 0.66493279 0.62822413
0.75314248 0.66281998 0.62816334
0.7503528 0.65960628 0.62931788
0.75031412 0.65749872 0.62925726
0.7484417 0.65466428 0.63000703
0.74840301 0.65256023 0.62994647
0.74836439 0.65045619 0.62988591
0.74832571 0.64835215 0.62982535
0.74828708 0.6462481 0.6297648
0.74824846 0.64414406 0.62970424
0.74820977 0.64204007 0.62964374
0.74817115 0.63993603 0.62958318
0.74813253 0.63783199 0.62952262
0.74992698 0.63642329 0.62865072
0.7498883 0.63431573 0.62859005
0.74984956 0.63220817 0.62852937
0.75256038 0.63112789 0.62725121
0.75252157 0.62901509 0.62719041
0.75248271 0.62690228 0.62712961
0.75244391 0.62478948 0.62706882
0.75240511 0.62267667 0.62700802
0.75419897 0.62123114 0.62613505
0.75432074 0.67209381 0.62564206
0.7524491 0.66922939 0.62639421
0.75241029 0.66711658 0.62633342
0.75237149 0.66500378 0.62627262
0.75233269 0.66289103 0.62621182
0.7495451 0.65967715 0.62737125
0.74950635 0.65756959 0.62731057
0.74763525 0.65473497 0.62806362
0.74759662 0.65263098 0.62800306
0.747558 0.65052694 0.6279425
0.74751931 0.6484229 0.62788194
0.74748069 0.64631885 0.62782139
0.74744207 0.64421481 0.62776083
0.74740338 0.64211076 0.62770033
0.74736476 0.64000672 0.62763977
0.74732614 0.63790274 0.62757921
0.74911928 0.63649416 0.62670404
0.74908054 0.6343866 0.62664342
0.74904186 0.63227904 0.62658274
0.75175059 0.63119894 0.62529975
0.75171179 0.62908614 0.6252389
0.75167298 0.62697333 0.6251781
0.75163418 0.62486053 0.6251173
0.75159538 0.62274772 0.62505651
0.75338787 0.62130231 0.62418032
0.75350964 0.67216492 0.62368733
0.75347078 0.67004865 0.62362641
0.75160056 0.66718763 0.6243819
0.75156176 0.66507483 0.6243211
0.75152296 0.66296202 0.62426031
0.75148416 0.66084921 0.62419951
0.75144529 0.65873641 0.62413871
0.74865991 0.6555329 0.62530327
0.74862123 0.65342534 0.62524265
0.74858248 0.65131778 0.62518197
0.7485438 0.64921027 0.62512136
0.74850506 0.64710271 0.62506068
0.74846637 0.64499515 0.625
0.74842763 0.64288759 0.62493938
0.74838895 0.64078009 0.6248787
0.7483502 0.63867253 0.62481803
0.74831152 0.63656503 0.62475741
0.74827284 0.63445747 0.62469673
0.74823409 0.63234991 0.62463611
0.75094086 0.63126999 0.62334824
0.75090206 0.62915719 0.62328744
0.75086319 0.62704432 0.62322658
0.75082439 0.62493157 0.62316579
0.75078559 0.62281877 0.62310499
0.75257677 0.62137347 0.62222552
0.7545287 0.67298788 0.62091309
0.75448978 0.6708681 0.62085211
0.75262082 0.6680035 0.62161076
0.75258195 0.66588718 0.62154984
0.75071317 0.66303307 0.62230879
0.75067437 0.66092026 0.62224799
0.75063556 0.65880746 0.6221872
0.74785215 0.65560377 0.62335664
0.74781346 0.65349621 0.62329596
0.74777472 0.65138865 0.62323534
0.74773604 0.64928108 0.62317467
0.74769735 0.64717358 0.62311405
0.74765861 0.64506602 0.62305337
0.74761993 0.64295846 0.62299269
0.74758118 0.64085096 0.62293208
0.7475425 0.6387434 0.6228714
0.74750376 0.63663584 0.62281072
0.74746507 0.63452834 0.6227501
0.74742633 0.63242078 0.62268943
0.75013107 0.63134098 0.62139672
0.75009227 0.62922823 0.62133592
0.75005347 0.62711537 0.62127507
0.75001466 0.62500256 0.62121427
0.74997586 0.62288982 0.62115347
0.75176561 0.62144464 0.62027079
0.75375515 0.675179 0.61901611
0.75371623 0.67305917 0.61895514
0.75367731 0.67093939 0.6188941
0.75180972 0.66807461 0.61965603
0.75177085 0.66595834 0.61959511
0.74990344 0.66310412 0.62035728
0.74986464 0.66099131 0.62029648
0.74982584 0.65887851 0.62023568
0.74704444 0.65567458 0.62141001
0.7470057 0.65356708 0.62134933
0.74696702 0.65145952 0.62128866
0.74692827 0.64935195 0.62122804
0.74688959 0.64724445 0.62116736
0.74685085 0.64513689 0.62110674
0.74681216 0.64302933 0.62104607
0.74677348 0.64092183 0.62098539
0.74673474 0.63881427 0.62092477
0.74669605 0.63670671 0.62086409
0.74665731 0.63459915 0.62080342
0.74661863 0.63249165 0.6207428
0.74932134 0.63141203 0.6194452
0.74928254 0.62929922 0.61938441
0.74924368 0.62718642 0.61932361
0.74920487 0.62507361 0.61926275
0.74916607 0.62296081 0.61920196
0.75095451 0.62151575 0.61831605
0.75294274 0.67525029 0.61705816
0.75290382 0.67313045 0.61699712
0.75286484 0.67101067 0.61693615
0.75099862 0.66814578 0.61770123
0.75095975 0.66602945 0.61764038
0.74909365 0.66317517 0.61840576
0.74905485 0.6610623 0.61834496
0.74901605 0.65894955 0.61828417
0.74897724 0.65683675 0.61822337
0.74893844 0.65472394 0.61816257
0.74615926 0.65153039 0.61934203
0.74612057 0.64942282 0.61928135
0.74608183 0.64731532 0.61922073
0.74604315 0.64520776 0.61916006
0.7460044 0.6431002 0.61909944
0.74596572 0.64099264 0.61903876
0.74592698 0.63888514 0.61897808
0.74588829 0.63677758 0.61891747
0.74584961 0.63467002 0.61885679
0.74581087 0.63256246 0.61879611
0.74851155 0.63148308 0.61749369
0.74847275 0.62937027 0.61743289
0.74843395 0.62725747 0.6173721
0.74839514 0.62514466 0.6173113
0.74835634 0.62303185 0.61725044
0.75014341 0.62158692 0.61636132
0.75213027 0.67532152 0.61510015
0.75209135 0.67320174 0.61503917
0.75205243 0.6710819 0.61497813
0.75018752 0.66821694 0.6157465
0.75014865 0.66610062 0.61568558
0.74828392 0.66324621 0.61645424
0.74824512 0.66113335 0.61639345
0.74820632 0.65902054 0.61633265
0.74816746 0.6569078 0.61627185
0.74812865 0.65479499 0.61621106
0.74535149 0.65160125 0.6173954
0.74531281 0.64949369 0.61733472
0.74527413 0.64738613 0.61727405
0.74341005 0.6445685 0.61804378
0.74337143 0.64246452 0.61798322
0.74333274 0.64036047 0.61792266
0.74329412 0.63825643 0.61786211
0.7432555 0.63615239 0.61780161
0.74321681 0.63404834 0.61774105
0.74317819 0.6319443 0.61768049
0.74496442 0.63052583 0.6167888
0.74492574 0.62841827 0.61672819
0.74488699 0.62631071 0.61666751
0.74484831 0.62420321 0.61660689
0.74480957 0.62209564 0.61654621
0.74750775 0.6209901 0.61523813
0.749493 0.67463702 0.61397445
0.74945414 0.6725207 0.6139136
0.74941528 0.67040443 0.61385268
0.74755174 0.66754282 0.61462438
0.74751294 0.66543001 0.61456358
0.74747413 0.6633172 0.61450279
0.74743533 0.6612044 0.61444193
0.74739653 0.65909159 0.61438113
0.74462122 0.65588719 0.61557001
0.74458247 0.65377969 0.61550939
0.74271959 0.65095139 0.61628205
0.74268097 0.64884734 0.61622149
0.74264228 0.6467433 0.61616093
0.74260366 0.64463925 0.61610037
0.74256504 0.64253527 0.61603981
0.74252635 0.64043123 0.61597925
0.74248773 0.63832718 0.6159187
0.73971343 0.63517886 0.61710924
0.73967487 0.63308007 0.6170488
0.7396363 0.63098127 0.61698842
0.7395978 0.62888253 0.61692804
0.73955923 0.62678373 0.6168676
0.73952067 0.62468493 0.61680722
0.74221718 0.62359887 0.61549485
0.74217856 0.62149483 0.61543429
0.74213994 0.61939085 0.61537373
0.7486819 0.67470819 0.61201972
0.74864304 0.67259187 0.6119588
0.74860418 0.67047554 0.61189789
0.74674201 0.66761386 0.61267287
0.74670321 0.66550106 0.61261207
0.7466644 0.66338825 0.61255127
0.7466256 0.66127545 0.61249042
0.7465868 0.65916264 0.61242962
0.74381346 0.65595806 0.61362338
0.74377477 0.6538505 0.6135627
0.7419132 0.65102214 0.61433864
0.74187458 0.64891809 0.61427808
0.74183589 0.64681405 0.61421752
0.74179727 0.64471 0.61415696
0.74175858 0.64260596 0.6140964
0.74171996 0.64050192 0.61403584
0.74168134 0.63839793 0.61397529
0.73890907 0.63524944 0.61517066
0.7388705 0.63315064 0.61511028
0.73883194 0.63105184 0.61504984
0.73879337 0.6289531 0.61498946
0.73875487 0.6268543 0.61492908
0.7387163 0.6247555 0.61486864
0.74141079 0.62366962 0.61355144
0.74137217 0.62156558 0.61349088
0.74133348 0.6194616 0.61343032
0.74604869 0.67402333 0.61090374
0.74600989 0.67191052 0.61084294
0.74597102 0.66979772 0.61078215
0.74593222 0.66768491 0.61072135
0.74589342 0.66557211 0.61066055
0.74312186 0.66235155 0.61185873
0.74308312 0.66024399 0.61179805
0.74304444 0.65813643 0.61173737
0.74118412 0.65530092 0.61251634
0.74114543 0.65319687 0.61245579
0.74110681 0.65109283 0.61239523
0.74106812 0.64898884 0.61233467
0.7410295 0.6468848 0.61227411
0.73825884 0.64371508 0.61347371
0.73822027 0.64161634 0.61341333
0.73818177 0.63951755 0.61335289
0.73814321 0.63741875 0.61329252
0.7362836 0.63462359 0.61407262
0.7362451 0.63252831 0.6140123
0.73620665 0.63043302 0.61395204
0.73616815 0.62833774 0.61389172
0.73612964 0.62624246 0.6138314
0.7360912 0.62414718 0.61377114
0.73605269 0.62205195 0.61371082
0.73601419 0.61995667 0.6136505
0.73779625 0.61852974 0.61274892
0.74250764 0.6729601 0.61021531
0.74246895 0.6708526 0.61015469
0.74243021 0.66874504 0.61009401
0.74239153 0.66663748 0.61003333
0.74235284 0.66452998 0.60997272
0.74049366 0.6616838 0.61075455
0.74045497 0.65957975 0.61069405
0.74041635 0.65747571 0.61063349
0.73764724 0.65427953 0.61183721
0.73760867 0.65218073 0.61177677
0.73757011 0.65008199 0.61171639
0.73571146 0.64726561 0.61249912
0.73567301 0.64517039 0.6124388
0.73563451 0.64307511 0.61237854
0.735596 0.64097983 0.61231822
0.73555756 0.63888454 0.6122579
0.7336992 0.63608921 0.61304128
0.73366076 0.63399744 0.61298108
0.73362231 0.63190573 0.61292088
0.73176432 0.6291244 0.61370462
0.73172599 0.62703615 0.61364454
0.73168761 0.62494791 0.61358446
0.73164928 0.62285966 0.61352432
0.73161089 0.62077141 0.61346424
0.73157257 0.61868316 0.61340415
0.73335338 0.61726338 0.61249948
0.74169993 0.67303097 0.60826868
0.74166119 0.67092347 0.608208
0.74162251 0.66881591 0.60814738
0.74158376 0.66670835 0.60808671
0.74154508 0.66460079 0.60802603
0.7396872 0.66175455 0.60881114
0.73964858 0.6596505 0.60875058
0.73960996 0.65754646 0.60869008
0.73684281 0.6543501 0.60989863
0.73680431 0.6522513 0.60983825
0.73676574 0.65015256 0.60977781
0.73490846 0.64733607 0.61056381
0.73486996 0.64524078 0.61050349
0.73483145 0.6431455 0.61044317
0.73479301 0.64105028 0.61038291
0.7347545 0.638955 0.61032259
0.73289746 0.63615954 0.6111092
0.73285908 0.63406777 0.611049
0.73282063 0.63197607 0.6109888
0.730964 0.62919462 0.61177582
0.73092562 0.62710637 0.61171567
0.73088729 0.62501812 0.61165559
0.73084891 0.62292987 0.61159551
0.73081058 0.62084162 0.61153537
0.7307722 0.61875337 0.61147529
0.73255169 0.61733371 0.61056739
0.73907405 0.67234546 0.60717052
0.73903543 0.67024142 0.60710996
0.73899674 0.66813737 0.60704941
0.73895812 0.66603339 0.60698885
0.7389195 0.66392934 0.60692829
0.73615408 0.66071701 0.6081413
0.73611557 0.65861821 0.60808086
0.73607701 0.65651947 0.60802048
0.73603845 0.65442067 0.6079601
0.73599988 0.65232188 0.60789967
0.73414391 0.6495018 0.60868877
0.73228788 0.6466887 0.60947812
