ply
format ascii 1.0
comment Created by Open3D
element vertex 1795
property double x
property double y
property double z
end_header
0.963912 0.187327 0.63439
0.96311 0.206975 0.635381
0.962362 0.216788 0.636003
0.961884 0.226587 0.636525
0.943079 0.49809 0.632422
0.961479 0.236379 0.63702
0.891709 0.312058 0.517309
0.961408 0.247391 0.637437
0.960267 0.258367 0.638244
0.929014 0.40832 0.594351
0.95487 0.0989719 0.603096
0.95905 0.267247 0.639104
0.95775 0.271726 0.639205
0.956736 0.277755 0.640223
0.954571 0.297112 0.641701
0.907221 0.420331 0.55807
0.955811 0.316648 0.641941
0.95677 0.337149 0.64225
0.95681 0.347985 0.642764
0.956833 0.358076 0.643038
0.959878 0.396815 0.643671
0.960409 0.416813 0.643698
0.959751 0.436268 0.644748
0.899095 0.441504 0.551961
0.959854 0.447225 0.645099
0.959697 0.458132 0.645544
0.958405 0.467602 0.646352
0.956201 0.476871 0.647486
0.95116 0.516865 0.650748
0.956101 0.537341 0.649669
0.955395 0.556837 0.650694
0.952626 0.568694 0.651753
0.967561 0.13912 0.637893
0.963187 0.400947 0.648738
0.943437 0.548656 0.625009
0.963369 0.408279 0.648932
0.89176 0.561209 0.558696
0.926562 0.139337 0.562524
0.950817 0.497564 0.650904
0.881543 0.34222 0.507339
0.950497 0.506774 0.651649
0.955698 0.514608 0.65675
0.915884 0.549993 0.592274
0.955637 0.497662 0.657745
0.975714 0.0779197 0.636733
0.972715 0.1079 0.638865
0.972316 0.117811 0.639358
0.971697 0.12773 0.639931
0.97084 0.147157 0.642229
0.840752 0.483511 0.483092
0.968062 0.157855 0.641735
0.910066 0.470303 0.569212
0.967388 0.187003 0.643564
0.96717 0.196827 0.643989
0.951864 0.316579 0.624631
0.965318 0.216459 0.645345
0.917588 0.0719538 0.541851
0.96454 0.226251 0.645969
0.934626 0.411904 0.602677
0.961118 0.270203 0.64745
0.959409 0.287116 0.649956
0.95865 0.296805 0.65057
0.959219 0.306569 0.650712
0.960857 0.326154 0.650818
0.960642 0.347354 0.651644
0.959677 0.36737 0.652695
0.912622 0.301225 0.55522
0.901021 0.566023 0.567563
0.960276 0.377157 0.652827
0.88416 0.559609 0.551419
0.961456 0.387024 0.652754
0.963204 0.396718 0.652731
0.964105 0.416432 0.652199
0.965809 0.417277 0.654213
0.892862 0.351957 0.518252
0.888994 0.421655 0.533409
0.964418 0.426481 0.652791
0.965488 0.437417 0.653872
0.966294 0.454575 0.654422
0.847706 0.464322 0.487566
0.907543 0.55075 0.573522
0.967303 0.464214 0.657282
0.963765 0.467986 0.654236
0.959371 0.496266 0.662161
0.861056 0.344436 0.488351
0.959126 0.507113 0.662798
0.960177 0.527276 0.65946
0.957713 0.569326 0.661427
0.922261 0.44982 0.584477
0.957291 0.575852 0.663488
0.962642 0.0666291 0.600238
0.963716 0.278035 0.655434
0.969298 0.42488 0.662957
0.962174 0.569984 0.670547
0.940955 0.101557 0.576137
0.983461 0.0672241 0.644124
0.85816 0.234376 0.47638
0.936385 0.070384 0.559018
0.982832 0.0756951 0.646283
0.980046 0.087694 0.645776
0.978786 0.107377 0.647172
0.870537 0.373307 0.496632
0.97793 0.12723 0.64817
0.977249 0.137158 0.648757
0.975728 0.147118 0.64964
0.974183 0.156522 0.650883
0.857655 0.452577 0.499606
0.974635 0.163151 0.65319
0.901683 0.271636 0.533803
0.972538 0.167504 0.651101
0.971705 0.18666 0.652437
0.874033 0.548676 0.536102
0.971313 0.19649 0.652922
0.903325 0.530776 0.563703
0.97032 0.206318 0.653614
0.969431 0.216129 0.654271
0.933572 0.356173 0.602832
0.968296 0.225922 0.655012
0.968032 0.246714 0.655836
0.966975 0.283199 0.660075
0.964956 0.29663 0.65867
0.873679 0.082413 0.484189
0.967748 0.314953 0.660923
0.965607 0.33565 0.659815
0.968413 0.415278 0.662928
0.968173 0.426225 0.661921
0.968457 0.434598 0.662301
0.969017 0.436638 0.662177
0.969677 0.445757 0.662267
0.882199 0.46193 0.526232
0.967843 0.469048 0.662067
0.968528 0.298937 0.663963
0.876815 0.263408 0.498412
0.968909 0.319688 0.66456
0.964452 0.357345 0.662272
0.963551 0.366965 0.662925
0.971487 0.439375 0.667874
0.96517 0.485941 0.667833
0.891311 0.500147 0.547263
0.958459 0.128782 0.623855
0.962847 0.507226 0.669389
0.964236 0.517206 0.669257
0.886704 0.541512 0.549773
0.965858 0.527258 0.669046
0.973321 0.09796 0.638297
0.966741 0.537152 0.669087
0.965476 0.556196 0.670197
0.964033 0.565992 0.670967
0.964906 0.57488 0.6749
0.962104 0.576409 0.67131
0.985213 0.0931794 0.653606
0.972483 0.464332 0.668923
0.950369 0.104506 0.595801
0.971139 0.405824 0.669396
0.988528 0.0667476 0.652855
0.985797 0.0859089 0.655053
0.981849 0.136776 0.657591
0.980879 0.146713 0.658272
0.978695 0.166361 0.660265
0.979039 0.184923 0.664135
0.976407 0.186612 0.660301
0.976471 0.196137 0.661512
0.975955 0.205971 0.662033
0.975493 0.215795 0.662536
0.930321 0.0710176 0.554956
0.974754 0.225607 0.663132
0.974099 0.235408 0.6637
0.973528 0.26723 0.665011
0.853522 0.32307 0.479419
0.972942 0.276992 0.665553
0.971921 0.286721 0.666243
0.972263 0.341427 0.671909
0.973203 0.455562 0.670667
0.971943 0.296425 0.667866
0.971679 0.306172 0.668297
0.879717 0.262247 0.501993
0.971834 0.315736 0.66885
0.878012 0.210487 0.49873
0.97189 0.325437 0.669809
0.970381 0.357158 0.671813
0.833842 0.537388 0.49287
0.969821 0.36683 0.672342
0.970202 0.376602 0.672555
0.973625 0.406524 0.673258
0.973563 0.416055 0.673378
0.972123 0.426069 0.671916
0.936182 0.0827659 0.563575
0.972397 0.435185 0.672842
0.888433 0.461098 0.534904
0.950118 0.301817 0.618792
0.973114 0.467274 0.67436
0.967904 0.496303 0.677527
0.967287 0.507057 0.678113
0.96848 0.516997 0.678055
0.970005 0.556075 0.678906
0.967691 0.575362 0.680688
0.984213 0.0893051 0.653812
0.966113 0.580459 0.680657
0.911616 0.529394 0.581217
0.980683 0.207743 0.668699
0.974572 0.375422 0.677466
0.975474 0.419378 0.6787
0.993325 0.0663018 0.661695
0.901982 0.310712 0.528433
0.991378 0.0764683 0.6627
0.989094 0.0847713 0.662449
0.988717 0.08854 0.665313
0.987017 0.0967501 0.664864
0.985264 0.106803 0.6658
0.984576 0.13651 0.667067
0.984601 0.146385 0.667405
0.982932 0.176054 0.668998
0.98215 0.195774 0.669949
0.982302 0.205129 0.670723
0.980825 0.216308 0.670245
0.980355 0.244929 0.672265
0.909454 0.260329 0.550698
0.979652 0.266987 0.67327
0.975943 0.426244 0.680618
0.978777 0.276992 0.674628
0.977946 0.286443 0.675808
0.977274 0.295886 0.676932
0.932297 0.499141 0.605474
0.976332 0.305831 0.678307
0.975871 0.315245 0.678237
0.976253 0.317802 0.682603
0.975562 0.325068 0.678344
0.976291 0.326336 0.682888
0.975642 0.33498 0.679256
0.876024 0.292731 0.501303
0.931629 0.420321 0.592393
0.976784 0.355671 0.68086
0.977575 0.36698 0.680918
0.908459 0.300525 0.542431
0.978172 0.376993 0.68107
0.978067 0.386523 0.680547
0.948299 0.489243 0.640494
0.978912 0.396391 0.680611
0.978599 0.406104 0.681053
0.978318 0.41555 0.681733
0.976446 0.456544 0.68345
0.91492 0.460601 0.577264
0.975914 0.466518 0.68405
0.974965 0.47605 0.684698
0.902867 0.341141 0.5465
0.971035 0.506736 0.687073
0.97406 0.54615 0.687443
0.845595 0.494313 0.488905
0.859613 0.286249 0.481498
0.991819 0.0826786 0.670593
0.985518 0.233614 0.679206
0.984896 0.22576 0.67862
0.862926 0.4433 0.502125
0.993919 0.0759095 0.671714
0.993362 0.0788344 0.676455
0.912376 0.130233 0.534304
0.99089 0.0870335 0.674017
0.987056 0.106638 0.675579
0.986609 0.126418 0.676413
0.987129 0.136254 0.676585
0.987331 0.155977 0.677206
0.987407 0.165839 0.677524
0.986877 0.175718 0.678041
0.874953 0.173621 0.486448
0.986616 0.195432 0.678812
0.979268 0.0974311 0.646653
0.986946 0.205277 0.679046
0.986531 0.215126 0.679524
0.978386 0.336631 0.686406
0.988173 0.230906 0.685991
0.984356 0.266839 0.683048
0.983302 0.276096 0.684556
0.981102 0.295795 0.686668
0.978496 0.316569 0.689003
0.978816 0.334013 0.689591
0.98049 0.343107 0.692352
0.980866 0.354377 0.68878
0.982678 0.36503 0.688278
0.984385 0.37579 0.68861
0.985165 0.38625 0.688569
0.900179 0.211191 0.529574
0.985023 0.396375 0.688893
0.984635 0.406097 0.689356
0.983951 0.415765 0.689914
0.982353 0.43236 0.693569
0.979953 0.435528 0.691042
0.979398 0.445488 0.692422
0.97908 0.456369 0.692902
0.978798 0.466032 0.693329
0.977523 0.475495 0.694071
0.92797 0.109329 0.560055
0.976041 0.484898 0.694879
0.963957 0.406719 0.652815
0.974552 0.495483 0.695729
0.973856 0.506214 0.696328
0.974198 0.515955 0.696555
0.975106 0.535497 0.696939
0.975913 0.545361 0.697019
0.976715 0.555233 0.697102
0.976654 0.564888 0.697458
0.975325 0.57518 0.698046
0.975379 0.57975 0.702203
0.974206 0.582176 0.700124
0.996388 0.0731593 0.678745
0.988796 0.223488 0.686822
0.976363 0.522815 0.703724
0.976352 0.538505 0.704271
0.976763 0.54464 0.704352
0.995166 0.0768774 0.682987
0.95727 0.197794 0.616265
0.992302 0.0864021 0.683532
0.901816 0.0823417 0.515925
0.940989 0.537348 0.624254
0.990857 0.0964253 0.684339
0.989242 0.106439 0.685201
0.988592 0.126211 0.686092
0.989108 0.136033 0.686269
0.989775 0.145851 0.686396
0.990132 0.155692 0.686623
0.989791 0.185264 0.687756
0.984094 0.0972523 0.655525
0.990272 0.20495 0.688284
0.894759 0.421357 0.542624
0.983408 0.355524 0.696681
0.99867 0.0622286 0.68715
0.98919 0.22506 0.692264
0.883031 0.244302 0.509025
0.970928 0.386422 0.672652
0.988267 0.244225 0.691567
0.987818 0.255256 0.692092
0.987296 0.266016 0.693536
0.97656 0.0711287 0.635401
0.986097 0.275964 0.694637
0.985038 0.285699 0.69531
0.983871 0.295409 0.696016
0.982487 0.307454 0.698148
0.98042 0.324428 0.698112
0.980734 0.334534 0.698586
0.981735 0.345097 0.698335
0.983281 0.35533 0.701253
0.984495 0.362297 0.701963
0.986982 0.375922 0.697739
0.950814 0.287407 0.620299
0.986649 0.425036 0.69962
0.98497 0.432502 0.700269
0.983967 0.436946 0.701064
0.983258 0.445181 0.701391
0.982823 0.456042 0.701905
0.981795 0.465567 0.70256
0.977536 0.495865 0.704882
0.977106 0.514498 0.705392
0.976735 0.51745 0.706718
0.97595 0.533926 0.707137
0.97769 0.555102 0.709492
0.976411 0.581605 0.708278
0.965554 0.42602 0.653965
0.991866 0.174659 0.694638
0.991962 0.185032 0.694782
0.992281 0.192376 0.696221
0.943878 0.555324 0.625728
0.986337 0.367188 0.704107
0.987429 0.431897 0.705999
0.992324 0.165066 0.694751
0.998197 0.0660403 0.691307
0.939443 0.508069 0.623803
0.996196 0.0755458 0.692256
0.900144 0.171298 0.522739
0.993391 0.0955226 0.694104
0.941076 0.228219 0.592095
0.992572 0.118453 0.698715
0.952256 0.337781 0.625364
0.989115 0.395369 0.706765
0.988624 0.42384 0.707644
0.979971 0.511454 0.713602
0.992201 0.106393 0.694941
0.991114 0.125566 0.693993
0.992248 0.126198 0.698848
0.993076 0.145898 0.700359
0.993015 0.155204 0.700128
0.883376 0.272395 0.508386
0.993277 0.165412 0.700627
0.992737 0.175328 0.70003
0.993151 0.184854 0.700822
0.857947 0.463264 0.499864
0.892296 0.551441 0.557443
0.953587 0.467722 0.637753
0.992262 0.195036 0.699168
0.905894 0.447486 0.562311
0.992262 0.204601 0.699212
0.990746 0.224206 0.701638
0.990047 0.234007 0.702192
0.911678 0.239844 0.550048
0.990005 0.244476 0.70285
0.989887 0.255383 0.702694
0.989351 0.265826 0.703504
0.987904 0.285326 0.704624
0.986534 0.302949 0.705655
0.984588 0.314395 0.706651
0.983544 0.324052 0.707305
0.983032 0.334954 0.707839
0.983667 0.345952 0.708021
0.963328 0.13821 0.632863
0.985832 0.365292 0.708898
0.986526 0.375357 0.709423
0.989763 0.405275 0.707297
0.878067 0.551525 0.541935
0.988918 0.404266 0.712228
0.982274 0.286078 0.68595
0.989525 0.414524 0.708026
0.945115 0.248678 0.601768
0.989005 0.416855 0.712635
0.988397 0.425392 0.711842
0.9634 0.25802 0.6475
0.986987 0.434917 0.710697
0.985835 0.44521 0.71063
0.979642 0.515354 0.715282
0.90826 0.290821 0.54216
0.994628 0.114581 0.703077
0.976465 0.545274 0.718371
0.976336 0.564723 0.719319
0.976567 0.574619 0.71935
0.988101 0.386237 0.706509
0.994988 0.103056 0.702571
0.997901 0.074049 0.702612
0.965208 0.0887846 0.619908
0.996674 0.0835905 0.703952
0.996421 0.0947207 0.709528
0.987017 0.383835 0.710835
0.99537 0.105418 0.707261
0.995067 0.115453 0.707291
0.99441 0.12565 0.707359
0.9949 0.145289 0.707885
0.99457 0.184613 0.709334
0.898358 0.252189 0.534628
0.993433 0.204262 0.710351
0.99281 0.21407 0.710875
0.990982 0.284964 0.71386
0.991002 0.294732 0.714189
0.989133 0.314124 0.715419
0.985286 0.345423 0.71765
0.912814 0.110653 0.530689
0.92856 0.0994678 0.559439
0.984952 0.355099 0.718082
0.984654 0.36477 0.718503
0.984938 0.374503 0.718751
0.907869 0.130248 0.5189
0.987141 0.394188 0.718763
0.987566 0.434855 0.71975
0.968743 0.369988 0.888135
0.86375 0.134107 0.480226
0.880538 0.322923 0.507107
0.959982 0.401244 0.640819
0.966481 0.169153 0.927872
0.894233 0.228408 0.998475
0.969471 0.390032 0.888397
0.964319 0.559733 0.89571
0.952155 0.343845 0.622788
0.997374 0.0890103 0.877324
0.959919 0.530227 0.901322
0.996174 0.110261 0.877048
0.986567 0.150181 0.881339
0.907392 0.509681 0.965246
0.98851 0.280784 0.847503
0.994912 0.48657 0.777163
0.880794 0.232518 0.506951
0.985921 0.179741 0.882219
0.965296 0.350326 0.893527
0.997492 0.0796003 0.878162
0.833719 0.544952 0.495209
0.969522 0.526917 0.678049
0.945651 0.118206 0.948741
0.954416 0.146413 0.607617
0.941903 0.546977 0.623945
0.994879 0.169267 0.864012
0.989923 0.17541 0.687372
0.962408 0.453033 0.899556
0.912819 0.229869 0.548501
0.992499 0.493719 0.776416
0.98286 0.572054 0.82828
1.00472 0.363108 0.76551
0.959205 0.510139 0.900803
0.983237 0.571999 0.814203
1.00094 0.363428 0.756543
0.963581 0.359616 0.897624
0.971907 0.575815 0.689193
0.941013 0.50975 0.923575
0.964542 0.390053 0.894926
0.997274 0.0709387 0.879319
0.95246 0.417498 0.625962
0.963476 0.4885 0.900954
0.981393 0.169046 0.889188
0.941419 0.519695 0.920668
0.873953 0.4389 0.997907
0.935647 0.108663 0.568756
0.981535 0.210042 0.889859
0.980852 0.229443 0.890412
0.845131 0.533617 0.500933
0.904481 0.140682 0.516846
1.00694 0.322777 0.751039
0.879575 0.200299 0.502936
0.9814 0.26971 0.890649
0.949784 0.32779 0.613299
0.93619 0.108283 0.962422
0.986709 0.185578 0.678439
0.964853 0.379861 0.894547
0.930893 0.348721 0.949262
0.927737 0.199913 0.56348
0.979701 0.286765 0.898137
0.960403 0.549891 0.901867
0.936468 0.228288 0.583669
0.987905 0.55282 0.779015
0.970769 0.329474 0.895599
0.979972 0.199227 0.896444
0.95592 0.500123 0.906629
1.01108 0.321963 0.782109
1.01578 0.0918214 0.772312
0.8864 0.122637 0.50065
0.954676 0.510295 0.90699
0.879919 0.246113 0.501817
0.954659 0.519677 0.907463
0.965041 0.386576 0.663095
0.939131 0.419185 0.937278
0.954659 0.529429 0.907933
0.966243 0.206651 0.644668
0.957395 0.128975 0.932296
0.962736 0.266266 0.648807
0.896289 0.298933 0.995019
0.989471 0.0991219 0.889396
1.01563 0.121967 0.802435
0.857624 0.273908 0.476016
0.9303 0.352991 0.598369
0.956144 0.158674 0.604744
0.980038 0.208854 0.895982
0.972253 0.317102 0.902595
0.95075 0.137552 0.944363
0.997036 0.184316 0.718783
0.966268 0.330899 0.902512
0.994742 0.372212 0.750615
0.873327 0.529386 0.98946
0.95716 0.409959 0.907095
0.955248 0.439621 0.907227
0.955696 0.449431 0.906692
0.956042 0.458991 0.907153
0.955603 0.469278 0.908513
0.963852 0.19715 0.634761
0.956074 0.479779 0.909545
0.93869 0.51753 0.624436
0.936219 0.369375 0.941973
0.982739 0.139065 0.895213
0.885756 0.0741832 0.496431
0.980425 0.148737 0.896141
0.973111 0.2393 0.902239
0.973149 0.259558 0.903037
0.985176 0.441063 0.834743
1.00301 0.392396 0.776868
0.975425 0.289616 0.903036
0.84578 0.511587 0.492796
0.954898 0.418911 0.913117
0.869347 0.113211 0.487313
0.951323 0.440736 0.914383
0.976242 0.106037 0.915552
0.882057 0.373783 0.509622
0.905623 0.430395 0.559859
0.974447 0.308495 0.902574
0.944 0.4199 0.930384
0.985496 0.169989 0.881981
0.963986 0.271179 0.654235
0.944286 0.566105 0.919489
0.879557 0.118279 1.00744
0.9795 0.141487 0.90264
0.975693 0.169294 0.901862
0.901645 0.381002 0.537609
0.9677 0.259515 0.908253
0.990335 0.24779 0.869716
0.975021 0.319084 0.883147
0.941903 0.509844 0.920279
0.959828 0.426554 0.644374
0.874902 0.358194 1.00229
0.976 0.199377 0.903114
0.964119 0.0883632 0.931413
0.976924 0.543831 0.728618
0.974353 0.421979 0.675308
0.947484 0.449773 0.918591
0.939649 0.566462 0.924615
0.897074 0.228623 0.993161
0.920934 0.331822 0.578515
0.939414 0.369003 0.935816
0.909675 0.091356 0.523345
1.0047 0.231891 0.793274
0.910945 0.181528 0.536868
0.970912 0.0674941 0.616919
0.965645 0.239167 0.909498
0.885124 0.368402 0.992599
0.989709 0.195112 0.688123
0.962208 0.249004 0.912139
0.962619 0.259203 0.912397
0.987211 0.543862 0.76756
0.863297 0.43321 0.501417
0.985899 0.301085 0.854769
0.972245 0.409165 0.875718
0.947169 0.556399 0.633136
0.985654 0.36563 0.697399
0.965605 0.289851 0.914018
0.885475 0.372716 0.512401
0.968469 0.309645 0.908678
0.962714 0.243354 0.911881
0.941909 0.499486 0.923232
1.00347 0.237407 0.775282
0.879284 0.542019 0.54123
0.940192 0.519277 0.924126
0.956479 0.549695 0.908286
0.994705 0.240116 0.827811
0.959401 0.118521 0.622906
0.941887 0.529806 0.923467
0.969764 0.455891 0.662365
0.943131 0.278976 0.931367
0.867424 0.532021 0.525525
0.935643 0.56508 0.927375
0.84966 0.407006 0.480693
0.967392 0.40645 0.661682
1.01802 0.130779 0.803672
0.974497 0.229011 0.901688
0.971915 0.176826 0.652019
0.984627 0.126626 0.666705
0.985487 0.373273 0.732018
0.985759 0.0693656 0.902773
0.975436 0.148546 0.90802
0.955994 0.397429 0.633282
0.891606 0.507815 0.986665
0.964449 0.369578 0.894288
0.9696 0.485756 0.676581
0.969243 0.169159 0.921924
0.958856 0.078974 0.939465
0.851977 0.344717 0.47436
0.889833 0.227638 1.00558
0.955085 0.306869 0.641859
0.958672 0.248729 0.917123
0.869259 0.462646 0.511377
0.911543 0.550549 0.581949
0.960616 0.289396 0.918111
0.865185 0.143616 0.479844
0.892096 0.488443 0.985435
1.00021 0.257125 0.76686
0.951672 0.477039 0.6388
0.960201 0.299518 0.918494
0.988306 0.40412 0.729889
0.939831 0.348764 0.607626
0.958536 0.309053 0.919208
1.00218 0.201924 0.828645
1.00103 0.242247 0.805462
0.946083 0.369932 0.922874
0.946431 0.377762 0.923068
0.938496 0.288771 0.59349
0.987622 0.323751 0.716204
0.988645 0.42305 0.751941
0.950006 0.380378 0.918253
0.961464 0.187626 0.624829
0.950943 0.389763 0.919447
0.887719 0.441552 0.534762
0.992184 0.223867 0.7114
0.990716 0.260718 0.843076
1.01183 0.172988 0.823842
0.950784 0.419612 0.920416
0.932907 0.12948 0.570743
0.965822 0.548893 0.866765
0.933422 0.559461 0.929863
0.87803 0.202553 0.497074
0.979718 0.269514 0.897586
0.85409 0.473755 0.495615
0.894673 0.159107 0.511992
0.978103 0.110128 0.909861
0.976969 0.129334 0.909719
0.978297 0.424745 0.683373
0.891111 0.438508 0.985131
0.906575 0.408773 0.969111
0.974499 0.525688 0.696795
0.976731 0.138711 0.908914
0.959249 0.563831 0.66151
0.890842 0.468318 0.984955
0.950416 0.566809 0.913788
0.915959 0.190915 0.545647
1.00838 0.21105 0.801518
0.950033 0.328776 0.923011
0.972018 0.149024 0.914551
0.957273 0.168487 0.604657
0.964342 0.540644 0.874807
0.969835 0.198862 0.916077
0.936815 0.451206 0.930656
0.971592 0.333746 0.66976
0.999298 0.193109 0.735986
0.934286 0.549272 0.929829
0.968923 0.198717 0.921789
0.950867 0.269235 0.924618
1.01686 0.0804794 0.825235
0.954183 0.37953 0.911983
0.951831 0.279248 0.924463
0.85029 0.533223 0.506503
0.951937 0.289413 0.925094
0.883605 0.488532 0.990414
0.985513 0.109447 0.896335
0.939265 0.228084 0.947538
0.985339 0.501743 0.821441
0.951859 0.29938 0.925093
0.987958 0.408687 0.735406
0.94161 0.359789 0.928845
0.964909 0.538965 0.88888
0.95863 0.387469 0.643424
0.986081 0.1988 0.882801
0.871682 0.244085 0.491113
0.961989 0.520489 0.895027
0.942635 0.428908 0.930318
0.98123 0.564127 0.748868
1.01788 0.0814928 0.779642
0.964795 0.210163 0.920535
0.928388 0.511707 0.935976
1.00747 0.0765095 0.734992
0.833199 0.522688 0.486037
0.973945 0.319945 0.895607
0.929235 0.550161 0.936524
0.978378 0.0783195 0.914136
0.991406 0.532028 0.799005
0.972202 0.118923 0.918794
0.946524 0.459059 0.919036
0.97162 0.128902 0.919034
0.941638 0.529704 0.92095
0.988371 0.463938 0.731584
0.969289 0.158729 0.921285
0.933643 0.389271 0.611401
0.970174 0.17936 0.921805
1.00027 0.200534 0.836778
0.9957 0.233207 0.731851
0.884745 0.357959 0.992317
0.979315 0.0696947 0.914752
0.895918 0.549272 0.965505
0.954748 0.230357 0.924864
0.964503 0.4908 0.896585
0.952147 0.239638 0.924907
0.943629 0.32942 0.929099
0.973713 0.0793579 0.920928
0.943563 0.259015 0.930677
0.979174 0.530697 0.841329
0.949528 0.550304 0.915135
0.992777 0.311404 0.834545
0.998316 0.184049 0.728553
0.876323 0.489419 0.996499
0.904989 0.550114 0.958112
0.878025 0.123323 0.494068
0.961406 0.0734956 0.937696
0.881296 0.192436 0.505619
0.950627 0.397153 0.924139
0.984106 0.381604 0.8413
0.988141 0.381044 0.83468
0.933327 0.458475 0.936267
0.979777 0.305483 0.687434
1.01048 0.362275 0.783886
0.970928 0.440076 0.874897
0.923783 0.509496 0.941113
0.955562 0.227255 0.617971
0.92349 0.529516 0.942077
0.873787 0.467406 0.995672
0.870491 0.0810157 1.01298
0.947881 0.218682 0.938594
0.923844 0.54045 0.942369
0.979438 0.441298 0.847748
0.993154 0.282899 0.779847
0.894748 0.19211 0.523398
0.97182 0.0890823 0.921481
0.953724 0.178674 0.595819
0.971308 0.108734 0.92083
0.992462 0.282453 0.788128
0.951317 0.460477 0.913347
0.95149 0.227525 0.93037
0.984747 0.25566 0.681515
0.908943 0.268176 0.977167
0.941519 0.299753 0.935511
0.941135 0.309312 0.935865
0.934113 0.478966 0.934638
0.954163 0.320525 0.918975
0.992386 0.483527 0.741879
0.941132 0.179489 0.5797
0.939117 0.329475 0.935702
0.938223 0.339886 0.935406
0.927888 0.489164 0.939366
1.00918 0.380106 0.78406
0.990333 0.504747 0.768493
0.967535 0.229373 0.908567
0.934709 0.407314 0.943232
0.964566 0.435598 0.653006
0.916532 0.359143 0.967046
0.966287 0.546724 0.669582
0.994519 0.311339 0.828476
0.966613 0.0921068 0.927653
0.989271 0.541805 0.808438
0.897532 0.33234 0.527332
0.979624 0.16926 0.895549
0.899117 0.15774 1.00394
1.00424 0.372033 0.811662
0.997056 0.254545 0.742386
0.976114 0.552776 0.728067
0.915716 0.439802 0.575865
0.964346 0.138713 0.927218
0.859305 0.203926 0.475801
0.969925 0.0781488 0.926751
0.862976 0.524665 0.99969
0.965606 0.159006 0.927678
0.965893 0.188399 0.928559
0.985762 0.361456 0.840689
0.910811 0.310329 0.552002
0.96421 0.198411 0.927783
0.937084 0.0779365 0.967578
0.980563 0.362098 0.853299
0.908873 0.320516 0.55363
1.01292 0.342607 0.790054
0.873332 0.472273 0.52011
0.96446 0.109519 0.92761
0.934801 0.458981 0.931623
0.911641 0.162003 0.535823
0.987857 0.120206 0.889193
0.942411 0.258827 0.9341
0.999793 0.141024 0.858418
0.958687 0.139011 0.932431
0.959609 0.145704 0.932513
0.945607 0.350962 0.922347
0.936036 0.389339 0.942331
0.925762 0.499432 0.939883
0.988368 0.434704 0.729887
0.944579 0.124198 0.949064
0.934028 0.499197 0.930959
0.969108 0.337988 0.89474
0.890157 0.138339 1.00314
0.881337 0.3518 0.507804
0.928411 0.2994 0.578779
0.935633 0.399159 0.942695
0.991353 0.433125 0.761673
0.912407 0.306125 0.554169
0.986758 0.076889 0.653815
0.980531 0.259443 0.891424
0.907842 0.540226 0.572562
0.988969 0.129981 0.883887
0.989056 0.394122 0.737103
0.886012 0.398598 0.515308
0.945554 0.359859 0.922636
0.966846 0.50049 0.883253
0.988697 0.49474 0.732682
0.919555 0.537502 0.94608
0.982146 0.4417 0.841054
0.982849 0.107021 0.656206
0.911711 0.556911 0.950969
0.891488 0.520699 0.550496
0.936816 0.279385 0.939852
0.994904 0.301106 0.820865
0.880673 0.249585 0.505601
0.936651 0.289287 0.940185
0.929663 0.449328 0.943074
0.991658 0.492166 0.792738
0.994729 0.164959 0.708612
0.937296 0.309249 0.940389
0.936991 0.328926 0.94138
0.886179 0.339374 0.991598
0.928942 0.429144 0.94682
0.938951 0.398814 0.938983
0.904466 0.511773 0.560715
0.979659 0.0799916 0.909266
0.967981 0.219451 0.913657
0.928149 0.449105 0.947436
0.939519 0.204899 0.956495
0.923377 0.479388 0.947204
0.965517 0.531007 0.864931
1.00276 0.372588 0.766342
0.870434 0.525033 0.994959
0.965571 0.0786436 0.931794
0.879984 0.253333 0.502058
0.920322 0.180816 0.554014
0.956407 0.129018 0.935718
0.941743 0.229665 0.941941
0.883277 0.40238 0.512513
0.951936 0.407691 0.625812
0.985323 0.244622 0.680944
0.949521 0.359595 0.916514
0.966152 0.117906 0.633001
0.913225 0.531145 0.95311
1.01205 0.101922 0.80075
0.916993 0.368396 0.966858
0.972067 0.160884 0.6488
0.970975 0.395774 0.670173
0.950256 0.309005 0.925804
0.954897 0.204658 0.938834
0.962816 0.540026 0.896912
0.987975 0.415476 0.698869
0.983847 0.0785957 0.903137
0.980593 0.289258 0.890715
0.899327 0.327417 0.982385
0.898199 0.311607 0.524707
0.973335 0.198508 0.908964
0.939936 0.240514 0.941442
0.938391 0.249268 0.9413
0.999807 0.0650951 0.700788
0.936665 0.259079 0.941106
0.987756 0.413492 0.735628
0.970675 0.536875 0.678006
0.942022 0.540036 0.920777
0.876863 0.253459 0.498254
0.949795 0.128308 0.943113
0.92908 0.398851 0.948937
0.977529 0.554881 0.739672
0.942753 0.130147 0.587862
0.928584 0.40807 0.948342
0.858635 0.223058 0.476891
0.977439 0.57469 0.704331
0.919201 0.478453 0.95276
0.878384 0.441958 0.516698
0.903113 0.288128 0.989286
1.00195 0.342443 0.815835
0.995632 0.221348 0.84028
0.876943 0.213007 0.497709
1.00758 0.385019 0.787044
0.91926 0.110084 0.550539
0.973248 0.485412 0.685595
0.884609 0.408514 0.989714
0.998982 0.154625 0.727362
0.957052 0.139715 0.9377
0.982955 0.0893116 0.902709
0.994826 0.304173 0.72353
0.983767 0.481311 0.834178
0.94319 0.288961 0.931672
1.01385 0.184257 0.803055
0.941016 0.460005 0.92485
0.885916 0.351932 0.510909
1.01468 0.111513 0.773241
0.953448 0.105057 0.603427
0.957106 0.19819 0.939215
1.01875 0.0683456 0.788226
0.979764 0.279868 0.897907
0.971192 0.576365 0.876948
0.880022 0.278589 0.502998
0.988459 0.415201 0.729333
0.957801 0.148832 0.939094
0.931707 0.268947 0.946662
1.00455 0.231621 0.800646
0.952044 0.427162 0.626466
0.934438 0.448923 0.935974
0.932334 0.269899 0.58663
0.932336 0.308807 0.947988
0.955399 0.349568 0.907498
0.967239 0.562052 0.890904
0.952503 0.108913 0.604111
0.96257 0.159051 0.933623
0.913542 0.489035 0.958055
0.886963 0.405611 0.519122
0.933021 0.31862 0.947886
0.932569 0.329204 0.948429
0.97945 0.299857 0.890616
0.990734 0.265414 0.713263
0.948732 0.529374 0.915401
0.931271 0.368865 0.94877
1.01662 0.150906 0.817033
0.981222 0.0699243 0.909163
0.862276 0.383777 0.485769
0.956766 0.0888572 0.939543
0.984952 0.269505 0.87719
1.01635 0.0634128 0.756176
0.893722 0.431956 0.543503
0.973881 0.397951 0.674076
0.943731 0.309691 0.931154
0.959703 0.168936 0.941405
0.988082 0.261795 0.869419
0.985391 0.384258 0.718949
0.923668 0.0931167 0.977029
0.977399 0.299403 0.896648
0.925165 0.369531 0.954922
1.02159 0.0623672 0.833939
0.923741 0.379115 0.955406
0.841865 0.443964 0.479629
0.959329 0.504527 0.900603
0.923316 0.388899 0.954706
0.891319 0.39271 0.520535
0.922299 0.428996 0.953972
0.87186 0.204113 0.487249
0.987971 0.553394 0.790286
0.989669 0.079172 0.890825
0.958778 0.0704677 0.94341
0.977073 0.505779 0.705447
0.9927 0.233509 0.855552
0.990339 0.532058 0.808417
0.936843 0.299205 0.94047
0.928018 0.168715 0.973653
0.983734 0.507535 0.724942
0.916455 0.504355 0.587391
0.980782 0.503798 0.715255
0.923194 0.439392 0.953943
1.00205 0.401581 0.788715
0.918804 0.229562 0.556481
0.951654 0.490184 0.914085
0.921119 0.46854 0.954028
0.902228 0.298424 0.98893
0.971941 0.476341 0.675077
0.912532 0.498831 0.957798
0.91102 0.238691 0.976393
0.973407 0.0693352 0.925095
1.00069 0.320842 0.815408
1.00028 0.254199 0.774172
0.885596 0.332658 0.510338
0.894783 0.0745086 0.508215
0.938554 0.408296 0.610437
1.01878 0.132575 0.783147
0.954228 0.154799 0.94445
0.945299 0.319268 0.929049
0.887278 0.481701 0.537069
0.911611 0.509786 0.958466
0.866859 0.502684 0.524485
0.950308 0.080198 0.582986
0.900602 0.546133 0.962584
0.997794 0.110148 0.870935
0.966176 0.228415 0.912942
0.992171 0.0895244 0.882877
0.978445 0.41077 0.854284
0.997713 0.341646 0.822777
0.8306 0.504508 0.478788
0.996272 0.222817 0.729617
0.976307 0.525626 0.70722
0.949963 0.118266 0.942777
0.873601 0.521214 0.992109
0.924666 0.238242 0.963728
0.900378 0.351229 0.537383
0.908526 0.388386 0.970426
0.991082 0.135837 0.693359
0.998343 0.200222 0.84904
0.931066 0.358963 0.94913
0.878062 0.338658 1.00189
0.988508 0.234594 0.691428
0.975687 0.320382 0.872446
0.955908 0.207632 0.617137
0.982059 0.108328 0.903225
0.944837 0.491231 0.631507
0.907057 0.303508 0.984231
0.961964 0.219216 0.921238
0.85358 0.538487 0.995869
0.89254 0.498203 0.983653
0.909716 0.22831 0.981314
0.991076 0.503227 0.754202
0.980746 0.524274 0.72685
0.960847 0.336563 0.651189
0.98846 0.396004 0.698041
0.892646 0.108837 0.996996
0.934063 0.118307 0.966155
0.860163 0.522154 0.516894
0.92737 0.19807 0.972533
0.974169 0.0879848 0.637641
1.01005 0.130429 0.837684
0.892376 0.348663 0.987187
0.936738 0.438932 0.935209
1.00941 0.182315 0.823049
0.928267 0.289668 0.578485
0.994381 0.282767 0.81006
0.866658 0.512974 0.525182
0.925187 0.0875555 0.977741
0.916255 0.348035 0.966946
0.921437 0.567871 0.599635
1.0047 0.385723 0.802045
0.900993 0.389678 0.975236
0.90832 0.499177 0.964397
0.936914 0.269474 0.939528
0.961304 0.150086 0.934615
0.98574 0.481911 0.827645
0.905705 0.555639 0.956994
0.991866 0.524859 0.793912
0.923042 0.27892 0.958716
0.855506 0.503556 0.506649
0.967251 0.177185 0.643266
0.883442 0.41841 0.990287
0.976834 0.160059 0.901386
0.863707 0.529417 0.994824
0.987505 0.393786 0.729735
0.918478 0.0882556 0.980543
0.91468 0.340236 0.572947
0.944689 0.409116 0.93134
0.866775 0.184408 0.479228
0.955191 0.209762 0.934105
0.921113 0.0983558 0.978657
1.00027 0.293214 0.753365
0.870317 0.426363 1.00383
0.95627 0.369584 0.906007
1.01235 0.0921181 0.761938
0.956804 0.0777005 0.944707
0.988265 0.394846 0.712104
0.920395 0.108238 0.978729
0.919284 0.128032 0.979603
0.941503 0.108337 0.955095
0.882557 0.459936 0.989958
0.967645 0.289522 0.910206
0.878427 0.108021 1.00723
1.00303 0.332309 0.742726
0.885159 0.379652 0.992184
0.980085 0.0790668 0.644082
0.975511 0.490828 0.854626
1.01515 0.149922 0.824399
0.876398 0.3524 0.503298
0.890947 0.428497 0.984728
0.874139 0.509135 0.997062
1.0068 0.312653 0.795298
0.859122 0.527746 1.00018
0.867293 0.458028 1.00194
0.909399 0.450977 0.568793
0.924065 0.378833 0.594303
0.855004 0.530906 0.999403
0.892602 0.122133 0.504324
0.948832 0.510049 0.914613
0.904379 0.0883838 0.99004
0.999842 0.200371 0.842818
0.879979 0.272576 0.502791
0.911878 0.343253 0.970451
0.9819 0.199639 0.890078
1.01394 0.0939049 0.829884
0.887124 0.333211 0.991311
0.887955 0.138444 1.00733
0.964463 0.359344 0.893958
1.00127 0.303741 0.763175
1.00343 0.0904167 0.86597
0.860454 0.503405 0.516033
0.921381 0.549062 0.944057
0.934553 0.248106 0.947777
0.985911 0.492131 0.820784
0.883829 0.193882 0.513998
0.917514 0.0807107 0.542972
0.985652 0.30655 0.706051
0.870906 0.44612 1.0024
0.974998 0.219806 0.902443
0.881739 0.471686 0.528416
0.897209 0.258082 0.994049
0.988538 0.542818 0.778243
0.883228 0.385643 0.99533
0.972072 0.57046 0.862758
0.96438 0.128531 0.926894
1.01196 0.0803694 0.853216
0.919543 0.167768 0.984944
0.990209 0.482052 0.807503
0.917026 0.217867 0.976727
0.862303 0.538536 0.991375
0.859301 0.519419 1.00187
1.00257 0.303532 0.741518
0.912271 0.0878395 0.984266
0.949202 0.13923 0.596105
0.985357 0.159995 0.881686
0.944811 0.224073 0.943515
0.989164 0.108388 0.889359
0.923189 0.421566 0.58018
0.918115 0.509539 0.947531
0.968041 0.440207 0.880612
0.997774 0.2837 0.743437
0.897532 0.287529 0.994918
0.981945 0.160028 0.88916
0.935755 0.14884 0.965847
0.987686 0.42677 0.736101
0.949918 0.35879 0.624831
0.891982 0.408435 0.983291
0.890033 0.327855 0.991517
1.01315 0.0923575 0.81642
0.850037 0.544221 0.508187
0.939204 0.459433 0.601232
0.940296 0.469627 0.925645
1.01261 0.0921758 0.80642
0.919214 0.11793 0.979459
1.01977 0.152694 0.784572
0.907753 0.338356 0.973893
0.963267 0.1677 0.63393
0.965054 0.400925 0.894215
0.894082 0.11817 0.997147
0.9113 0.204345 0.987932
0.870469 0.499702 1.00013
0.962669 0.349654 0.899582
0.89436 0.52601 0.975113
1.01213 0.36191 0.790887
0.877246 0.205315 0.497574
0.888997 0.297403 1.00449
0.854882 0.344582 0.479526
0.902807 0.2291 0.988274
0.970482 0.169244 0.915045
0.948856 0.437306 0.617595
0.878993 0.0882898 1.00658
0.861422 0.471649 0.504386
0.996308 0.0699029 0.684277
0.915612 0.258672 0.969474
0.883139 0.358574 0.995509
0.942463 0.338792 0.928522
0.978525 0.0989558 0.90936
0.923717 0.539034 0.601293
0.978137 0.544268 0.739132
0.987148 0.50436 0.734511
0.92754 0.28922 0.953173
0.978593 0.249922 0.897148
0.929259 0.539655 0.936355
0.991658 0.281328 0.832873
0.971748 0.516567 0.687179
0.980423 0.189995 0.896076
0.997564 0.354086 0.747138
0.936102 0.379467 0.942012
0.872326 0.222477 0.489958
0.952511 0.575367 0.654263
0.974923 0.27941 0.903219
0.893041 0.319018 0.99127
0.98643 0.341545 0.847396
0.951914 0.0980229 0.942981
0.957171 0.178098 0.946971
0.949613 0.369665 0.916818
0.976976 0.480815 0.855875
1.01034 0.182523 0.777931
0.883213 0.348773 0.995313
0.893435 0.368346 0.987678
0.948142 0.208294 0.599105
0.894331 0.330548 0.986711
0.974197 0.555867 0.687737
0.978219 0.29141 0.896257
0.949598 0.340254 0.918948
0.981802 0.5714 0.835985
0.909069 0.530205 0.572122
0.883751 0.368456 0.995638
0.896467 0.268309 0.999482
0.975062 0.510798 0.847617
0.89912 0.438528 0.977278
1.00707 0.150167 0.837334
0.874805 0.428767 0.997509
0.967073 0.497177 0.888853
0.911955 0.209034 0.98404
0.901678 0.258466 0.988524
0.985636 0.551434 0.82212
0.871709 0.552875 0.534097
0.999949 0.183774 0.738188
0.858776 0.27924 0.477632
0.918206 0.194647 0.985904
0.88555 0.117802 1.00292
0.899818 0.401735 0.539532
0.991451 0.244657 0.712334
0.921561 0.316312 0.966373
0.98123 0.495178 0.714198
0.988146 0.220611 0.87736
0.977237 0.0891381 0.914123
0.911591 0.40075 0.555591
0.892714 0.0983284 0.99667
0.896169 0.23808 0.993539
0.927413 0.157512 0.97288
0.98643 0.531444 0.821214
0.890375 0.148714 1.00843
0.972418 0.32989 0.886808
0.97975 0.321024 0.861076
0.89904 0.399057 0.975898
0.935853 0.12806 0.960947
0.951559 0.547129 0.64134
1.00518 0.171355 0.83801
1.00418 0.305721 0.747444
0.913087 0.420353 0.566038
0.960218 0.316371 0.650701
0.982503 0.425037 0.690961
0.893102 0.438611 0.98175
0.884041 0.107813 1.0029
0.877097 0.499546 0.996458
0.917033 0.110982 0.983459
0.933759 0.520293 0.929208
0.986316 0.0901272 0.896507
1.01721 0.0721603 0.786236
0.919349 0.147989 0.979792
0.992911 0.2211 0.862536
0.918597 0.519976 0.946939
0.964534 0.119032 0.926744
0.92093 0.188526 0.981027
0.94182 0.158512 0.959047
0.907771 0.488881 0.968075
0.930683 0.429154 0.943252
0.895145 0.127844 0.998205
0.956931 0.55941 0.907539
0.853287 0.48301 0.496389
0.948926 0.159806 0.58928
0.965727 0.325919 0.659431
0.916943 0.117434 0.983666
0.945465 0.0787207 0.95614
0.938689 0.359298 0.935615
0.957296 0.0892368 0.602066
0.983458 0.166177 0.668478
0.899314 0.177777 1.00151
0.896229 0.173458 0.520384
0.897844 0.189561 1.00113
0.957581 0.389739 0.906382
0.871408 0.0953013 1.01334
0.963521 0.499802 0.8955
0.898421 0.22126 0.992802
0.964935 0.541471 0.884225
0.984932 0.524309 0.746461
0.84932 0.424319 0.485557
0.933718 0.179929 0.572176
0.956041 0.426875 0.63538
1.01489 0.121289 0.773516
0.947206 0.138436 0.949174
0.97737 0.581345 0.719696
0.892778 0.378435 0.987045
1.00861 0.211761 0.791593
0.987868 0.139418 0.882579
0.891749 0.247993 1.00533
0.969567 0.189592 0.92252
0.890314 0.27894 1.00507
0.90741 0.297817 0.983138
0.963308 0.186066 0.934367
0.936098 0.338741 0.941811
0.870955 0.55877 0.535344
0.997118 0.381416 0.820438
0.905679 0.17766 0.996861
0.96413 0.376747 0.663067
0.943107 0.248076 0.934868
0.97412 0.245578 0.663821
0.979295 0.259144 0.897326
0.976664 0.179596 0.902033
0.975205 0.370479 0.867236
0.983252 0.532226 0.826287
0.948075 0.526976 0.641923
0.911589 0.12854 0.98661
0.941512 0.507378 0.633353
0.996404 0.262315 0.810824
0.906821 0.398565 0.969653
0.871903 0.394681 1.00468
0.954609 0.0798113 0.5919
0.955978 0.410092 0.912664
0.950437 0.187017 0.950512
0.962269 0.420496 0.893804
1.01198 0.101923 0.806883
0.905604 0.210743 0.989729
0.963299 0.119079 0.629763
0.917429 0.528428 0.948219
0.88219 0.468847 0.989807
0.982815 0.514268 0.725449
0.933098 0.508932 0.930867
0.992339 0.381197 0.827655
0.896338 0.194615 1.0043
0.910955 0.0729523 0.532826
0.930464 0.418981 0.946174
0.942334 0.0986564 0.956595
0.980845 0.511354 0.833721
0.996799 0.099933 0.877482
0.878501 0.0807052 1.00916
0.957955 0.315059 0.920435
0.963218 0.496426 0.66888
0.983879 0.156294 0.667992
0.981568 0.220206 0.889996
0.940955 0.499256 0.623084
0.875258 0.408157 1.00111
0.98384 0.129936 0.895551
0.877987 0.0977123 1.00695
0.994491 0.340945 0.829452
0.867072 0.488357 1.00122
0.874171 0.417604 1.00154
0.939638 0.38872 0.937486
0.929279 0.10845 0.971819
0.865411 0.302768 0.489859
0.893116 0.242463 0.526296
0.994333 0.0799597 0.884517
0.865562 0.404675 0.49681
0.947105 0.547672 0.633162
0.987638 0.168597 0.877406
0.974375 0.0702254 0.921976
0.991806 0.330859 0.83565
0.94199 0.388232 0.618881
0.949813 0.0880816 0.950111
0.941728 0.278739 0.934821
1.01495 0.101697 0.772849
0.987049 0.0830926 0.896166
0.979786 0.506522 0.714051
0.92893 0.43885 0.946889
1.0005 0.403428 0.793245
0.912903 0.33586 0.970101
0.921871 0.177852 0.980672
0.922538 0.117138 0.554695
0.965938 0.445572 0.653721
0.883337 0.498872 0.991495
0.910915 0.148435 0.989179
0.853698 0.403491 0.482694
0.993082 0.246628 0.724608
0.929614 0.318777 0.953826
0.922609 0.109794 0.554393
0.910516 0.479994 0.56937
0.878082 0.409256 0.996078
0.98607 0.511402 0.820701
0.915224 0.327871 0.969229
0.879042 0.326304 1.00589
0.962328 0.510377 0.894643
1.0159 0.080418 0.839461
0.919671 0.158156 0.980487
0.96714 0.267206 0.657128
1.01007 0.371921 0.784309
0.893287 0.408845 0.532217
0.996458 0.125438 0.716941
0.960625 0.319568 0.91443
0.976706 0.545882 0.733372
0.975679 0.335382 0.680839
0.923867 0.348962 0.959202
0.917443 0.383459 0.564082
0.885188 0.0886483 1.00207
0.982053 0.484659 0.713019
1.00896 0.381468 0.795988
1.00383 0.313369 0.772774
0.986807 0.523414 0.753782
0.979375 0.581168 0.740862
0.963811 0.369754 0.897658
0.957945 0.340143 0.906944
0.905963 0.138064 0.991707
0.920069 0.138889 0.978996
0.981577 0.570866 0.842128
0.959359 0.226925 0.627016
0.959198 0.269037 0.917685
0.981465 0.543858 0.748112
0.86663 0.152908 0.479177
0.870617 0.0881922 1.01319
0.977079 0.575894 0.709367
0.914777 0.478892 0.959327
0.952728 0.42327 0.911387
0.962912 0.449572 0.894979
0.93562 0.527634 0.615606
0.965705 0.296655 0.914218
0.94329 0.499069 0.919717
0.984636 0.371126 0.840847
1.00483 0.233022 0.783378
0.931834 0.260148 0.586482
0.943948 0.399461 0.932064
0.922123 0.388464 0.95802
0.90636 0.390972 0.546756
0.988873 0.190259 0.877419
0.935442 0.487965 0.605538
0.998197 0.123078 0.870109
0.914662 0.469814 0.961698
0.88407 0.327873 0.998278
0.942369 0.559904 0.920693
0.9962 0.444082 0.770464
0.979041 0.480752 0.849116
0.86344 0.173809 0.475162
1.01384 0.182201 0.786978
0.990563 0.523049 0.786856
0.901621 0.419511 0.550429
0.984657 0.355779 0.708053
0.982642 0.533892 0.748061
0.976945 0.544066 0.709345
0.98249 0.524285 0.736901
0.924839 0.248506 0.959658
0.951829 0.330097 0.918899
0.904338 0.539333 0.961255
0.900868 0.360927 0.537517
0.988925 0.179759 0.877074
1.01281 0.111542 0.807013
0.896345 0.278323 0.9998
0.871913 0.233285 0.490582
0.964746 0.287413 0.658049
0.931962 0.419522 0.942771
0.999388 0.330513 0.737022
0.927662 0.0779901 0.97416
0.899805 0.491535 0.553731
1.01086 0.0824078 0.751954
0.965337 0.280772 0.913772
0.885281 0.316726 1.00359
0.880897 0.24287 0.506279
0.941499 0.549285 0.923781
0.892618 0.157993 1.00853
0.876878 0.272647 0.499745
0.990328 0.165541 0.686902
1.00738 0.143986 0.754946
0.893849 0.238656 0.998985
1.01458 0.0705396 0.854786
0.89568 0.53852 0.968146
0.991972 0.179803 0.87072
0.989365 0.443365 0.742447
0.896761 0.102305 0.508306
0.984842 0.119237 0.895383
1.00018 0.422353 0.789665
0.911298 0.528205 0.956882
0.897833 0.550834 0.962058
0.994548 0.135476 0.707655
0.931526 0.249054 0.951615
0.915278 0.378842 0.563234
0.894196 0.0876673 0.996207
0.999413 0.252588 0.795746
0.905397 0.529201 0.963159
0.908234 0.288763 0.982624
0.870066 0.411093 0.502332
0.984694 0.543993 0.82873
0.922173 0.418736 0.953904
0.888803 0.195381 1.00766
0.958892 0.110868 0.931521
1.00963 0.330294 0.764728
0.91967 0.078431 0.980118
0.967692 0.167343 0.642761
0.980185 0.551885 0.841806
0.89134 0.458187 0.982554
0.917055 0.320874 0.570548
0.889114 0.531122 0.974886
0.982221 0.0997732 0.903156
0.984671 0.259834 0.884999
0.979845 0.255959 0.67282
0.898152 0.268633 0.994278
0.919078 0.499055 0.947491
0.872713 0.212862 0.489393
0.907356 0.438911 0.97084
0.902648 0.107954 0.990952
0.928098 0.118442 0.971946
0.920185 0.197751 0.979892
0.920029 0.529155 0.597245
0.961799 0.476912 0.65581
1.00754 0.131264 0.844016
0.955559 0.430058 0.906191
0.97924 0.330972 0.860184
0.90681 0.112402 0.516706
0.982859 0.380981 0.847422
0.978353 0.324857 0.689118
0.867037 0.509108 1.00077
0.990176 0.0688203 0.896354
0.955728 0.257891 0.619004
0.889514 0.528184 0.979231
0.986506 0.128438 0.889681
0.881829 0.319312 1.00542
0.97848 0.312787 0.686828
0.899299 0.468506 0.977124
0.926793 0.204648 0.970704
0.965002 0.306378 0.658997
0.969448 0.564245 0.870001
0.996327 0.311065 0.821448
0.925614 0.358728 0.954527
1.00472 0.331143 0.811026
0.892218 0.398281 0.983449
0.988235 0.30819 0.711676
0.908999 0.237165 0.980437
0.869861 0.449002 1.00118
0.925603 0.351127 0.954292
1.01567 0.0821212 0.793109
0.902276 0.238385 0.987846
0.884294 0.0985188 1.0023
0.995076 0.119468 0.876731
0.937235 0.364653 0.613001
0.901506 0.348283 0.979911
0.89404 0.481257 0.545405
0.93086 0.439595 0.942601
0.995409 0.280072 0.805589
0.987612 0.386122 0.697968
0.942076 0.539484 0.92338
0.992693 0.150469 0.869647
0.919131 0.278511 0.963396
0.9002 0.341567 0.537105
0.97148 0.415857 0.669917
0.988102 0.159954 0.876585
0.974432 0.390157 0.875225
0.995059 0.203955 0.720035
0.998812 0.303461 0.775607
1.01602 0.173457 0.810254
0.927928 0.137954 0.971109
0.95871 0.199244 0.933875
0.984293 0.360495 0.847194
0.942561 0.37001 0.92918
0.846842 0.536777 1.00076
0.918055 0.158167 0.984801
0.972857 0.169288 0.907954
0.998212 0.137296 0.862362
0.927593 0.190534 0.563641
0.897748 0.419126 0.976522
0.8783 0.118374 1.01052
0.996108 0.130792 0.869895
0.917006 0.137829 0.984285
0.944314 0.078091 0.96069
0.912711 0.197542 0.988606
0.879997 0.126098 1.01081
0.98038 0.136827 0.902353
0.975453 0.167972 0.656977
0.89024 0.177939 1.00834
0.970992 0.51121 0.8541
0.915669 0.401705 0.562404
0.910336 0.0987245 0.983767
0.938297 0.238932 0.946041
0.872178 0.392671 1.0046
0.959444 0.239245 0.91737
0.883076 0.377241 0.996087
1.00229 0.17512 0.750076
0.87622 0.348043 1.00185
0.90991 0.249098 0.976578
0.968933 0.327003 0.664809
0.96927 0.209162 0.914698
0.990166 0.144671 0.875729
0.89952 0.43186 0.551242
0.946557 0.348477 0.615093
0.910614 0.117932 0.986383
0.964066 0.550175 0.895608
1.00897 0.350971 0.804781
0.946338 0.218532 0.943139
0.870568 0.1565 0.481592
0.925364 0.399566 0.585369
0.877169 0.0879319 1.0098
0.887083 0.521973 0.546951
0.964354 0.458584 0.652953
0.981733 0.179706 0.889823
0.893877 0.201793 0.524175
0.887071 0.490013 0.539831
0.988128 0.391538 0.834673
0.987328 0.146111 0.676863
0.911561 0.474383 0.966228
0.931729 0.21911 0.960018
0.985577 0.23507 0.680827
0.992729 0.487183 0.745488
0.911486 0.271703 0.551365
0.972325 0.249579 0.902692
0.96011 0.357699 0.652199
0.993048 0.443897 0.761384
0.859362 0.552396 0.517517
0.930422 0.379069 0.949371
0.937323 0.178377 0.964457
0.94584 0.468322 0.619884
0.945078 0.249054 0.930146
0.988577 0.522003 0.813796
0.822312 0.535194 0.481888
0.969215 0.380242 0.887875
0.997201 0.273383 0.765704
0.978832 0.0661872 0.635561
0.974622 0.269809 0.902789
1.00703 0.221077 0.791132
0.922876 0.44933 0.955683
0.934531 0.208259 0.960589
0.981096 0.481176 0.842567
0.928967 0.519943 0.935777
0.888777 0.199913 1.00713
1.01424 0.332861 0.791881
0.884558 0.130641 1.00795
0.865947 0.0935454 0.479416
0.888921 0.311409 0.999008
0.899453 0.167191 1.0042
0.997497 0.261959 0.796951
0.92735 0.278317 0.952858
0.927447 0.208753 0.968051
0.919125 0.444106 0.960138
0.891091 0.238589 1.00511
0.905464 0.158602 0.9963
0.923206 0.288862 0.95989
0.900968 0.300782 0.526195
1.00478 0.352561 0.811488
0.991897 0.145293 0.694482
0.942038 0.349085 0.928289
0.875505 0.368635 1.00156
0.953519 0.359243 0.911446
0.89116 0.267841 1.00499
0.991367 0.401151 0.828522
0.872716 0.542941 0.981271
0.894666 0.078904 0.996326
0.982392 0.126851 0.657057
0.916775 0.388859 0.963076
1.00368 0.144312 0.745898
1.02338 0.0608395 0.822591
0.890093 0.288687 1.00472
1.00848 0.0924581 0.752922
0.989527 0.3935 0.741645
0.93414 0.118611 0.569756
0.983143 0.474488 0.712612
0.883474 0.398471 0.991359
0.967329 0.558278 0.867923
0.900836 0.315731 0.985782
0.98926 0.34025 0.842421
0.956143 0.0987446 0.938087
0.930082 0.5186 0.606788
0.95051 0.178207 0.95215
0.978945 0.239574 0.896761
0.965658 0.550778 0.874882
0.980481 0.530457 0.737976
0.946806 0.430081 0.924663
0.97063 0.0985372 0.922842
0.987121 0.249956 0.877132
0.916863 0.288423 0.969926
0.964943 0.504683 0.889476
0.989286 0.498431 0.736826
0.965554 0.480057 0.896496
0.895647 0.540829 0.55761
0.910603 0.29863 0.977656
0.892094 0.469373 0.981907
0.919372 0.207117 0.976881
0.899901 0.480933 0.55285
0.945854 0.31834 0.603987
0.98587 0.209171 0.883554
0.882342 0.509618 0.99151
0.921194 0.479885 0.587109
0.984203 0.280439 0.867659
0.990644 0.502718 0.776348
0.98987 0.453105 0.742635
0.894812 0.248033 0.998842
0.888924 0.307035 1.00269
0.915387 0.457891 0.964712
1.00325 0.147797 0.851124
0.973776 0.360167 0.874082
0.971979 0.504505 0.85368
0.994124 0.484249 0.752496
0.90966 0.107335 0.9841
0.897747 0.408967 0.976355
0.936683 0.118124 0.960541
0.993236 0.127781 0.877255
0.903824 0.187648 0.997184
0.892184 0.47893 0.982192
0.963839 0.389677 0.898414
0.871095 0.545457 0.982543
0.968757 0.349942 0.887239
0.892545 0.167418 1.00782
0.894909 0.308481 0.99379
0.874834 0.454774 0.514945
0.92001 0.17805 0.98462
0.965572 0.269558 0.911143
0.893869 0.297057 0.999911
0.865453 0.413505 0.498841
0.981399 0.541343 0.834334
0.911281 0.249576 0.552137
0.880254 0.32972 1.0029
0.995594 0.272452 0.810738
0.8966 0.287901 0.998906
0.912109 0.0834019 0.530446
0.997632 0.431729 0.801586
0.989789 0.0897716 0.889045
0.988296 0.424678 0.730264
0.959083 0.52026 0.901148
0.887592 0.127232 1.00363
0.969035 0.219606 0.909021
0.876965 0.388216 1.00086
0.927575 0.209493 0.564041
0.876537 0.398459 1.00038
0.890044 0.401705 0.521936
0.947319 0.194977 0.950918
0.955668 0.183726 0.947339
0.991788 0.533314 0.792995
0.990498 0.304205 0.714921
0.874952 0.44927 0.996274
1.01907 0.130701 0.794337
0.909746 0.319697 0.974808
0.879725 0.0809548 1.00629
0.873753 0.439476 0.510904
0.97333 0.444771 0.674429
1.01259 0.101678 0.829639
0.903188 0.514834 0.970601
0.887564 0.53937 0.973285
0.998629 0.443428 0.780921
1.00695 0.339652 0.752147
0.941573 0.268768 0.93453
0.900163 0.458934 0.977471
0.898124 0.529684 0.969919
1.00732 0.102367 0.753563
0.923558 0.388604 0.582907
0.937503 0.269688 0.59373
0.898191 0.278101 0.994564
0.988143 0.472017 0.820171
0.887712 0.499426 0.542229
0.990297 0.215441 0.694214
0.987539 0.514082 0.745371
0.926093 0.0777058 0.977343
0.968592 0.360214 0.887597
0.902198 0.427297 0.553983
0.903428 0.118492 0.991198
0.87255 0.438225 1.002
0.92413 0.369066 0.95927
0.920733 0.190565 0.554192
0.902465 0.0980232 0.990822
0.998001 0.421928 0.781812
0.955019 0.563714 0.65229
0.905701 0.468473 0.97092
0.987991 0.424358 0.719617
0.867866 0.469865 0.999628
0.971212 0.189729 0.915581
1.01154 0.111184 0.823094
0.853253 0.443053 0.493541
1.00972 0.0744789 0.742535
1.01394 0.101765 0.794161
0.998189 0.301495 0.798702
0.99773 0.463599 0.770718
0.902945 0.0803603 0.991098
0.904237 0.251921 0.542557
0.998093 0.433059 0.78118
0.845649 0.413897 0.477759
0.997961 0.124038 0.726613
0.950236 0.499607 0.914211
0.955713 0.338416 0.91243
0.995322 0.363552 0.74808
0.896475 0.247548 0.993799
0.883825 0.337951 0.99595
0.924309 0.298749 0.960411
0.973972 0.189842 0.90843
0.975194 0.575379 0.857653
0.932121 0.160402 0.572136
0.948622 0.151888 0.590254
0.982559 0.303671 0.69595
0.996634 0.361021 0.824691
0.952063 0.327087 0.621569
0.913419 0.167935 0.989686
0.906404 0.418997 0.9693
1.0141 0.0896916 0.837544
0.910983 0.0779061 0.985848
1.00789 0.0826589 0.742675
0.995518 0.0692956 0.884439
0.985764 0.0994548 0.896892
0.940124 0.218135 0.949113
0.90853 0.25868 0.977358
0.880314 0.283282 0.505715
0.89878 0.518556 0.975199
0.989457 0.541662 0.786913
0.897686 0.13789 0.99842
0.923085 0.518573 0.941791
