ply
format ascii 1.0
comment PCL generated
element vertex 1449
property float x
property float y
property float z
element camera 0
property float view_px
property float view_py
property float view_pz
property float x_axisx
property float x_axisy
property float x_axisz
property float y_axisx
property float y_axisy
property float y_axisz
property float z_axisx
property float z_axisy
property float z_axisz
property float focal
property float scalex
property float scaley
property float centerx
property float centery
property int viewportx
property int viewporty
property float k1
property float k2
end_header
0.76015121 0.63256276 0.65855271
0.76011252 0.63045871 0.65849215
0.76192701 0.62903774 0.65766853
0.76188827 0.62693018 0.65760785
0.76184958 0.62482262 0.65754718
0.76459032 0.62372392 0.65634149
0.76455152 0.62161112 0.65628064
0.76451266 0.61949831 0.65621984
0.76632661 0.61804754 0.65539539
0.76628774 0.61593121 0.65533447
0.76624888 0.61381489 0.65527356
0.76435745 0.61104709 0.65597665
0.76431865 0.60893428 0.6559158
0.76427984 0.60682148 0.655855
0.76146245 0.60374719 0.65694064
0.76142377 0.60163969 0.65688002
0.76138508 0.59953213 0.65681934
0.75949419 0.59679413 0.65752327
0.75945556 0.59469008 0.65746272
0.75941694 0.59258604 0.65740216
0.75937825 0.590482 0.6573416
0.75933963 0.58837795 0.65728104
0.75930101 0.58627391 0.65722048
0.75926232 0.58416986 0.65715992
0.7592237 0.58206588 0.65709937
0.75918502 0.57996184 0.65703887
0.75914639 0.57785779 0.65697831
0.75910777 0.57575375 0.65691775
0.75906909 0.5736497 0.65685719
0.75903046 0.57154566 0.65679663
0.75899184 0.56944162 0.65673608
0.75895315 0.56733757 0.65667552
0.75891453 0.56523359 0.65661496
0.75887585 0.56312954 0.6565544
0.7606883 0.56159633 0.65572757
0.76064956 0.55948877 0.65566689
0.76061088 0.55738127 0.65560627
0.76334846 0.5561142 0.6543957
0.76330966 0.55400139 0.65433484
0.76327085 0.55188859 0.65427405
0.76323205 0.54977578 0.65421325
0.76319325 0.54766297 0.65415245
0.76500499 0.54609299 0.65332454
0.76681656 0.54451591 0.6524964
0.76677763 0.54239613 0.65243542
0.76673871 0.54027629 0.65237439
0.76669979 0.53815651 0.65231341
0.76666081 0.53603667 0.65225238
0.76662189 0.53391689 0.6521914
0.76658297 0.53179705 0.65213037
0.76654404 0.52967721 0.65206939
0.76650512 0.52755743 0.65200835
0.76461625 0.52492988 0.65271544
0.76457739 0.52281356 0.65265459
0.76453853 0.52069724 0.65259367
0.76449966 0.51858091 0.65253276
0.76261115 0.51597095 0.65324038
0.76257235 0.51385808 0.65317953
0.76253355 0.51174533 0.65311873
0.76249474 0.50963253 0.65305793
0.76245594 0.50751972 0.65299714
0.76241714 0.50540692 0.65293634
0.76237833 0.50329411 0.65287554
0.76233953 0.5011813 0.65281475
0.76230073 0.4990685 0.65275389
0.76226187 0.49695566 0.65269309
0.76222306 0.49484289 0.6526323
0.76218426 0.49273008 0.6525715
0.76214546 0.49061728 0.6525107
0.76210666 0.48850447 0.65244991
0.76391661 0.48683628 0.65161914
0.76387775 0.48471996 0.65155822
0.76383883 0.48260367 0.6514973
0.76379997 0.48048735 0.65143645
0.7637611 0.47837102 0.65137553
0.76372224 0.47625473 0.65131462
0.76368338 0.47413841 0.6512537
0.76179624 0.47160202 0.65196341
0.76175743 0.46948922 0.65190262
0.76171863 0.46737644 0.65184182
0.76167977 0.46526363 0.65178102
0.76164097 0.4631508 0.65172023
0.76160216 0.46103799 0.65165943
0.75879151 0.45832667 0.6527555
0.75875276 0.45621914 0.65269482
0.75686628 0.45371959 0.65340561
0.75682765 0.45161554 0.65334505
0.75678903 0.44951153 0.65328449
0.75397897 0.44683525 0.65438163
0.7539404 0.44473645 0.65432119
0.75205439 0.44226322 0.65503275
0.75201595 0.44016793 0.65497243
0.75197744 0.43807268 0.65491217
0.75009161 0.43561345 0.65562415
0.75005317 0.43352169 0.65556395
0.75001478 0.43142992 0.65550375
0.74812931 0.42898473 0.65621608
0.74809092 0.42689645 0.656156
0.7480526 0.4248082 0.65609592
0.74801421 0.42271996 0.65603578
0.71909231 0.79431719 0.67973298
0.71905518 0.79229558 0.6796748
0.71901804 0.79027396 0.67961663
0.71898091 0.78825235 0.67955846
0.71894377 0.78623068 0.67950028
0.71890664 0.78420907 0.67944211
0.71886951 0.78218746 0.67938393
0.71883237 0.78016585 0.67932576
0.71879524 0.77814418 0.67926753
0.71875811 0.77612257 0.67920935
0.71872097 0.77410096 0.67915118
0.7205407 0.77303952 0.67833465
0.72050351 0.77101439 0.67827636
0.72046632 0.76898926 0.67821813
0.72042912 0.76696414 0.67815983
0.72224849 0.76588517 0.67734283
0.72406787 0.76479918 0.67652553
0.72403055 0.76276702 0.67646706
0.72584963 0.76167059 0.67564952
0.72859681 0.76103312 0.67445219
0.72855932 0.7589922 0.67439348
0.73037803 0.75787646 0.6735754
0.73219663 0.75675368 0.67275709
0.73215902 0.75470579 0.67269814
0.73397744 0.75357246 0.67187959
0.73393977 0.75152105 0.67182052
0.73575807 0.75037718 0.67100161
0.73850399 0.74967843 0.66980255
0.73846614 0.7476182 0.6697433
0.73842829 0.74555796 0.66968399
0.74024624 0.74439144 0.66886437
0.74020833 0.74232769 0.668805
0.74202591 0.74115056 0.66798514
0.74384338 0.73996645 0.6671651
0.74380535 0.73789567 0.6671055
0.74655032 0.73713899 0.66590476
0.74836743 0.73593557 0.66508412
0.74832922 0.73385608 0.66502428
0.75014615 0.73264217 0.66420341
0.75010788 0.73055911 0.66414344
0.7528522 0.72976393 0.66294158
0.75281382 0.72767568 0.66288149
0.75277549 0.72558743 0.66282141
0.7527371 0.72349918 0.66276127
0.7545535 0.72225541 0.6619395
0.75266039 0.71932268 0.66264111
0.75262207 0.71723437 0.66258097
0.75258368 0.71514612 0.66252089
0.75254536 0.71305788 0.6624608
0.75436139 0.71179658 0.6616385
0.75432295 0.70970482 0.6615783
0.75428456 0.70761305 0.6615181
0.75424612 0.70552129 0.6614579
0.75420767 0.70342952 0.6613977
0.75416929 0.70133775 0.66133749
0.75598496 0.7000519 0.66051447
0.75594652 0.69795668 0.66045421
0.75590801 0.6958614 0.66039389
0.75586951 0.69376612 0.66033357
0.75768483 0.69246274 0.65951014
0.75764626 0.69036394 0.6594497
0.7576077 0.6882652 0.65938932
0.75756913 0.68616641 0.65932894
0.76031095 0.68523443 0.65812314
0.76027226 0.68313038 0.65806258
0.76023364 0.68102634 0.65800202
0.7620483 0.67968965 0.65717757
0.76015633 0.67681825 0.6578809
0.76011771 0.67471421 0.65782034
0.76007903 0.67261016 0.65775979
0.7600404 0.67050618 0.65769923
0.76000178 0.66840214 0.65763867
0.7599631 0.66629809 0.65757811
0.75992447 0.66419405 0.65751755
0.75988585 0.66209 0.65745699
0.75984716 0.65998596 0.6573965
0.75980854 0.65788192 0.65733594
0.75976986 0.65577793 0.65727538
0.7569524 0.65258598 0.65836245
0.75691384 0.65048718 0.65830207
0.75502288 0.64767015 0.65900695
0.75498438 0.64557487 0.65894669
0.75494587 0.64347965 0.65888637
0.75490743 0.64138436 0.65882605
0.75672108 0.63999331 0.65800005
0.75668252 0.63789451 0.65793967
0.75664401 0.63579577 0.65787923
0.75938344 0.63473755 0.6566698
0.75934476 0.63263351 0.6566093
0.75930613 0.63052946 0.65654874
0.76111925 0.62910861 0.65572184
0.76108056 0.62700105 0.65566123
0.76104182 0.62489349 0.65560055
0.76378053 0.62379497 0.65438998
0.76374173 0.62168217 0.65432912
0.76370293 0.61956936 0.65426832
0.76551551 0.6181187 0.65344059
0.76547664 0.61600238 0.65337974
0.76543778 0.61388606 0.65331882
0.76354772 0.61111814 0.65402514
0.76350892 0.60900533 0.65396434
0.76347011 0.60689253 0.65390348
0.76065475 0.60381806 0.65499401
0.760616 0.6017105 0.65493333
0.76057732 0.599603 0.65487272
0.75868779 0.59686482 0.65557986
0.75864917 0.59476084 0.65551931
0.75861049 0.59265679 0.65545875
0.75857186 0.59055275 0.65539819
0.75853324 0.5884487 0.65533763
0.75849456 0.58634466 0.65527707
0.75845593 0.58424062 0.65521652
0.75841731 0.58213657 0.65515596
0.75837862 0.58003253 0.65509546
0.75834 0.57792854 0.6550349
0.75830138 0.5758245 0.65497434
0.75826269 0.57372046 0.65491378
0.75822407 0.57161641 0.65485322
0.75818539 0.56951237 0.65479267
0.75814676 0.56740832 0.65473211
0.75995797 0.56588227 0.65390223
0.75991923 0.56377476 0.65384156
0.76265514 0.56252366 0.65262657
0.76261634 0.56041086 0.65256578
0.76257753 0.55829805 0.65250498
0.76253873 0.55618525 0.65244418
0.76434934 0.55462939 0.65161341
0.76431048 0.55251306 0.6515525
0.76427162 0.55039674 0.65149158
0.76423275 0.54828042 0.65143073
0.76419389 0.5461641 0.65136981
0.76600415 0.54458719 0.65053844
0.76596522 0.54246742 0.65047741
0.76592624 0.54034758 0.65041643
0.76588732 0.53822774 0.6503554
0.7658484 0.53610796 0.65029442
0.76580948 0.53398812 0.65023339
0.76577049 0.53186834 0.65017241
0.76573157 0.5297485 0.65011138
0.76569265 0.52762872 0.6500504
0.76565373 0.52550888 0.64998937
0.76376629 0.52288473 0.65069979
0.76372743 0.5207684 0.65063888
0.76368856 0.51865208 0.65057802
0.7636497 0.51653576 0.65051711
0.76361084 0.51441944 0.65045619
0.76172376 0.51181632 0.65116721
0.76168495 0.50970358 0.65110642
0.76164615 0.50759077 0.65104562
0.76160735 0.50547791 0.65098482
0.76341647 0.50383788 0.65015167
0.76337761 0.50172156 0.65009075
0.76333874 0.49960527 0.65002984
0.76329982 0.49748898 0.64996892
0.76326096 0.49537268 0.64990801
0.7632221 0.49325636 0.64984709
0.76318324 0.49114007 0.64978623
0.76314437 0.48902375 0.64972532
0.76310551 0.48690742 0.6496644
0.76306665 0.48479113 0.64960349
0.76302773 0.48267481 0.64954257
0.76298887 0.48055851 0.64948165
0.76295 0.47844219 0.6494208
0.76291114 0.47632587 0.64935988
0.76287228 0.47420958 0.64929897
0.76098645 0.47167307 0.6500119
0.76094764 0.46956027 0.6499511
0.76090884 0.46744746 0.6498903
0.76087004 0.46533465 0.64982951
0.76083124 0.46322185 0.64976871
0.76079243 0.46110904 0.64970791
0.75798374 0.45839754 0.65080881
0.75794506 0.45628998 0.65074819
0.75605989 0.45379031 0.6514622
0.75602126 0.45168629 0.65140164
0.75598264 0.44958225 0.65134108
0.75594395 0.4474782 0.65128052
0.75590533 0.44537416 0.65122002
0.7512514 0.44233367 0.65309745
0.75121289 0.44023839 0.65303713
0.75117439 0.43814313 0.65297681
0.74928993 0.43568379 0.65369207
0.74925148 0.43359202 0.65363187
0.7492131 0.43150026 0.65357167
0.74732894 0.42905492 0.65428728
0.74729061 0.42696667 0.65422714
0.74725223 0.42487842 0.65416706
0.7472139 0.42279017 0.65410697
0.71831751 0.79438519 0.67786568
0.71828038 0.79236358 0.67780751
0.71824324 0.79034191 0.67774934
0.71820611 0.7883203 0.67769116
0.71816897 0.78629869 0.67763299
0.71998769 0.78525841 0.67681384
0.7199505 0.78323328 0.67675555
0.7199133 0.7812081 0.67669725
0.71987611 0.77918303 0.67663896
0.71983892 0.7771579 0.67658073
0.71980172 0.77513278 0.67652243
0.71976453 0.77310765 0.67646414
0.71972734 0.77108246 0.67640585
0.72154552 0.77001065 0.67558581
0.72150826 0.76798207 0.67552739
0.72147101 0.76595336 0.67546904
0.72328901 0.76486754 0.67464852
0.7232517 0.76283538 0.67459005
0.72506946 0.76173902 0.6737693
0.72781461 0.76110178 0.67256707
0.72777712 0.75906086 0.67250836
0.72959447 0.75794518 0.67168701
0.73141176 0.75682253 0.67086554
0.73137414 0.75477463 0.67080659
0.73319119 0.75364143 0.66998476
0.73315352 0.75159001 0.66992569
0.73497051 0.75044626 0.66910356
0.73771441 0.74974769 0.66789967
0.73767656 0.74768746 0.66784036
0.73763871 0.74562722 0.66778105
0.73945528 0.74446082 0.66695821
0.73941737 0.74239707 0.66689885
0.74308777 0.74210674 0.66531205
0.74583095 0.74136078 0.66410673
0.74579281 0.73928481 0.664047
0.74575466 0.73720878 0.66398728
0.74757046 0.73600549 0.66316342
0.74753225 0.733926 0.66310358
0.74934781 0.73271221 0.66227943
0.74930954 0.73062915 0.66221946
0.75205183 0.72983414 0.66101277
0.75386703 0.72860098 0.66018808
0.75382864 0.72650927 0.66012788
0.7537902 0.72441751 0.66006768
0.75375181 0.72232574 0.66000748
0.75371337 0.72023398 0.65994728
0.75367492 0.71814221 0.65988708
0.75363654 0.71605045 0.65982687
0.75359809 0.71395868 0.65976667
0.75355971 0.71186692 0.65970647
0.75352126 0.70977515 0.65964627
0.75348282 0.70768338 0.65958607
0.75344443 0.70559162 0.65952587
0.75340599 0.70349985 0.65946567
0.7533676 0.70140809 0.65940547
0.75518197 0.70012236 0.65857917
0.75514346 0.69802707 0.65851891
0.75510496 0.69593179 0.65845859
0.75506651 0.69383657 0.65839827
0.7568804 0.69253331 0.65757155
0.7568419 0.69043452 0.65751117
0.75680333 0.68833578 0.65745074
0.75676477 0.68623698 0.65739036
0.75950456 0.68530518 0.65617973
0.75946587 0.68320113 0.65611917
0.75942725 0.68109709 0.65605861
0.76124054 0.67976052 0.65523094
0.75934994 0.676889 0.65593749
0.75931132 0.67478496 0.65587693
0.75927263 0.67268091 0.65581638
0.75923401 0.67057687 0.65575582
0.75919539 0.66847283 0.65569526
0.7591567 0.66636884 0.6556347
0.75911808 0.6642648 0.65557414
0.7590794 0.66216075 0.65551358
0.75904077 0.66005671 0.65545303
0.75900215 0.65795267 0.65539253
0.75896347 0.65584862 0.65533197
0.75614798 0.65265656 0.65642393
0.75610948 0.65055776 0.65636355
0.75421983 0.6477406 0.65707165
0.75418133 0.64564532 0.65701133
0.75414288 0.6435501 0.65695107
0.75410438 0.64145482 0.65689075
0.75591671 0.64006388 0.65606153
0.75587815 0.63796508 0.65600109
0.75583959 0.63586628 0.65594071
0.75857705 0.6348083 0.65472639
0.75853837 0.63270426 0.65466589
0.75849974 0.63060021 0.65460533
0.75846112 0.62849617 0.65454477
0.75842243 0.62639213 0.65448421
0.76023412 0.62496436 0.65365392
0.76019537 0.62285686 0.65359324
0.76015669 0.62074929 0.65353256
0.76011795 0.61864173 0.65347195
0.76007926 0.61653417 0.65341127
0.76004052 0.61442667 0.65335065
0.76000184 0.61231911 0.65328997
0.75996315 0.61021155 0.6532293
0.75992441 0.60810399 0.65316868
0.75988573 0.60599649 0.653108
0.75799733 0.6032477 0.65381813
0.75795871 0.60114366 0.65375757
0.75792003 0.59903961 0.65369701
0.75510716 0.59598953 0.65479308
0.7550686 0.59389079 0.65473264
0.7550301 0.59179199 0.65467227
0.75499153 0.58969319 0.65461183
0.75495297 0.58759445 0.65455145
0.7549144 0.58549565 0.65449107
0.75764954 0.58431137 0.65327311
0.75761092 0.58220732 0.65321255
0.75757223 0.58010328 0.65315199
0.75753361 0.57799923 0.65309149
0.75749493 0.57589519 0.65303093
0.7574563 0.57379115 0.65297037
0.75741768 0.57168716 0.65290982
0.757379 0.56958312 0.65284926
0.75734037 0.56747907 0.6527887
0.75915021 0.56595314 0.65195554
0.75911152 0.56384563 0.65189493
0.76184541 0.56259471 0.65067506
0.76180661 0.56048191 0.65061426
0.7617678 0.55836904 0.65055346
0.76172894 0.55625623 0.65049267
0.76353824 0.55470049 0.64965868
0.76349938 0.55258423 0.64959776
0.76346052 0.55046791 0.64953685
0.76342165 0.54835159 0.64947593
0.76338279 0.54623526 0.64941502
0.76519167 0.54465848 0.64858043
0.76515275 0.5425387 0.64851946
0.76511383 0.54041886 0.64845842
0.76507491 0.53829902 0.64839745
0.76503593 0.53617924 0.64833641
0.76499701 0.53405941 0.64827543
0.76495808 0.53193957 0.6482144
0.76491916 0.52981979 0.64815342
0.76488018 0.52769995 0.64809239
0.76484126 0.52558011 0.64803135
0.76295519 0.52295583 0.64874506
0.76291633 0.52083951 0.64868414
0.76287746 0.51872325 0.64862323
0.7628386 0.51660693 0.64856237
0.76279974 0.5144906 0.64850146
0.76091403 0.51188737 0.64921576
0.76087523 0.50977457 0.6491549
0.76083642 0.50766176 0.6490941
0.76079762 0.50554895 0.64903331
0.76260537 0.50390905 0.64819688
0.76256651 0.50179273 0.64813602
0.76252764 0.49967644 0.6480751
0.76248872 0.49756011 0.64801419
0.76244986 0.49544382 0.64795327
0.762411 0.49332753 0.64789236
0.76237214 0.49121121 0.64783144
0.76233327 0.48909491 0.64777058
0.76229441 0.48697859 0.64770967
0.76225549 0.48486227 0.64764875
0.76221663 0.48274598 0.64758784
0.76217777 0.48062965 0.64752692
0.7621389 0.47851333 0.647466
0.76210004 0.47639704 0.64740509
0.76206118 0.47428071 0.64734423
0.76017672 0.47174409 0.64806044
0.76013792 0.46963128 0.64799958
0.76009911 0.46751851 0.64793879
0.76006031 0.4654057 0.64787799
0.76002145 0.46329287 0.64781719
0.75998265 0.46118009 0.6477564
0.75717598 0.45846841 0.64886218
0.7571373 0.45636085 0.64880151
0.75525349 0.45386106 0.64951879
0.75521487 0.45175701 0.64945823
0.75517619 0.449653 0.64939767
0.75513756 0.44754896 0.64933711
0.75509894 0.44544491 0.64927655
0.75044835 0.44240412 0.65116215
0.75040984 0.44030884 0.65110183
0.7503714 0.43821356 0.65104151
0.74848819 0.43575409 0.65175998
0.7484498 0.43366235 0.65169978
0.74841136 0.43157059 0.65163958
0.74652857 0.42912513 0.65235841
0.74649024 0.42703688 0.65229833
0.74645185 0.42494863 0.65223825
0.74641353 0.42286038 0.65217811
0.71754265 0.79445314 0.67599839
0.71750551 0.79243153 0.67594022
0.71746838 0.79040992 0.67588204
0.71743125 0.78838825 0.67582387
0.71739411 0.78636664 0.67576569
0.71921158 0.78532648 0.67494333
0.71917439 0.78330135 0.67488503
0.71913719 0.78127623 0.67482674
0.7191 0.77925116 0.67476845
0.71906275 0.77722597 0.67471015
0.71902555 0.77520084 0.67465186
0.71898836 0.77317572 0.67459363
0.71895117 0.77115059 0.67453533
0.72076803 0.77007884 0.67371202
0.72073078 0.76805025 0.67365366
0.72069353 0.76602161 0.67359525
0.72251022 0.76493585 0.67277151
0.72247285 0.76290369 0.67271304
0.72428924 0.76180744 0.67188901
0.72703242 0.76117039 0.67068201
0.72699493 0.75912946 0.67062324
0.72881097 0.75801396 0.66979867
0.73062688 0.75689137 0.66897392
0.73058921 0.75484347 0.66891497
0.73240495 0.75371039 0.66808993
0.73236728 0.75165898 0.66803086
0.73418289 0.75051534 0.66720545
0.73692483 0.74981695 0.66599673
0.73688698 0.74775672 0.66593742
0.73684913 0.74569654 0.66587812
0.73866433 0.7445302 0.66505206
0.73862642 0.74246645 0.66499269
0.74229413 0.74217635 0.6633994
0.74503529 0.74143058 0.66218925
0.74499714 0.73935461 0.66212952
0.74495906 0.73727858 0.66206974
0.74677348 0.7360754 0.66124266
0.74673527 0.73399591 0.66118282
0.74854952 0.73278224 0.66035545
0.74851125 0.73069918 0.66029549
0.75125146 0.72990435 0.6590839
0.75306535 0.72867131 0.65825599
0.75302696 0.72657961 0.65819579
0.75298852 0.72448784 0.65813559
0.75295007 0.72239608 0.65807539
0.75291169 0.72030431 0.65801519
0.75287324 0.71821249 0.65795499
0.75283486 0.71612078 0.65789479
0.75279641 0.71402901 0.65783459
0.75275797 0.71193725 0.65777439
0.75271958 0.70984548 0.65771419
0.75268114 0.70775372 0.65765399
0.75264275 0.70566195 0.65759379
0.75260431 0.70357019 0.65753359
0.75441742 0.70228809 0.65670419
0.75437891 0.70019281 0.65664387
0.75434041 0.69809753 0.65658355
0.75430197 0.69600224 0.65652329
0.75426346 0.69390702 0.65646297
0.75607604 0.69260383 0.65563303
0.7588141 0.691688 0.65441793
0.75877541 0.68958396 0.65435737
0.75873679 0.68747997 0.65429682
0.76054895 0.68615401 0.65346622
0.76051021 0.68404645 0.65340555
0.76047152 0.68193895 0.65334493
0.76043284 0.67983139 0.65328425
0.7603941 0.67772382 0.65322363
0.76035541 0.67561626 0.65316296
0.76031667 0.67350876 0.65310228
0.76027799 0.6714012 0.65304166
0.76023924 0.66929364 0.65298098
0.76020056 0.66718608 0.65292037
0.76016182 0.66507858 0.65285969
0.76012313 0.66297102 0.65279901
0.76008445 0.66086346 0.65273839
0.76004571 0.65875596 0.65267771
0.76000702 0.6566484 0.65261704
0.75811845 0.65381533 0.653328
0.75807983 0.65171129 0.65326744
0.75526655 0.64852953 0.65436459
0.75522798 0.64643079 0.65430415
0.75518942 0.64433199 0.65424377
0.75515085 0.64223319 0.65418333
0.75511235 0.64013445 0.65412295
0.75507379 0.63803566 0.65406257
0.75503522 0.63593686 0.65400213
0.75777066 0.63487899 0.65278298
0.75773197 0.63277495 0.65272242
0.75769335 0.63067096 0.65266192
0.75765473 0.62856692 0.65260136
0.75761604 0.62646288 0.6525408
0.75757742 0.62435883 0.65248024
0.75753874 0.62225479 0.65241969
0.75750011 0.62015074 0.65235913
0.75746149 0.6180467 0.65229857
0.7592715 0.61660504 0.65146464
0.75738418 0.61383867 0.65217745
0.75734556 0.61173463 0.65211689
0.75730687 0.60963058 0.65205634
0.75726825 0.60752654 0.65199578
0.75722957 0.6054225 0.65193522
0.75719094 0.60331845 0.65187472
0.75437987 0.60025769 0.65297532
0.75434136 0.5981589 0.65291488
0.7543028 0.5960601 0.6528545
0.75426424 0.59396136 0.65279412
0.75422567 0.59186256 0.65273368
0.75418717 0.58976376 0.6526733
0.7541486 0.58766502 0.65261292
0.75411004 0.58556622 0.65255249
0.75684315 0.58438212 0.6513297
0.75680447 0.58227807 0.65126914
0.75676584 0.58017403 0.65120858
0.75672722 0.57806998 0.65114808
0.75668854 0.57596594 0.65108752
0.75664991 0.5738619 0.65102696
0.75845861 0.57234663 0.65019089
0.75841987 0.57023913 0.65013021
0.75838119 0.56813157 0.65006959
0.76111323 0.56689131 0.6488452
0.76107442 0.56477851 0.64878434
0.76103562 0.5626657 0.64872354
0.76099682 0.5605529 0.64866275
0.76095802 0.55844009 0.64860195
0.762766 0.55688798 0.6477648
0.76272714 0.55477166 0.64770395
0.76268828 0.55265534 0.64764303
0.76449603 0.55108923 0.64680547
0.76445711 0.54896939 0.64674449
0.76441818 0.54684961 0.64668345
0.76437926 0.54472977 0.64662248
0.76434028 0.54260993 0.64656144
0.76430136 0.54049015 0.64650047
0.76426244 0.53837031 0.64643943
0.76422352 0.53625053 0.64637846
0.76418459 0.53413069 0.64631742
0.76414561 0.53201085 0.64625639
0.76410669 0.52989101 0.64619541
0.76406777 0.52777123 0.64613438
0.76218295 0.52514333 0.64685124
0.76214409 0.523027 0.64679033
0.76210523 0.52091068 0.64672941
0.76022071 0.51829684 0.64744663
0.7601819 0.51618403 0.64738584
0.7601431 0.51407123 0.64732504
0.7601043 0.51195842 0.64726424
0.76006544 0.50984561 0.64720339
0.76002663 0.50773281 0.64714259
0.75998783 0.50562 0.64708179
0.76179427 0.50398022 0.64624214
0.76175541 0.5018639 0.64618123
0.76171649 0.49974757 0.64612037
0.76167762 0.49763128 0.64605945
0.76163876 0.49551499 0.64599854
0.7615999 0.49339867 0.64593762
0.76156104 0.49128237 0.64587671
0.76152217 0.48916605 0.64581579
0.76332796 0.48749468 0.64497524
0.76328903 0.48537487 0.64491427
0.76325011 0.48325506 0.64485323
0.76321119 0.48113525 0.6447922
0.7613278 0.4785845 0.64551127
0.76128894 0.47646818 0.64545035
0.76125008 0.47435188 0.64538944
0.76121122 0.47223556 0.64532852
0.76117229 0.47011927 0.64526767
0.76113343 0.46800295 0.64520675
0.75925052 0.46547675 0.64592648
0.75921172 0.46336392 0.64586568
0.75917292 0.46125111 0.64580488
0.75913411 0.45913833 0.64574409
0.75909531 0.4570255 0.64568329
0.75629085 0.45432416 0.6467942
0.75440848 0.45182776 0.64751482
0.7543698 0.44972375 0.64745426
0.75433117 0.44761971 0.6473937
0.75429255 0.44551566 0.64733315
0.75148869 0.4428494 0.64844513
0.74960679 0.44037929 0.64916652
0.74956834 0.43828401 0.6491062
0.74952984 0.43618873 0.64904588
0.74764812 0.43373269 0.6497677
0.74760967 0.43164092 0.6497075
0.74757129 0.42954913 0.6496473
0.74753284 0.42745739 0.64958709
0.7474944 0.42536563 0.64952689
0.74745601 0.42327386 0.64946669
0.71676785 0.79452115 0.6741311
0.71673071 0.79249948 0.67407292
0.71669358 0.79047787 0.67401475
0.71665645 0.78845626 0.67395657
0.7184726 0.78741974 0.67313105
0.71843541 0.78539461 0.67307276
0.71839821 0.78336942 0.67301446
0.71836102 0.78134429 0.67295623
0.71832383 0.77931923 0.67289793
0.71828663 0.7772941 0.67283964
0.72010231 0.77623302 0.6720134
0.72006506 0.77420437 0.67195499
0.7200278 0.77217573 0.67189664
0.7218433 0.77110064 0.67106998
0.72180599 0.76906848 0.67101145
0.72176868 0.76703638 0.67095298
0.72358388 0.76594722 0.67012596
0.72354645 0.76391155 0.67006737
0.72628766 0.76327991 0.66885561
0.72810251 0.76217157 0.668028
0.72806495 0.76012713 0.66796917
0.72987956 0.75900823 0.66714126
0.72984195 0.75696027 0.66708231
0.72980434 0.75491238 0.66702342
0.7316187 0.75377935 0.66619509
0.73158103 0.75172794 0.66613609
0.73339534 0.75058442 0.6653074
0.73613518 0.74988621 0.66409379
0.7360974 0.74782604 0.66403449
0.73791128 0.74666327 0.66320527
0.73972499 0.74549347 0.66237593
0.73968703 0.74342626 0.66231644
0.7415005 0.74224597 0.66148674
0.74423963 0.74150038 0.66027176
0.74420154 0.73942441 0.66021198
0.74601465 0.73822486 0.65938181
0.74782765 0.73701823 0.65855134
0.74778944 0.73493528 0.65849143
0.74775118 0.73285228 0.65843147
0.74771291 0.73076922 0.65837151
0.75045115 0.72997457 0.6571551
0.75226367 0.72874165 0.65632391
0.75222522 0.72664994 0.65626371
0.75218683 0.72455817 0.65620351
0.75214839 0.72246641 0.65614331
0.75211 0.72037464 0.65608311
0.75392222 0.71912068 0.65525126
0.75388378 0.7170254 0.65519094
0.75384527 0.71493018 0.65513068
0.75380677 0.71283484 0.65507036
0.7519179 0.70991582 0.6557821
0.75187945 0.70782405 0.6557219
0.75369132 0.70654905 0.65488946
0.75365287 0.70445383 0.65482914
0.75361437 0.70235854 0.65476888
0.75542587 0.70106953 0.65393609
0.75538731 0.69897074 0.65387565
0.75534874 0.696872 0.65381527
0.75531024 0.6947732 0.65375483
0.75804633 0.6938628 0.65253508
0.75985736 0.6925475 0.65170151
0.75981861 0.69043994 0.65164089
0.75977993 0.68833244 0.65158021
0.75974119 0.68622488 0.6515196
0.7597025 0.68411732 0.65145892
0.76243788 0.68316656 0.65023798
0.76424831 0.68182147 0.64940357
0.76420945 0.6797052 0.64934266
0.76417059 0.67758888 0.6492818
0.76413172 0.67547256 0.64922088
0.76409286 0.67335624 0.64915997
0.76405394 0.67123991 0.64909905
0.7621662 0.66837692 0.64981234
0.7621274 0.66626418 0.64975154
0.7620886 0.66415137 0.64969075
0.76204979 0.66203856 0.64962995
0.75923795 0.65882683 0.65073109
0.75919926 0.65671927 0.65067041
0.75916058 0.65461171 0.65060973
0.75912184 0.65250415 0.65054911
0.75723475 0.64967799 0.65126348
0.75719613 0.64757395 0.65120292
0.75715744 0.6454699 0.65114236
0.75711882 0.64336586 0.6510818
0.7570802 0.64126188 0.65102124
0.75704151 0.63915783 0.65096068
0.75700289 0.63705379 0.65090013
0.75696421 0.63494974 0.65083957
0.75692558 0.6328457 0.65077901
0.75688696 0.63074166 0.65071845
0.75684828 0.62863761 0.65065795
0.75680965 0.62653363 0.65059739
0.75677103 0.62442958 0.65053684
0.75673234 0.62232554 0.65047628
0.75669372 0.6202215 0.65041572
0.7566551 0.61811745 0.65035516
0.7584638 0.61667591 0.64951795
0.75657779 0.61390936 0.65023404
0.75653911 0.61180532 0.65017349
0.75650048 0.60970134 0.65011293
0.75646186 0.60759729 0.65005237
0.75642318 0.60549325 0.64999181
0.75638455 0.6033892 0.64993131
0.7535755 0.60032827 0.65103674
0.75353694 0.59822947 0.65097636
0.75349844 0.59613067 0.65091598
0.75345987 0.59403193 0.65085554
0.75342131 0.59193313 0.65079516
0.75338274 0.58983433 0.65073472
0.75334424 0.58773559 0.65067434
0.75330567 0.58563679 0.65061396
0.75603676 0.58445287 0.64938629
0.75599808 0.58234882 0.64932573
0.75595945 0.58024478 0.64926517
0.75592083 0.57814074 0.64920461
0.75588214 0.57603669 0.64914411
0.75584352 0.57393265 0.64908355
0.75765085 0.5724175 0.6482442
0.75761217 0.57030994 0.64818358
0.75757343 0.56820244 0.64812291
0.7603035 0.56696236 0.64689368
0.76026469 0.56484956 0.64683288
0.76022589 0.56273675 0.64677203
0.76203269 0.5611918 0.6459319
0.76199383 0.55907547 0.64587098
0.7619549 0.55695915 0.64581007
0.76376146 0.55540013 0.64496952
0.76372254 0.55328029 0.64490849
0.76368362 0.55116051 0.64484751
0.7636447 0.54904068 0.64478648
0.76360571 0.54692084 0.6447255
0.76356679 0.54480106 0.64466447
0.76352787 0.54268122 0.64460349
0.76348895 0.54056138 0.64454246
0.76344997 0.5384416 0.64448148
0.76341105 0.53632176 0.64442044
0.76337212 0.53420198 0.64435941
0.7633332 0.53208214 0.64429843
0.76329422 0.5299623 0.6442374
0.7632553 0.52784252 0.64417642
0.76137185 0.52521449 0.64489645
0.76133299 0.52309817 0.64483559
0.76129413 0.52098185 0.64477468
0.75941092 0.51836789 0.64549512
0.75937212 0.51625508 0.64543432
0.75933331 0.51414227 0.64537352
0.75929451 0.51202947 0.64531273
0.75925571 0.50991666 0.64525193
0.7592169 0.50780386 0.64519107
0.7591781 0.50569105 0.64513028
0.76098317 0.50405139 0.64428741
0.76094431 0.50193506 0.64422649
0.76090539 0.49981874 0.64416558
0.76086652 0.49770242 0.64410466
0.76082766 0.49558616 0.6440438
0.7607888 0.49346983 0.64398289
0.76074994 0.49135351 0.64392197
0.76071107 0.48923722 0.64386106
0.76251554 0.48756596 0.64301729
0.76247662 0.48544613 0.64295626
0.76243764 0.48332635 0.64289522
0.76239872 0.48120651 0.64283425
0.7605167 0.47865567 0.64355654
0.76047784 0.47653934 0.64349562
0.76043898 0.47442302 0.6434347
0.76040012 0.47230673 0.64337379
0.76036119 0.47019041 0.64331287
0.76032233 0.46807408 0.64325202
0.75844079 0.46554777 0.64397496
0.75840193 0.46343496 0.64391416
0.75836313 0.46132216 0.64385337
0.75832433 0.45920935 0.64379257
0.75828552 0.45709655 0.64373177
0.75548309 0.45439503 0.64484757
0.75360209 0.45189852 0.64557141
0.7535634 0.44979447 0.64551085
0.75352478 0.44769046 0.64545029
0.75348616 0.44558641 0.64538974
0.75068432 0.44291994 0.64650661
0.74880379 0.44044974 0.64723116
0.74876529 0.43835446 0.6471709
0.74872679 0.43625918 0.64711058
0.74684644 0.43380302 0.64783561
0.74680799 0.43171123 0.64777541
0.74676955 0.42961946 0.64771521
0.74673116 0.42752773 0.64765501
0.74669272 0.42543596 0.64759481
0.74481285 0.42300081 0.64832044
0.7178452 0.79558837 0.67149365
0.71780801 0.79356325 0.67143536
0.71777081 0.79153806 0.67137706
0.71773362 0.78951293 0.67131877
0.71769643 0.7874878 0.67126054
0.71765924 0.78546268 0.67120224
0.71762204 0.78343755 0.67114395
0.71943659 0.78238714 0.67031479
0.71939933 0.78035849 0.67025638
0.71936208 0.77832985 0.67019802
0.71932483 0.77630121 0.67013961
0.72113913 0.77523321 0.66930991
0.72110182 0.77320111 0.66925144
0.72106451 0.77116895 0.66919291
0.72102714 0.76913679 0.66913444
0.72284102 0.76805127 0.66830426
0.72280365 0.76601565 0.66824567
0.72276628 0.76397997 0.66818708
0.72550547 0.76334852 0.66697049
0.72731894 0.76224029 0.66613966
0.72728139 0.76019585 0.66608083
0.72909468 0.75907707 0.66524971
0.72905707 0.75702912 0.66519076
0.72901946 0.75498122 0.66513181
0.73083246 0.75384837 0.66430026
0.73079479 0.75179696 0.66424125
0.73260772 0.75065356 0.66340935
0.7353456 0.74995553 0.66219085
0.73530775 0.7478953 0.66213155
0.73712033 0.74673265 0.66129911
0.73893273 0.74556297 0.66046655
0.73889476 0.74349576 0.66040701
0.74070686 0.74231565 0.65957415
0.74344403 0.74157017 0.65835422
0.74340588 0.7394942 0.6582945
0.74521768 0.73829478 0.65746105
0.74702936 0.73708826 0.65662736
0.7469911 0.73500532 0.65656745
0.74695283 0.73292232 0.65650749
0.74691457 0.73083925 0.65644753
0.74965078 0.73004478 0.65522623
0.75146198 0.72881198 0.65439183
0.75142354 0.72672027 0.65433162
0.75138515 0.72462851 0.65427142
0.75134671 0.72253668 0.65421122
0.75130826 0.72044498 0.65415102
0.75311917 0.71919113 0.65331596
0.75308073 0.71709585 0.65325564
0.75304222 0.71500063 0.65319532
0.75300372 0.71290529 0.65313506
0.75111616 0.70998615 0.65385002
0.75107777 0.70789438 0.65378982
0.75103933 0.70580262 0.65372962
0.75100094 0.70371085 0.65366942
0.75281131 0.702429 0.65283352
0.75462151 0.70114011 0.65199751
0.75458294 0.69904131 0.65193713
0.75454438 0.69694257 0.65187669
0.75450581 0.69484377 0.65181631
0.75723994 0.69393355 0.65059167
0.75904959 0.69261837 0.64975488
0.75901091 0.69051081 0.6496942
0.75897217 0.68840331 0.64963359
0.75893348 0.68629575 0.64957291
0.75889474 0.68418819 0.64951229
0.76162809 0.68323761 0.64828646
0.76343721 0.68189263 0.64744884
0.76339835 0.67977631 0.64738792
0.76335949 0.67765999 0.64732701
0.76332062 0.67554373 0.64726609
0.76328176 0.6734274 0.64720523
0.76324284 0.67131108 0.64714432
0.76135647 0.66844797 0.64786083
0.76131767 0.66633517 0.64780003
0.76127881 0.66422242 0.64773923
0.76124001 0.66210961 0.64767843
0.75843024 0.65889764 0.6487844
0.7583915 0.65679014 0.64872378
0.75835282 0.65468258 0.6486631
0.75831407 0.65257502 0.64860243
0.75642836 0.64974874 0.64932007
0.75638974 0.6476447 0.64925951
0.75635105 0.64554065 0.64919895
0.75631243 0.64343661 0.64913839
0.75627375 0.64133263 0.64907783
0.75623512 0.63922858 0.64901727
0.7561965 0.63712454 0.64895672
0.75615782 0.63502049 0.64889616
0.75334936 0.63188046 0.65000421
0.7533108 0.62978166 0.64994383
0.75604188 0.62870836 0.64871454
0.75600326 0.62660432 0.64865398
0.75596464 0.62450027 0.64859343
0.75592595 0.62239629 0.64853287
0.75311804 0.61928779 0.64964181
0.75307953 0.61718899 0.64958143
0.75304097 0.61509025 0.64952099
0.75300241 0.61299145 0.64946061
0.75296384 0.61089265 0.64940023
0.75292534 0.60879391 0.6493398
0.75565547 0.60766798 0.64810896
0.75561678 0.605564 0.6480484
0.7528097 0.60249758 0.6491586
0.75277114 0.60039878 0.64909822
0.75273257 0.59830004 0.64903778
0.75269401 0.59620124 0.6489774
0.75265551 0.59410244 0.64891702
0.75261694 0.5920037 0.64885658
0.75257838 0.5899049 0.6487962
0.75253981 0.58780617 0.64873576
0.75250131 0.58570737 0.64867538
0.75523037 0.58452362 0.64744288
0.75519168 0.58241957 0.64738232
0.75515306 0.58031553 0.64732176
0.75511438 0.57821149 0.6472612
0.75507575 0.57610744 0.64720064
0.75503713 0.5740034 0.64714015
0.75684309 0.57248837 0.64629757
0.75680441 0.57038081 0.6462369
0.75676572 0.56827325 0.64617628
0.75949371 0.56703341 0.64494216
0.75945491 0.5649206 0.64488137
0.7594161 0.5628078 0.64482057
0.76122159 0.56126291 0.64397717
0.76118273 0.55914658 0.64391625
0.7611438 0.55703032 0.64385533
0.76294905 0.55547142 0.64301151
0.76291007 0.55335158 0.64295053
0.76287115 0.5512318 0.6428895
0.76283222 0.54911196 0.64282852
0.7627933 0.54699212 0.64276749
0.76275432 0.54487228 0.64270651
0.7627154 0.5427525 0.64264548
0.76267648 0.54063267 0.64258444
0.76263756 0.53851283 0.64252347
0.76259863 0.53639305 0.64246243
0.76255965 0.53427321 0.64240146
0.76252073 0.53215343 0.64234042
0.76063848 0.52951825 0.64306355
0.76059961 0.52740192 0.64300263
0.76056075 0.5252856 0.64294171
0.75867879 0.52266449 0.64366525
0.75863999 0.52055168 0.6436044
0.75860119 0.51843894 0.6435436
0.75856239 0.51632613 0.6434828
0.75852358 0.51421326 0.64342201
0.75848478 0.51210052 0.64336121
0.75844592 0.50998771 0.64330041
0.75840712 0.50787491 0.64323962
0.75836831 0.5057621 0.64317876
0.75832951 0.50364929 0.64311796
0.75829071 0.50153649 0.64305717
0.76009429 0.49988988 0.64221084
0.76005542 0.49777359 0.64214993
0.76001656 0.49565729 0.64208901
0.7599777 0.493541 0.64202809
0.75993884 0.49142468 0.64196724
0.75989997 0.48930836 0.64190632
0.76170307 0.48763725 0.64105928
0.76166415 0.48551741 0.64099824
0.76162523 0.4833976 0.64093727
0.76158631 0.48127779 0.64087623
0.76154733 0.47915795 0.64081526
0.76150841 0.47703817 0.64075422
0.76146948 0.47491834 0.64069325
0.75958896 0.47237787 0.64141905
0.75955009 0.47026157 0.64135814
0.75951123 0.46814525 0.64129722
0.75947237 0.46602893 0.64123631
0.75943351 0.46391264 0.64117545
0.7575534 0.46139321 0.64190185
0.7575146 0.4592804 0.64184105
0.75747579 0.4571676 0.64178026
0.75467533 0.4544659 0.64290094
0.75463665 0.45235834 0.64284027
0.75459796 0.4502508 0.64277959
0.75455922 0.44814324 0.64271897
0.75452054 0.44603571 0.64265829
0.75264108 0.44355312 0.64338577
0.74984139 0.44089174 0.64450765
0.74980283 0.43879294 0.64444721
0.74792379 0.43632963 0.64517528
0.74788529 0.43423435 0.64511496
0.74784678 0.4321391 0.6450547
0.74780834 0.43004382 0.64499438
0.74776983 0.42794856 0.64493406
0.74589103 0.42550629 0.64566278
0.74401248 0.42307103 0.64639163
0.71706909 0.79565644 0.66962314
0.7170319 0.79363132 0.66956484
0.7169947 0.79160619 0.66950655
0.71695745 0.78958106 0.66944826
0.71692026 0.78755587 0.66938996
0.71688306 0.78553075 0.66933167
0.71684587 0.78350562 0.66927344
0.7186591 0.78245533 0.668441
0.71862185 0.78042668 0.66838264
0.71858454 0.7783981 0.66832423
0.71854728 0.77636945 0.66826588
0.72036028 0.77530158 0.6674329
0.72032297 0.77326947 0.66737443
0.72028565 0.77123725 0.6673159
0.72024828 0.76920509 0.66725743
0.72206086 0.76811975 0.66642404
0.72202349 0.76608413 0.66636544
0.72198606 0.7640484 0.66630685
0.72472328 0.76341718 0.66508538
0.72653538 0.76230901 0.66425133
0.72649783 0.76026458 0.6641925
0.72830981 0.75914592 0.66335809
0.73012161 0.75802022 0.66252351
0.73008394 0.75596875 0.6624645
0.73004621 0.75391734 0.66240543
0.73000854 0.75186592 0.66234642
0.73182017 0.75072265 0.6615113
0.73455602 0.7500248 0.66028792
0.73451817 0.74796456 0.66022867
0.73632944 0.74680203 0.65939295
0.7381404 0.74563247 0.65855712
0.73810244 0.74356526 0.65849763
0.73991328 0.74238527 0.6576615
0.74264836 0.74163997 0.65643674
0.74261022 0.739564 0.65637702
0.74442071 0.7383647 0.65554029
0.74623102 0.7371583 0.65470338
0.74619275 0.73507535 0.65464348
0.74615449 0.73299235 0.65458351
0.74611622 0.73090929 0.65452355
0.74885041 0.730115 0.65329742
0.7506603 0.72888231 0.65245974
0.75062186 0.72679061 0.65239954
0.75058341 0.72469884 0.65233934
0.75054502 0.72260702 0.65227914
0.75050658 0.72051531 0.65221894
0.75231618 0.71926159 0.65138066
0.75227767 0.7171663 0.65132034
0.75223917 0.71507108 0.65126002
0.75220072 0.71297574 0.65119976
0.75031447 0.71005648 0.65191793
0.75027609 0.70796472 0.65185773
0.75023764 0.70587295 0.65179753
0.75019926 0.70378119 0.65173733
0.75200826 0.70249945 0.65089822
0.75381708 0.70121068 0.65005898
0.75377858 0.69911188 0.64999855
0.75374001 0.69701314 0.64993817
0.75647217 0.69610834 0.64870882
0.75643355 0.6940043 0.64864826
0.75824183 0.69268924 0.64780825
0.75820315 0.69058168 0.64774758
0.75816441 0.68847412 0.64768696
0.76089597 0.68753427 0.6464566
0.76085716 0.68542147 0.6463958
0.76266497 0.68408012 0.64555502
0.76262611 0.6819638 0.6454941
0.76258725 0.67984748 0.64543319
0.76254839 0.67773116 0.64537227
0.76250952 0.67561483 0.64531136
0.76247066 0.67349857 0.64525044
0.76243174 0.67138225 0.64518952
0.76239288 0.66926593 0.64512867
0.76235402 0.6671496 0.64506775
0.76231515 0.66503328 0.64500684
0.76227629 0.66291702 0.64494592
0.76039147 0.6600678 0.64566612
0.76035267 0.65795499 0.64560533
0.75754505 0.65475345 0.64671648
0.75750637 0.65264589 0.6466558
0.75562197 0.64981949 0.64737666
0.75558329 0.64771545 0.6473161
0.75554466 0.64561141 0.64725554
0.75550604 0.64350736 0.64719498
0.75546736 0.64140338 0.64713442
0.75542873 0.63929933 0.64707386
0.75539011 0.63719529 0.64701331
0.75535142 0.63509125 0.64695275
0.752545 0.63195103 0.64806569
0.75250643 0.62985224 0.64800531
0.75246787 0.6277535 0.64794487
0.75242931 0.6256547 0.64788449
0.7523908 0.6235559 0.64782405
0.75235224 0.62145716 0.64776367
0.75231367 0.61935836 0.64770329
0.75227511 0.61725956 0.64764285
0.7522366 0.61516082 0.64758247
0.75219804 0.61306202 0.64752209
0.75215948 0.61096323 0.64746165
0.75212091 0.60886449 0.64740127
0.75208241 0.60676569 0.64734083
0.75204384 0.60466689 0.64728045
0.75200528 0.60256815 0.64722008
0.75196671 0.60046935 0.64715964
0.75192821 0.59837061 0.64709926
0.75188965 0.59627181 0.64703882
0.75185108 0.59417301 0.64697844
0.75181258 0.59207428 0.64691806
0.75177401 0.58997548 0.64685762
0.75173545 0.58787668 0.64679724
0.75169688 0.58577794 0.64673686
0.75442392 0.58459437 0.64549947
0.75438529 0.58249032 0.64543891
0.75434667 0.58038628 0.64537835
0.75430799 0.57828224 0.64531779
0.75611281 0.5767743 0.64447224
0.75607407 0.57466674 0.64441156
0.75880039 0.57344282 0.64317304
0.75876158 0.57133007 0.64311224
0.75872278 0.56921726 0.64305145
0.75868398 0.5671044 0.64299065
0.75864518 0.56499165 0.64292985
0.76044935 0.5634504 0.64208329
0.7622534 0.56190211 0.64123654
0.76221448 0.55978227 0.64117557
0.7621755 0.55766249 0.64111453
0.76213658 0.55554265 0.64105356
0.76209766 0.55342287 0.64099252
0.76205873 0.55130303 0.64093155
0.76201975 0.54918325 0.64087051
0.76198083 0.54706341 0.64080954
0.76194191 0.54494357 0.6407485
0.76190299 0.54282379 0.64068747
0.76186401 0.54070395 0.64062649
0.76182508 0.53858411 0.64056545
0.76178616 0.53646433 0.64050448
0.76174724 0.53434449 0.64044344
0.76170832 0.53222466 0.64038247
0.75982738 0.52958941 0.64110881
0.75978851 0.52747309 0.64104789
0.75974965 0.52535677 0.64098698
0.75786901 0.52273554 0.64171374
0.7578302 0.52062273 0.64165294
0.7577914 0.51850992 0.64159209
0.7577526 0.51639718 0.64153129
0.75771379 0.51428431 0.64147049
0.75767499 0.51217151 0.6414097
0.75763619 0.51005876 0.6413489
0.75759739 0.50794595 0.6412881
0.75755858 0.50583309 0.64122725
0.75751978 0.50372034 0.64116645
0.75748098 0.50160754 0.64110565
0.75928319 0.49996105 0.64025611
0.75924432 0.49784473 0.64019519
0.75920546 0.49572846 0.64013427
0.7591666 0.49361214 0.64007336
0.75912774 0.49149585 0.64001244
0.75908887 0.48937953 0.63995159
0.76089066 0.48770851 0.63910127
0.76085168 0.48558867 0.63904029
0.76081276 0.48346889 0.63897926
0.76077384 0.48134905 0.63891828
0.76073492 0.47922924 0.63885725
0.76069599 0.47710943 0.63879627
0.76065701 0.47498962 0.63873523
0.76061809 0.47286978 0.63867426
0.76057917 0.47074997 0.63861322
0.76054025 0.46863016 0.63855219
0.75866127 0.4661001 0.63928157
0.75862241 0.46398377 0.63922065
0.75674361 0.46146423 0.63995034
0.75670481 0.45935142 0.63988954
0.756666 0.45723861 0.63982874
0.7566272 0.45512584 0.63976794
0.75382888 0.45242921 0.64089364
0.7537902 0.45032167 0.64083296
0.75375146 0.44821411 0.64077228
0.75371277 0.44610658 0.64071167
0.75367409 0.44399902 0.64065099
0.75179607 0.4415198 0.6413818
0.75175738 0.43941575 0.6413213
0.7489599 0.43676475 0.64244825
0.74708223 0.4343048 0.64317966
0.74704379 0.43220955 0.64311934
0.74700528 0.43011427 0.64305907
0.74696678 0.42801902 0.64299875
0.74692833 0.42592373 0.64293844
0.74505091 0.42348483 0.6436705
0.71814239 0.79672408 0.66697592
0.71810514 0.79469538 0.66691756
0.71806788 0.79266673 0.66685915
0.71803063 0.79063809 0.6668008
0.71799338 0.7886095 0.66674238
0.71795613 0.78658086 0.66668397
0.71791887 0.78455222 0.66662562
0.71788156 0.78252351 0.66656721
0.71969342 0.78146631 0.66573131
0.71965611 0.7794342 0.66567284
0.71961874 0.77740204 0.66561437
0.71958143 0.77536988 0.66555589
0.71954411 0.77333778 0.66549742
0.72135544 0.77225947 0.66466093
0.72131807 0.77022386 0.66460234
0.72128069 0.76818818 0.66454375
0.72401601 0.76756763 0.66331774
0.72397852 0.76552671 0.66325903
0.72578943 0.76442218 0.66242182
0.7276001 0.76331061 0.66158438
0.72756249 0.76126266 0.66152543
0.72752488 0.75921476 0.66146654
0.72933537 0.75808918 0.66062868
0.7292977 0.75603771 0.66056967
0.73110807 0.75490165 0.65973151
0.73384207 0.75421447 0.65850359
0.73380423 0.75215423 0.65844429
0.73376644 0.75009406 0.65838504
0.73372859 0.74803382 0.65832573
0.73553848 0.74687141 0.6574868
0.73734814 0.74570197 0.65664774
0.73731017 0.74363476 0.65658826
0.73911965 0.74245489 0.65574884
0.7418527 0.74170977 0.65451926
0.74181455 0.7396338 0.65445948
0.74362367 0.73843461 0.65361959
0.74543267 0.73722833 0.6527794
0.74539441 0.73514539 0.6527195
0.74535614 0.73306239 0.65265954
0.74531788 0.73097932 0.65259957
0.74805009 0.73018521 0.65136856
0.74985856 0.72895265 0.65052766
0.74982017 0.72686088 0.65046746
0.74978173 0.72476918 0.65040725
0.74974334 0.72267735 0.65034705
0.7497049 0.72058564 0.65028685
0.75151312 0.71933204 0.6494453
0.75147462 0.71723676 0.64938504
0.75143617 0.71514153 0.64932472
0.75139767 0.71304619 0.6492644
0.74951279 0.71012682 0.64998585
0.74947435 0.70803499 0.64992565
0.74943596 0.70594329 0.64986545
0.74939752 0.70385152 0.64980525
0.75120527 0.7025699 0.64896291
0.75301272 0.70128125 0.6481204
0.75297415 0.69918245 0.64806002
0.75293559 0.69708365 0.64799958
0.75566578 0.69617903 0.64676541
0.7556271 0.69407499 0.64670485
0.75743413 0.69276011 0.64586157
0.75739539 0.69065255 0.64580095
0.7573567 0.68854499 0.64574027
0.76008618 0.68760526 0.64450508
0.76004738 0.68549252 0.64444429
0.76185387 0.68415123 0.64360023
0.76181501 0.68203497 0.64353931
0.76177615 0.67991865 0.64347845
0.76358241 0.67856336 0.64263397
0.76354349 0.67644358 0.642573
0.76350451 0.67432374 0.64251196
0.76346558 0.6722039 0.64245099
0.76158178 0.66933709 0.64317387
0.76154292 0.66722077 0.64311302
0.76150405 0.66510445 0.6430521
0.76146519 0.66298813 0.64299119
0.76142633 0.66087186 0.64293027
0.76138747 0.65875554 0.64286935
0.75950408 0.65591323 0.64359301
0.75946528 0.65380043 0.64353216
0.75665992 0.6506092 0.64464849
0.75662118 0.64850163 0.64458781
0.7565825 0.64639413 0.6445272
0.75469965 0.64357811 0.64525157
0.75466096 0.64147413 0.64519101
0.75462234 0.63937008 0.64513046
0.75458372 0.63726604 0.6450699
0.75454503 0.635162 0.64500934
0.75174057 0.63202155 0.6461271
0.75170207 0.62992281 0.64606673
0.75166351 0.62782401 0.64600635
0.75162494 0.62572527 0.64594591
0.75158638 0.62362647 0.64588553
0.75154787 0.62152773 0.64582509
0.75150931 0.61942893 0.64576471
0.75147074 0.61733013 0.64570433
0.75143218 0.61523139 0.64564389
0.75139368 0.6131326 0.64558351
0.75135511 0.6110338 0.64552313
0.75131655 0.60893506 0.64546269
0.75127798 0.60683626 0.64540231
0.75123948 0.60473746 0.64534187
0.75120091 0.60263872 0.64528149
0.75116235 0.60053992 0.64522111
0.75112379 0.59844118 0.64516068
0.75108528 0.59634238 0.6451003
0.75381076 0.59518528 0.64385885
0.75377214 0.59308124 0.64379829
0.75373346 0.59097719 0.64373773
0.75369483 0.58887315 0.64367718
0.75365621 0.5867691 0.64361662
0.7554599 0.58527535 0.6427682
0.75542116 0.58316779 0.64270753
0.75354028 0.58045703 0.64343494
0.75350159 0.57835299 0.64337438
0.75530505 0.57684517 0.64252555
0.75526637 0.57473761 0.64246494
0.75799066 0.57351387 0.64122158
0.75795186 0.57140106 0.64116073
0.75791299 0.56928831 0.64109993
0.75787419 0.56717545 0.64103913
0.75783539 0.56506264 0.64097834
0.75963825 0.56352156 0.64012855
0.76144093 0.56197339 0.63927859
0.76140201 0.55985355 0.63921756
0.76136309 0.55773377 0.63915658
0.76132411 0.55561393 0.63909554
0.76128519 0.5534941 0.63903457
0.76124626 0.55137432 0.63897353
0.76120734 0.54925448 0.6389125
0.76116842 0.5471347 0.63885152
0.76112944 0.54501486 0.63879049
0.76109052 0.54289508 0.63872951
0.7610516 0.54077524 0.63866848
0.76101267 0.5386554 0.6386075
0.76097369 0.53653562 0.63854647
0.75909406 0.53389317 0.63927585
0.7590552 0.53177685 0.63921493
0.75901628 0.52966058 0.63915402
0.75897741 0.52754426 0.63909316
0.75709808 0.52491939 0.63982302
0.75705928 0.52280658 0.63976222
0.75702047 0.52069378 0.63970143
0.75698167 0.51858097 0.63964057
0.75694287 0.51646817 0.63957977
0.75690407 0.51435536 0.63951898
0.75686526 0.51224256 0.63945818
0.75682646 0.51012975 0.63939738
0.7567876 0.508017 0.63933659
0.7567488 0.50590414 0.63927579
0.75670999 0.50379133 0.63921493
0.75667119 0.50167853 0.63915414
0.75663239 0.49956575 0.63909334
0.75843322 0.49791589 0.63824046
0.75839436 0.4957996 0.63817954
0.7583555 0.49368331 0.63811862
0.75831664 0.49156699 0.63805771
0.75827777 0.48945066 0.63799679
0.76007819 0.4877798 0.63714331
0.76003927 0.48565996 0.63708228
0.76000035 0.48354015 0.6370213
0.75996137 0.48142034 0.63696027
0.75992244 0.4793005 0.63689929
0.75988352 0.47718072 0.63683826
0.7598446 0.47506088 0.63677728
0.75980568 0.47294107 0.63671625
0.7597667 0.47082123 0.63665521
0.75972778 0.46870145 0.63659424
0.75785017 0.46617126 0.63732684
0.75781131 0.46405494 0.63726592
0.75593388 0.46153527 0.63799882
0.75589508 0.45942247 0.63793802
0.75585628 0.45730966 0.63787723
0.75581747 0.45519686 0.63781643
0.75302118 0.45250008 0.63894695
0.75298244 0.45039251 0.63888633
0.75294375 0.44828498 0.63882565
0.75290501 0.44617742 0.63876498
0.75286633 0.44406989 0.63870436
0.75098962 0.44159055 0.63943839
0.75095099 0.4394865 0.63937783
0.74815553 0.43683532 0.64050972
0.74627924 0.43437526 0.64124435
0.74624074 0.43227997 0.64118403
0.74620223 0.43018472 0.64112371
0.74616379 0.42808944 0.64106345
0.74612528 0.42599419 0.64100313
0.74424922 0.42355517 0.64173841
0.71551675 0.79579264 0.66588205
0.71547955 0.79376751 0.66582376
0.7172904 0.79273498 0.66498536
0.71725315 0.79070628 0.66492701
0.71721584 0.78867769 0.66486859
0.71717858 0.78664905 0.66481024
0.71714133 0.7846204 0.66475183
0.71710408 0.78259176 0.66469347
0.71891457 0.78153467 0.6638543
0.71887726 0.77950257 0.66379583
0.71883994 0.77747035 0.66373736
0.71880257 0.77543819 0.66367888
0.71876526 0.77340609 0.66362041
0.72057527 0.7723279 0.6627807
0.72053784 0.77029228 0.66272211
0.72050047 0.7682566 0.66266352
0.72323382 0.76763624 0.66143262
0.72319633 0.76559532 0.66137391
0.72500587 0.7644909 0.66053343
0.72681522 0.76337945 0.65969282
0.72677761 0.7613315 0.65963387
0.72674 0.7592836 0.65957493
0.72854912 0.75815815 0.65873384
0.72851145 0.75610667 0.65867484
0.73032045 0.75497073 0.6578334
0.73305249 0.75428373 0.65660065
0.73301464 0.75222349 0.65654141
0.73297679 0.75016332 0.6564821
0.73293895 0.74810308 0.65642279
0.73474753 0.74694079 0.65558064
0.73655587 0.74577147 0.65473831
0.73651791 0.74370432 0.65467882
0.73832601 0.7425245 0.65383619
