ply
format ascii 1.0
comment PCL generated
element vertex 1451
property float x
property float y
property float z
element camera 0
property float view_px
property float view_py
property float view_pz
property float x_axisx
property float x_axisy
property float x_axisz
property float y_axisx
property float y_axisy
property float y_axisz
property float z_axisx
property float z_axisy
property float z_axisz
property float focal
property float scalex
property float scaley
property float centerx
property float centery
property int viewportx
property int viewporty
property float k1
property float k2
end_header
0.66593641 0.61011863 0.43979481
0.66589791 0.60801989 0.4397344
0.66585934 0.60592109 0.43967402
0.66582078 0.60382229 0.43961361
0.66408205 0.60108328 0.4406839
0.66404355 0.598988 0.44062358
0.66230488 0.59625947 0.44169423
0.66226643 0.59416771 0.44163403
0.66222805 0.59207594 0.44157383
0.66048974 0.58936143 0.44264483
0.66045135 0.58727318 0.44258472
0.66041303 0.58518487 0.44252461
0.65612537 0.58156604 0.44529328
0.65608716 0.57948655 0.44523343
0.65604901 0.57740712 0.44517359
0.6543113 0.57472587 0.44624555
0.65427315 0.5726499 0.4461858
0.65168595 0.56968188 0.44782409
0.6499486 0.56702 0.44889659
0.64991063 0.56495279 0.4488371
0.64647418 0.56171721 0.45104226
0.64643633 0.55965698 0.45098299
0.64384997 0.55673105 0.45262241
0.64211315 0.55410248 0.45369595
0.64207548 0.55205101 0.45363691
0.64033896 0.54943293 0.45471066
0.64030135 0.54738498 0.45465174
0.64026374 0.54533708 0.45459279
0.63852745 0.54273301 0.45566699
0.6384899 0.54068857 0.45560813
0.6367538 0.53809506 0.45668262
0.63671631 0.53605419 0.45662388
0.63667881 0.53401327 0.45656514
0.63409376 0.53116447 0.45820686
0.63405639 0.52912879 0.45814827
0.63656634 0.5278905 0.45638892
0.63652891 0.52584958 0.45633018
0.63649142 0.52380866 0.45627144
0.63645393 0.52176774 0.45621273
0.63641644 0.51972681 0.45615399
0.63637894 0.51768595 0.45609525
0.63634145 0.51564503 0.45603651
0.63800174 0.5141111 0.45484325
0.63966185 0.5125702 0.45364976
0.63962424 0.51052231 0.45359084
0.64128423 0.50897086 0.45239708
0.6412465 0.50691944 0.45233804
0.64120883 0.50486797 0.452279
0.64286864 0.50330251 0.45108476
0.64283091 0.50124758 0.45102564
0.64279318 0.49919266 0.45096648
0.66732937 0.72981948 0.44129917
0.66729081 0.72772074 0.44123879
0.66725224 0.72562194 0.44117838
0.66721368 0.7235232 0.44111797
0.66717517 0.7214244 0.44105756
0.66713661 0.7193256 0.44099718
0.66709805 0.71722686 0.44093677
0.66535717 0.71429831 0.44200486
0.66531867 0.71220303 0.44194454
0.66528022 0.71010774 0.44188425
0.66524172 0.70801246 0.44182396
0.66350102 0.70510149 0.44289258
0.66346264 0.70300972 0.44283238
0.66342419 0.70091796 0.44277218
0.66338575 0.69882619 0.44271198
0.66334736 0.69673443 0.44265178
0.66330892 0.69464266 0.44259158
0.66327053 0.6925509 0.44253138
0.66323209 0.69045913 0.44247118
0.6631937 0.68836737 0.44241098
0.66315526 0.6862756 0.44235078
0.66481841 0.68496454 0.44116062
0.6647799 0.68286926 0.44110033
0.6647414 0.68077397 0.44104004
0.66470295 0.67867869 0.44097972
0.66466445 0.67658347 0.44091943
0.66462594 0.67448819 0.44085914
0.66628855 0.67315251 0.43966833
0.66624999 0.67105377 0.43960792
0.66876286 0.67008388 0.43785146
0.66872424 0.66797984 0.4377909
0.66868556 0.66587585 0.43773034
0.66864693 0.66377181 0.43766978
0.66860831 0.66166776 0.43760923
0.67027026 0.66029882 0.43641746
0.67023152 0.65819126 0.43635681
0.67019284 0.6560837 0.43629614
0.67015409 0.65397614 0.43623549
0.67266595 0.65295023 0.43447742
0.67262715 0.65083736 0.43441662
0.67258835 0.64872456 0.4343558
0.67254955 0.64661181 0.434295
0.67251074 0.644499 0.4342342
0.67247194 0.64238614 0.43417338
0.66988313 0.63922334 0.43581092
0.66984445 0.63711584 0.43575025
0.66980571 0.63500828 0.4356896
0.66806728 0.63221121 0.43676147
0.66802859 0.63010716 0.43670094
0.66798997 0.62800312 0.43664038
0.66540188 0.62488067 0.43827906
0.66536337 0.62278187 0.43821865
0.66532481 0.62068313 0.43815827
0.66528624 0.61858433 0.43809786
0.66524768 0.61648554 0.43803746
0.66350991 0.61372536 0.4391104
0.6634714 0.61163008 0.43905008
0.66343296 0.6095348 0.43898979
0.66339445 0.60743952 0.43892947
0.66335595 0.60534424 0.43886918
0.6633175 0.60324895 0.43880889
0.663279 0.60115367 0.43874857
0.66324049 0.59905845 0.43868828
0.6615032 0.59632981 0.43976215
0.66146475 0.59423804 0.43970194
0.66142637 0.59214628 0.43964174
0.65968937 0.58943164 0.440716
0.65965104 0.58734334 0.44065589
0.65961266 0.58525509 0.44059581
0.65532839 0.58163595 0.44337255
0.65529019 0.57955647 0.4433127
0.65525198 0.57747704 0.44325286
0.65096837 0.57389295 0.44603065
0.65093035 0.57182223 0.44597104
0.65089232 0.5697515 0.44591144
0.64915633 0.5670895 0.44698721
0.64911836 0.56502229 0.4469277
0.6456846 0.56178647 0.44913936
0.64564675 0.55972624 0.44908005
0.64306241 0.55680013 0.45072436
0.6413269 0.55417144 0.45180112
0.64128923 0.55212003 0.45174208
0.63955402 0.54950178 0.45281908
0.63951641 0.54745388 0.45276016
0.6394788 0.54540592 0.45270121
0.63774389 0.5428018 0.45377862
0.63770634 0.54075736 0.45371979
0.63597161 0.53816366 0.45479751
0.63593411 0.5361228 0.45473877
0.63589662 0.53408188 0.45468003
0.6333136 0.53123289 0.4563266
0.63327622 0.52919722 0.45626801
0.63323879 0.5271616 0.45620942
0.63320142 0.52512592 0.45615086
0.63570917 0.52387732 0.45438635
0.63567173 0.5218364 0.45432761
0.63563424 0.51979542 0.45426887
0.63559675 0.51775455 0.45421013
0.63555926 0.51571363 0.45415139
0.63721818 0.51417983 0.45295489
0.63718063 0.51213545 0.45289606
0.63714308 0.51009101 0.45283723
0.63880175 0.50854319 0.45164031
0.63876414 0.5064953 0.45158136
0.63872653 0.50444734 0.45152244
0.64038491 0.50288552 0.45032513
0.64034724 0.50083405 0.45026609
0.66482353 0.72903568 0.44049165
0.66478503 0.72694033 0.44043133
0.66474652 0.72484511 0.44037104
0.66470808 0.72274983 0.44031072
0.66466957 0.72065455 0.44025043
0.66463107 0.71855927 0.44019014
0.66459262 0.71646404 0.44012982
0.662853 0.71353889 0.4412013
0.66281462 0.71144712 0.4411411
0.66277617 0.70935535 0.4410809
0.66273773 0.70726359 0.4410207
0.66269934 0.70517182 0.4409605
0.66096026 0.70226771 0.44203252
0.66092187 0.70017946 0.44197243
0.66088355 0.69809121 0.44191232
0.66084516 0.6960029 0.44185224
0.66080683 0.69391465 0.44179213
0.66076845 0.6918264 0.44173202
0.66073012 0.68973815 0.44167194
0.66069174 0.68764991 0.44161183
0.66065341 0.68556166 0.44155174
0.66061503 0.68347341 0.44149163
0.6605767 0.68138516 0.44143152
0.66053832 0.67929691 0.44137144
0.66049999 0.6772086 0.44131133
0.6604616 0.67512035 0.44125125
0.66042328 0.6730321 0.44119114
0.66038489 0.67094386 0.44113103
0.66034657 0.66885561 0.44107094
0.66200775 0.66752005 0.43987688
0.66196936 0.66542828 0.43981668
0.66363049 0.66408223 0.4386223
0.66359198 0.66198701 0.43856198
0.66355354 0.65989172 0.43850169
0.66351503 0.65779644 0.4384414
0.66517574 0.65643287 0.43724653
0.66513723 0.65433413 0.43718615
0.66509867 0.65223533 0.43712574
0.6650601 0.65013653 0.43706533
0.66502154 0.64803779 0.43700492
0.66498303 0.64593899 0.43694454
0.66494447 0.64384019 0.43688414
0.66490591 0.64174145 0.43682373
0.67166215 0.64245719 0.43222186
0.66907543 0.63929421 0.43386427
0.66903669 0.63718671 0.43380362
0.668998 0.63507915 0.43374297
0.66726083 0.63228196 0.43481806
0.6672222 0.63017792 0.4347575
0.66718358 0.62807387 0.43469697
0.66459751 0.62495118 0.43634051
0.66455895 0.62285244 0.4362801
0.66452044 0.62075365 0.43621969
0.66448188 0.61865485 0.43615931
0.66444331 0.61655611 0.4360989
0.66270685 0.61379576 0.43717507
0.66266841 0.61170048 0.43711475
0.6626299 0.60960519 0.43705446
0.6625914 0.60750997 0.43699417
0.66255295 0.60541469 0.43693385
0.66251445 0.60331941 0.43687356
0.66247594 0.60122412 0.43681327
0.6624375 0.5991289 0.43675295
0.66070151 0.59640014 0.43783006
0.66066307 0.59430838 0.43776986
0.66062462 0.59221655 0.43770966
0.65888906 0.58950186 0.43878716
0.65885067 0.58741355 0.43872705
0.65881234 0.5853253 0.43866697
0.65453142 0.58170593 0.44145182
0.65449321 0.57962638 0.44139197
0.65445501 0.57754695 0.44133213
0.65017474 0.57396257 0.44411799
0.65013671 0.57189184 0.44405839
0.65009868 0.56982112 0.44399881
0.64836401 0.567159 0.44507781
0.64832604 0.56509179 0.44501832
0.64489502 0.56185573 0.44723642
0.64485717 0.55979556 0.44717714
0.64227486 0.55686921 0.44882631
0.64054066 0.55424041 0.44990629
0.64050299 0.55218899 0.44984725
0.63876915 0.54957062 0.4509275
0.63873154 0.54752272 0.45086858
0.63869393 0.54547477 0.45080963
0.63696033 0.54287052 0.45189029
0.63692278 0.54082608 0.45183143
0.63518941 0.53823233 0.45291239
0.63515192 0.5361914 0.45285365
0.63511443 0.53415048 0.45279491
0.63253337 0.53130132 0.45444635
0.632496 0.5292657 0.45438775
0.63245863 0.52723002 0.45432919
0.63242126 0.52519435 0.4542706
0.63492697 0.52394593 0.45250124
0.63488948 0.521905 0.4524425
0.63485199 0.51986408 0.45238376
0.6348145 0.51782316 0.45232502
0.63477701 0.51578224 0.45226628
0.63643461 0.51424861 0.45106655
0.63639706 0.51220417 0.45100769
0.63635951 0.51015973 0.45094886
0.63801688 0.50861204 0.44974872
0.63797921 0.50656414 0.44968978
0.6379416 0.50451618 0.44963086
0.63959867 0.50295448 0.4484303
0.66405898 0.73120135 0.43861663
0.66402048 0.72910613 0.43855634
0.66398197 0.72701079 0.43849602
0.66394353 0.72491556 0.43843573
0.66390502 0.72282028 0.43837544
0.66386652 0.720725 0.43831512
0.66382807 0.71862972 0.43825483
0.66378957 0.7165345 0.43819451
0.66205132 0.71360922 0.43926924
0.66201293 0.71151745 0.43920904
0.66197449 0.70942569 0.43914884
0.66193604 0.70733392 0.43908864
0.66189766 0.70524216 0.43902844
0.66015989 0.70233792 0.44010371
0.66012156 0.70024967 0.4400436
0.66008317 0.69816142 0.43998349
0.66004485 0.69607311 0.43992341
0.66000646 0.69398487 0.43986329
0.65996814 0.69189662 0.43980321
0.65992975 0.68980837 0.4397431
0.65989143 0.68772012 0.43968299
0.65985304 0.68563187 0.43962291
0.65981472 0.68354362 0.4395628
0.65977633 0.68145537 0.43950272
0.659738 0.67936713 0.4394426
0.65969962 0.67727882 0.43938249
0.65966129 0.67519057 0.43932241
0.65962291 0.67310232 0.4392623
0.65958458 0.67101407 0.43920219
0.6595462 0.66892582 0.43914211
0.66120607 0.66759038 0.43794483
0.66116768 0.66549861 0.43788463
0.66282749 0.66415268 0.43668699
0.66278899 0.66205746 0.4366267
0.66275048 0.65996218 0.43656638
0.66271204 0.6578669 0.43650609
0.66437137 0.65650344 0.43530801
0.66433281 0.6544047 0.4352476
0.6642943 0.6523059 0.43518719
0.66425574 0.6502071 0.43512678
0.66421717 0.64810836 0.4350664
0.66417861 0.64600956 0.43500599
0.66414011 0.64391077 0.43494558
0.66410154 0.64181203 0.43488517
0.66406298 0.63971323 0.43482479
0.66402441 0.63761443 0.43476439
0.66398591 0.63551569 0.43470398
0.66394734 0.63341689 0.43464357
0.66221172 0.63062841 0.43572217
0.66217321 0.62853312 0.43566188
0.6604377 0.62575513 0.43674082
0.66039926 0.62366337 0.43668061
0.66036081 0.6215716 0.43662041
0.65862566 0.61880767 0.43769971
0.65858734 0.61671942 0.43763962
0.6602456 0.6152963 0.43643981
0.65851063 0.61254287 0.43751943
0.65847224 0.61045462 0.43745932
0.65843391 0.60836637 0.43739921
0.65839553 0.60627812 0.43733913
0.6583572 0.60418987 0.43727902
0.65577441 0.60113537 0.43892938
0.65573615 0.59905237 0.43886945
0.65569788 0.59696937 0.43880948
0.65565962 0.59488636 0.43874955
0.65562135 0.59280342 0.43868959
0.65558308 0.59072042 0.43862963
0.65384901 0.5880143 0.43971062
0.6538108 0.58593482 0.43965077
0.6520769 0.5832392 0.44073203
0.64949518 0.58024436 0.44238412
0.64945716 0.57817364 0.44232455
0.64772362 0.57549733 0.44340637
0.64768565 0.57343012 0.44334689
0.64764768 0.57136291 0.44328737
0.64591438 0.56870067 0.44436961
0.64418107 0.5660454 0.44545209
0.64414322 0.56398517 0.44539279
0.63986748 0.56046367 0.44818857
0.63982981 0.55841225 0.44812953
0.63640207 0.55520576 0.45035496
0.6346696 0.55258733 0.45143846
0.63463211 0.55054647 0.45137972
0.63459462 0.54850554 0.45132098
0.63201493 0.54561937 0.4529762
0.63197756 0.54358375 0.45291761
0.63194019 0.54154807 0.45285904
0.63190275 0.5395124 0.45280045
0.63017088 0.53692728 0.45388487
0.63013357 0.53489512 0.4538264
0.6300962 0.53286296 0.45376793
0.63005888 0.53083086 0.45370942
0.63002157 0.5287987 0.45365095
0.63167846 0.52729845 0.45244893
0.63164103 0.52526283 0.45239034
0.63160366 0.52322716 0.45233175
0.63156629 0.52119154 0.45227319
0.6340698 0.51993269 0.45049864
0.63403231 0.51789176 0.4504399
0.63399482 0.51585084 0.45038119
0.63395733 0.51380992 0.45032245
0.63391984 0.51176906 0.45026371
0.6338824 0.50972813 0.45020497
0.63384491 0.50768721 0.45014623
0.63550085 0.50613964 0.44894284
0.6354633 0.5040952 0.44888401
0.6615954 0.73250544 0.43787897
0.66155702 0.73041362 0.43781877
0.66151857 0.72832191 0.43775856
0.66148013 0.72623008 0.43769836
0.66144174 0.72413838 0.43763816
0.6614033 0.72204661 0.43757796
0.66136491 0.71995485 0.43751776
0.66132647 0.71786302 0.43745756
0.66128808 0.71577126 0.43739736
0.65955132 0.71284944 0.43847534
0.65951294 0.71076113 0.43841523
0.65947461 0.70867288 0.43835515
0.65943623 0.70658463 0.43829504
0.65685076 0.70327228 0.43994287
0.65681249 0.70118928 0.43988293
0.65677428 0.69910628 0.43982297
0.65503812 0.69621772 0.44090194
0.65499997 0.69413823 0.44084209
0.65496176 0.69205874 0.44078225
0.65492356 0.68997926 0.44072241
0.65488535 0.68789971 0.44066256
0.65484715 0.68582022 0.44060272
0.65311152 0.68295622 0.44168237
0.65307337 0.68088025 0.44162261
0.65303522 0.67880428 0.44156286
0.65299708 0.67672831 0.44150311
0.65465617 0.67542279 0.44030347
0.65461802 0.6733433 0.44024363
0.65457982 0.67126381 0.44018379
0.65454161 0.66918433 0.44012395
0.65450341 0.66710484 0.44006407
0.6544652 0.66502535 0.44000423
0.65442705 0.66294587 0.43994439
0.65438884 0.66086638 0.43988454
0.65604734 0.65952933 0.43868396
0.65600908 0.65744632 0.43862402
0.65597081 0.65536332 0.43856406
0.65847737 0.65437824 0.43679255
0.65843898 0.65228999 0.43673244
0.65840065 0.65020168 0.43667236
0.65836227 0.64811343 0.43661225
0.65832394 0.64602518 0.43655214
0.65828556 0.64393693 0.43649206
0.65824723 0.64184868 0.43643194
0.65820885 0.63976043 0.43637186
0.65817052 0.63767219 0.43631175
0.65813214 0.63558388 0.43625164
0.65809381 0.63349563 0.43619156
0.65805542 0.63140738 0.43613145
0.65547341 0.62828439 0.43778473
0.6554352 0.62620139 0.4377248
0.65370131 0.62343556 0.43880728
0.6536631 0.62135607 0.43874744
0.65362495 0.61927658 0.43868759
0.65358675 0.61719704 0.43862775
0.65354854 0.61511755 0.43856791
0.65351033 0.61303812 0.43850806
0.65347213 0.61095858 0.43844822
0.65173882 0.60822082 0.43953148
0.65170068 0.60614485 0.43947175
0.65166253 0.60406888 0.439412
0.65162438 0.60199291 0.43935224
0.65158629 0.59991688 0.43929249
0.65154815 0.59784091 0.43923277
0.65151 0.59576494 0.43917301
0.65147191 0.59368896 0.43911326
0.65143377 0.59161294 0.43905351
0.65139562 0.58953696 0.43899378
0.64881569 0.58652616 0.44065028
0.64877766 0.58445543 0.44059071
0.64704525 0.58176851 0.44167542
0.64531296 0.57908863 0.44276041
0.64527506 0.57702488 0.44270101
0.64354283 0.57435548 0.44378632
0.64096385 0.571392 0.44544414
0.64092612 0.56933707 0.44538501
0.64088839 0.56728214 0.44532585
0.64085066 0.56522715 0.44526672
0.63742507 0.56199592 0.44749796
0.63569367 0.55936337 0.44858429
0.63565612 0.55731893 0.44852543
0.63138431 0.55383044 0.4513303
0.62965333 0.55122066 0.45241728
0.62961596 0.54918849 0.45235878
0.62957865 0.54715639 0.45230031
0.62784779 0.54456061 0.45338774
0.62781054 0.54253197 0.45332935
0.62607998 0.53994673 0.45441702
0.62604278 0.53792161 0.45435876
0.62600559 0.53589648 0.45430046
0.6259684 0.53387135 0.45424217
0.62762427 0.53238875 0.45303744
0.62758696 0.5303601 0.45297903
0.62754971 0.52833146 0.45292065
0.62751245 0.52630281 0.45286226
0.6274752 0.52427417 0.45280388
0.62913078 0.52277058 0.4515985
0.62909341 0.52073842 0.45153999
0.6290561 0.51870626 0.45148152
0.62901878 0.5166741 0.45142302
0.62898147 0.514642 0.45136455
0.62894416 0.51260984 0.45130607
0.63059914 0.51108164 0.4501
0.63056171 0.50904602 0.45004141
0.63052434 0.50701034 0.44998282
0.63048697 0.50497466 0.44992423
0.65913451 0.7338022 0.4371475
0.65909618 0.73171395 0.43708739
0.6590578 0.7296257 0.43702731
0.65901947 0.72753745 0.43696719
0.65898108 0.72544914 0.43690708
0.65894276 0.7233609 0.436847
0.65890437 0.72127265 0.43678689
0.65632027 0.71792328 0.43843853
0.65628201 0.71584028 0.43837857
0.65624374 0.71375728 0.43831861
0.65450853 0.71084404 0.43940014
0.65447032 0.70876455 0.43934029
0.65443212 0.70668507 0.43928045
0.65863591 0.70665485 0.4363662
0.65605241 0.70334232 0.43801889
0.65601414 0.70125932 0.43795893
0.65597594 0.69917631 0.43789899
0.65424114 0.69628763 0.43898121
0.65420294 0.69420815 0.43892136
0.65416473 0.69212866 0.43886152
0.65412658 0.69004917 0.43880165
0.65408838 0.68796962 0.4387418
0.65405017 0.68589014 0.43868196
0.65231586 0.68302602 0.43976486
0.65227771 0.68095005 0.4397051
0.65223956 0.67887408 0.43964535
0.65220147 0.67679811 0.43958563
0.6538592 0.6754927 0.43838271
0.65382099 0.67341322 0.43832287
0.65378278 0.67133373 0.43826303
0.65374464 0.66925424 0.43820319
0.65370643 0.66717476 0.43814334
0.65366822 0.66509527 0.4380835
0.65363002 0.66301578 0.43802366
0.65359181 0.6609363 0.43796378
0.655249 0.65959936 0.43675998
0.65521073 0.65751636 0.43670002
0.65517247 0.65543336 0.43664008
0.65767699 0.65444845 0.43486372
0.65763867 0.65236014 0.43480361
0.65760028 0.65027189 0.43474352
0.65756196 0.64818364 0.43468341
0.65752357 0.6460954 0.4346233
0.65748525 0.64400715 0.43456322
0.65744686 0.6419189 0.43450311
0.65740854 0.63983065 0.43444303
0.65737015 0.6377424 0.43438292
0.65733182 0.63565409 0.4343228
0.65729344 0.63356584 0.43426272
0.65725511 0.63147759 0.43420261
0.65467513 0.62835443 0.43586075
0.65463686 0.62627143 0.43580079
0.65290433 0.62350547 0.43688655
0.65286613 0.62142599 0.43682671
0.65282792 0.6193465 0.43676686
0.65278977 0.61726695 0.43670702
0.65275156 0.61518747 0.43664715
0.65271336 0.61310804 0.4365873
0.65267515 0.61102849 0.43652746
0.65094316 0.60829061 0.43761399
0.65090501 0.60621464 0.43755424
0.65086687 0.60413867 0.43749449
0.65082878 0.6020627 0.43743476
0.65079063 0.59998667 0.43737501
0.65075248 0.5979107 0.43731526
0.6507144 0.59583473 0.4372555
0.65067625 0.59375876 0.43719578
0.6506381 0.59168273 0.43713602
0.65059996 0.58960676 0.43707627
0.64802206 0.58659577 0.43873763
0.64798403 0.58452505 0.43867803
0.64625293 0.58183801 0.43976605
0.64452201 0.57915801 0.44085425
0.6444841 0.57709426 0.44079486
0.64275324 0.57442474 0.44188339
0.6401763 0.57146108 0.44354609
0.64013857 0.56940615 0.44348696
0.64010078 0.56735122 0.4434278
0.64006305 0.56529629 0.44336867
0.63664013 0.56206477 0.44560635
0.63491011 0.55943209 0.44669595
0.63487256 0.55738771 0.44663709
0.63060409 0.55389887 0.44945005
0.62887448 0.55128896 0.45054027
0.62883717 0.54925686 0.45048177
0.6287998 0.5472247 0.4504233
0.62707031 0.5446288 0.45151395
0.62703305 0.54260015 0.45145556
0.62530386 0.5400148 0.45254651
0.62526667 0.53798968 0.45248821
0.62522948 0.53596455 0.45242995
0.62519228 0.53393942 0.45237166
0.62684673 0.53245693 0.45116365
0.62680948 0.53042829 0.45110527
0.62677222 0.52839971 0.45104688
0.62673497 0.526371 0.4509885
0.62669772 0.52434242 0.45093012
0.62835193 0.52283889 0.44972149
0.62831461 0.52080673 0.44966301
0.62827724 0.51877463 0.44960451
0.62823993 0.51674241 0.44954604
0.62820262 0.51471031 0.44948754
0.6281653 0.51267815 0.44942906
0.62981892 0.51115012 0.44821975
0.62978154 0.50911444 0.44816115
0.62974417 0.50707877 0.44810256
0.6583342 0.73387241 0.43521866
0.65829581 0.73178416 0.43515855
0.65825748 0.72969592 0.43509847
0.6582191 0.72760767 0.43503836
0.65818077 0.72551936 0.43497828
0.65814239 0.72343111 0.43491817
0.65810406 0.72134286 0.43485805
0.65552193 0.71799332 0.43651456
0.65548366 0.71591032 0.43645459
0.6554454 0.71382731 0.43639466
0.6537115 0.71091396 0.43747938
0.65367335 0.70883447 0.43741953
0.65363514 0.70675498 0.43735969
0.65359694 0.7046755 0.43729985
0.6518634 0.70177966 0.43838507
0.65182525 0.69970369 0.43832532
0.6517871 0.69762772 0.43826559
0.65174896 0.69555175 0.43820584
0.64916813 0.69227231 0.43986434
0.64913011 0.69020158 0.43980476
0.64909208 0.68813086 0.43974516
0.64905405 0.68606013 0.43968555
0.64901602 0.68398941 0.43962598
0.6472832 0.68113393 0.44071236
0.64724523 0.67906672 0.44065285
0.64720726 0.67699945 0.44059336
0.64716929 0.6749323 0.44053388
0.64713132 0.67286503 0.44047439
0.64709336 0.67079782 0.44041488
0.64705539 0.66873062 0.44035539
0.64871174 0.66742361 0.4391492
0.64867371 0.66535288 0.4390896
0.64863569 0.66328216 0.43903002
0.64859766 0.66121143 0.43897042
0.64855963 0.65914071 0.43891081
0.64852154 0.65706998 0.43885124
0.64848351 0.65499926 0.43879163
0.64844549 0.65292859 0.43873203
0.64840746 0.65085781 0.43867245
0.64836943 0.64878714 0.43861285
0.6483314 0.64671636 0.43855324
0.64829338 0.64464569 0.43849367
0.6507957 0.64365214 0.43671218
0.65075761 0.64157617 0.43665242
0.64817929 0.63843352 0.43831488
0.64814121 0.63636279 0.43825528
0.64810318 0.63429207 0.43819568
0.64806515 0.63222134 0.4381361
0.64802712 0.63015062 0.4380765
0.64798909 0.62807983 0.43801689
0.646258 0.62531906 0.43910602
0.64622003 0.62325186 0.43904653
0.64618206 0.62118465 0.43898702
0.64614409 0.61911744 0.43892753
0.64610612 0.61705017 0.43886805
0.64606816 0.61498296 0.43880856
0.64433753 0.61224669 0.43989837
0.64429963 0.610183 0.43983898
0.64426172 0.60811931 0.43977958
0.64591628 0.60671413 0.43857056
0.64587831 0.60464692 0.43851107
0.64584035 0.60257965 0.43845159
0.64580238 0.6005125 0.4383921
0.64407223 0.59780073 0.43948263
0.64403433 0.59573704 0.43942323
0.64399642 0.59367335 0.43936384
0.64395851 0.59160966 0.43930444
0.6439206 0.58954591 0.43924505
0.64388269 0.58748221 0.43918565
0.64384478 0.58541852 0.43912625
0.64380687 0.58335477 0.43906686
0.64207715 0.58067465 0.44015834
0.63950193 0.57769501 0.44182545
0.6394642 0.57564008 0.44176629
0.63773483 0.57297921 0.44285834
0.6360057 0.57032537 0.44395053
0.63596809 0.56827742 0.44389158
0.6342392 0.56563407 0.44498408
0.63420165 0.56358969 0.44492525
0.63416409 0.56154525 0.44486642
0.62989873 0.55803865 0.44768697
0.6298613 0.55600297 0.44762838
0.62644184 0.55281156 0.44987372
0.62471366 0.55020863 0.45096737
0.62467647 0.54818344 0.45090908
0.62463927 0.54615831 0.45085081
0.62460208 0.54413319 0.45079252
0.6228742 0.54154772 0.45188671
0.62283707 0.5395261 0.45182851
0.62279999 0.53750443 0.45177034
0.62276286 0.53548282 0.45171216
0.62272573 0.53346121 0.45165399
0.62268859 0.5314396 0.45159578
0.62265146 0.52941793 0.45153761
0.62261432 0.52739632 0.45147943
0.62426728 0.52590698 0.45026797
0.62423009 0.52388179 0.45020968
0.62419289 0.52185667 0.45015141
0.6241557 0.51983154 0.45009312
0.62411851 0.51780641 0.45003483
0.62408131 0.51578128 0.44997656
0.62404412 0.51375616 0.44991827
0.6256966 0.51223874 0.44870603
0.62565935 0.5102101 0.44864765
0.62562209 0.50818145 0.44858927
0.62389535 0.50565559 0.44968516
0.65333468 0.73385829 0.43621695
0.65329647 0.7317788 0.43615711
0.65325826 0.72969931 0.43609726
0.65322006 0.72761977 0.43603742
0.65148717 0.72468525 0.43712479
0.65144902 0.72260934 0.43706504
0.65141088 0.72053331 0.43700528
0.65137279 0.71845734 0.43694556
0.65133464 0.71638137 0.4368858
0.6512965 0.71430534 0.43682605
0.64871681 0.71097845 0.43848804
0.64867878 0.70890772 0.43842843
0.64864075 0.706837 0.43836886
0.64690858 0.70394278 0.43945739
0.64687061 0.70187557 0.43939787
0.64683264 0.69980836 0.43933839
0.64679468 0.69774115 0.4392789
0.64675671 0.69567394 0.43921942
0.64671874 0.69360673 0.4391599
0.64668077 0.69153953 0.43910041
0.6466428 0.68947226 0.43904093
0.64491117 0.68660969 0.44013035
0.64487326 0.68454599 0.44007096
0.64314175 0.68169385 0.44116074
0.6431039 0.67963368 0.44110146
0.64306605 0.67757344 0.44104216
0.64302826 0.67551321 0.44098288
0.64299041 0.67345303 0.44092357
0.64295256 0.67139286 0.44086429
0.64291471 0.66933262 0.44080499
0.64287686 0.66727245 0.44074571
0.64283901 0.66521221 0.4406864
0.64026183 0.66201681 0.44235215
0.6402241 0.65996182 0.44229299
0.64018637 0.65790689 0.44223386
0.64014864 0.65585196 0.4421747
0.64011085 0.65379703 0.44211558
0.64007312 0.6517421 0.44205645
0.64003539 0.64968711 0.44199729
0.64253628 0.64873064 0.44021207
0.64249849 0.6466704 0.44015276
0.64246064 0.64461023 0.44009349
0.6424228 0.64254999 0.44003418
0.64238495 0.64048982 0.4399749
0.6423471 0.63842958 0.4399156
0.63977116 0.63530254 0.44158331
0.63973343 0.63324761 0.44152418
0.6396957 0.63119262 0.44146502
0.63965797 0.62913769 0.44140589
0.63962018 0.62708277 0.44134673
0.63958246 0.62502778 0.44128761
0.63954473 0.62297285 0.44122845
0.639507 0.62091792 0.44116932
0.63946921 0.61886299 0.44111019
0.63943148 0.61680806 0.44105104
0.63939375 0.61475307 0.44099191
0.63935602 0.61269814 0.44093275
0.63931823 0.61064321 0.44087362
0.6392805 0.60858828 0.44081447
0.63755149 0.6058712 0.44190815
0.63751382 0.60381973 0.44184911
0.63747615 0.60176831 0.44179007
0.63743842 0.59971684 0.44173104
0.63909179 0.59831357 0.44051877
0.63905406 0.59625864 0.44045964
0.63901633 0.59420365 0.44040048
0.63897854 0.59214872 0.44034135
0.63894081 0.59009379 0.44028223
0.63890308 0.5880388 0.44022307
0.63886535 0.58598393 0.44016394
0.63882756 0.58392894 0.44010478
0.63878983 0.58187401 0.44004565
0.63706166 0.57920247 0.44114062
0.63533366 0.57653803 0.44223577
0.63529605 0.57449007 0.44217682
0.63356829 0.57183611 0.44327226
0.62930548 0.56828535 0.44609964
0.62926805 0.56624973 0.44604105
0.62923068 0.56421405 0.44598246
0.62919331 0.56217837 0.44592386
0.62746608 0.55955422 0.44702017
0.62573886 0.5569371 0.44811672
0.62570161 0.55490845 0.44805834
0.62228507 0.55172384 0.45031029
0.62055838 0.5491277 0.4514074
0.62052131 0.5471096 0.45134932
0.61795002 0.5442403 0.45302451
0.61791301 0.54222745 0.45296657
0.61787605 0.54021454 0.45290866
0.6178391 0.53820169 0.45285073
0.61780214 0.53618884 0.45279279
0.61776513 0.53417593 0.45273486
0.6160391 0.53161669 0.45383298
0.6160022 0.52960736 0.45377517
0.61596531 0.52759796 0.45371735
0.61761725 0.52612454 0.45250314
0.61758029 0.52411163 0.45244521
0.61754334 0.52209884 0.45238727
0.6200394 0.52087402 0.45059428
0.62000233 0.51885587 0.45053619
0.61996526 0.51683778 0.45047811
0.6233052 0.51584935 0.44810605
0.62326801 0.51382422 0.44804776
0.62491912 0.51230693 0.44683227
0.62488186 0.51027828 0.44677389
0.62484461 0.5082497 0.4467155
0.65088218 0.73513502 0.43550602
0.6525377 0.7339282 0.43429625
0.6524995 0.73184872 0.43423641
0.65246129 0.72976923 0.43417653
0.65242308 0.72768968 0.43411669
0.65069151 0.72475505 0.43520728
0.65065336 0.72267914 0.43514752
0.65061527 0.72060311 0.4350878
0.65057713 0.71852714 0.43502805
0.65053898 0.71645117 0.43496829
0.65050089 0.71437514 0.43490854
0.64792317 0.71104807 0.43657541
0.64788514 0.70897734 0.43651581
0.64784712 0.70690662 0.43645623
0.64611626 0.70401227 0.43754798
0.64607829 0.70194513 0.4374885
0.64604032 0.69987786 0.43742901
0.64600235 0.69781065 0.43736953
0.64596438 0.69574344 0.43731001
0.64592642 0.69367623 0.43725052
0.64588845 0.69160903 0.43719104
0.64585048 0.68954176 0.43713152
0.64412022 0.68667907 0.4382242
0.64408231 0.68461537 0.4381648
0.64235216 0.68176311 0.43925783
0.64231431 0.67970294 0.43919852
0.64227647 0.6776427 0.43913925
0.64223862 0.67558253 0.43907994
0.64220077 0.67352229 0.43902066
0.64216298 0.67146212 0.43896136
0.64212513 0.66940188 0.43890208
0.64208728 0.66734171 0.43884277
0.64204943 0.66528147 0.4387835
0.63947427 0.66208589 0.4404541
0.63943654 0.66003096 0.44039494
0.63939881 0.65797597 0.44033581
0.63936102 0.65592104 0.44027665
0.63932329 0.65386611 0.44021752
0.63928556 0.65181118 0.4401584
0.63924783 0.64975619 0.44009924
0.6417467 0.6487999 0.43830916
0.64170885 0.64673966 0.43824986
0.641671 0.64467949 0.43819058
0.64163321 0.64261925 0.43813127
0.64159536 0.64055908 0.438072
0.64155751 0.63849884 0.43801269
0.63898361 0.63537163 0.43968526
0.63894588 0.6333167 0.43962613
0.63890815 0.63126171 0.43956697
0.63887036 0.62920678 0.43950784
0.63883263 0.62715185 0.43944868
0.6387949 0.62509692 0.43938956
0.63875717 0.62304199 0.43933043
0.63871938 0.620987 0.43927127
0.63868165 0.61893207 0.43921214
0.63864392 0.61687714 0.43915299
0.63860619 0.61482215 0.43909386
0.6385684 0.61276728 0.4390347
0.63853067 0.61071229 0.43897557
0.63849294 0.60865736 0.43891641
0.63676524 0.60594016 0.44001332
0.63672757 0.60388875 0.43995428
0.6366899 0.60183728 0.43989524
0.63665217 0.59978586 0.4398362
0.63830423 0.59838265 0.43862072
0.6382665 0.59632772 0.43856159
0.63822871 0.59427273 0.43850243
0.63819098 0.5922178 0.4384433
0.63815325 0.59016287 0.43838418
0.63811553 0.58810794 0.43832502
0.63807774 0.58605301 0.43826589
0.63804001 0.58399802 0.43820673
0.63800228 0.58194309 0.4381476
0.63627541 0.5792715 0.43924579
0.63454878 0.57660687 0.44034418
0.63451117 0.57455891 0.44028524
0.63278472 0.57190484 0.4413839
0.62852526 0.56835383 0.44421938
0.62848788 0.56631815 0.44416079
0.62845051 0.56428254 0.44410223
0.62841308 0.5622468 0.44404364
0.62668723 0.55962259 0.44514316
0.62496138 0.55700529 0.44624293
0.62492412 0.55497664 0.44618455
0.62151027 0.55179179 0.448443
0.61978489 0.54919559 0.44954336
0.61974782 0.54717743 0.44948527
0.61717856 0.54430795 0.45116532
0.6171416 0.5422951 0.45110738
0.61710459 0.54028225 0.45104945
0.61706764 0.5382694 0.45099151
0.61703068 0.53625649 0.45093358
0.61699373 0.53424364 0.45087567
0.61526901 0.53168428 0.45197704
0.61523211 0.52967489 0.45191923
0.61519521 0.5276655 0.45186138
0.61684579 0.52619219 0.45064393
0.61680883 0.52417934 0.45058602
0.61677188 0.52216649 0.45052809
0.61926597 0.52094185 0.44873023
0.6192289 0.51892376 0.44867215
0.61919183 0.51690561 0.44861406
0.61915475 0.51488751 0.44855598
0.61911768 0.51286936 0.44849789
0.6190806 0.51085126 0.44843981
0.61904353 0.50883311 0.44838172
0.64585555 0.73302287 0.43647149
0.64581758 0.73095566 0.43641201
0.64577961 0.72888839 0.43635252
0.64574164 0.72682118 0.43629301
0.64570367 0.72475398 0.43623352
0.64566571 0.72268677 0.43617404
0.6439358 0.71976781 0.43726832
0.64389789 0.71770406 0.43720892
0.64385998 0.71564037 0.43714952
0.64382207 0.71357667 0.43709013
0.64378417 0.71151292 0.43703073
0.6420545 0.70861501 0.4381257
0.64201665 0.70655483 0.43806642
0.6419788 0.70449466 0.43800712
0.63940382 0.70119888 0.43967968
0.63936609 0.69914395 0.43962055
0.63932836 0.69708902 0.4395614
0.63929057 0.69503409 0.43950227
0.63925284 0.6929791 0.43944311
0.63921511 0.69092417 0.43938398
0.63748616 0.6880666 0.44048008
0.63744849 0.68601513 0.44042104
0.63741082 0.68396372 0.44036201
0.63737315 0.6819123 0.44030297
0.63733548 0.67986083 0.44024393
0.63560706 0.6770243 0.4413406
0.63556939 0.67497635 0.44128168
0.63553178 0.67292845 0.44122273
0.63549417 0.6708805 0.44116378
0.63545656 0.66883254 0.44110486
0.63541895 0.66678464 0.44104591
0.63538134 0.66473669 0.44098696
0.6336534 0.66192818 0.44208443
0.63361585 0.6598838 0.4420256
0.6335783 0.65783936 0.44196677
0.63354075 0.65579492 0.44190791
0.63181317 0.65300399 0.44300589
0.63177568 0.65096307 0.44294715
0.63173819 0.64892215 0.44288841
0.63170069 0.64688122 0.44282967
0.6316632 0.6448403 0.44277093
0.63162577 0.64279938 0.44271222
0.63327789 0.64148396 0.44149604
0.63324034 0.63943952 0.44143721
0.63320279 0.63739514 0.44137838
0.63316524 0.6353507 0.44131956
0.63143831 0.63259482 0.44241852
0.63140082 0.6305539 0.44235978
0.63136333 0.62851298 0.44230103
0.63132584 0.62647206 0.44224229
0.63128835 0.62443113 0.44218358
0.63125086 0.62239021 0.44212484
0.63121337 0.62034929 0.4420661
0.63117594 0.61830837 0.44200736
0.63113844 0.61626744 0.44194862
0.63110095 0.61422658 0.44188988
0.63106346 0.61218566 0.44183114
0.63102597 0.61014473 0.4417724
0.63098848 0.60810381 0.44171366
0.63095099 0.60606289 0.44165495
0.6309135 0.60402197 0.44159621
0.63256449 0.60263991 0.44037813
0.63252693 0.60059553 0.4403193
0.63248938 0.59855109 0.44026047
0.63245183 0.59650666 0.44020161
0.63241428 0.59446222 0.44014278
0.63237673 0.59241784 0.44008395
0.63233918 0.5903734 0.44002509
0.63230163 0.58832896 0.43996626
0.63226408 0.58628458 0.43990743
0.63222653 0.58424014 0.4398486
0.63218898 0.5821957 0.43978974
0.63215142 0.58015126 0.43973091
0.63042617 0.57749003 0.44083261
0.63038868 0.57544917 0.44077387
0.63035119 0.57340825 0.44071513
0.626095 0.56985164 0.44355857
0.62605768 0.56781948 0.44350007
0.62602037 0.56578732 0.4434416
0.62429565 0.56315941 0.44454435
0.6242584 0.56113082 0.44448596
0.62253398 0.5585134 0.44558892
0.62080967 0.55590302 0.44669208
0.6207726 0.55388141 0.44663391
0.61651802 0.5504142 0.44947988
0.61648107 0.54840136 0.44942197
0.61644405 0.54638851 0.44936404
0.61472034 0.54380792 0.45046806
0.61468345 0.54179859 0.45041022
0.61295992 0.53922856 0.45151457
0.61292309 0.53722268 0.45145684
0.61288619 0.53521681 0.45139912
0.61284935 0.53321099 0.45134139
0.61281252 0.53120512 0.45128366
0.61277568 0.5291993 0.45122594
0.61273885 0.52719343 0.45116821
0.61270201 0.52518761 0.45111048
0.61266518 0.52318174 0.45105276
0.61262834 0.52117592 0.45099503
0.61259151 0.51917005 0.4509373
0.61255461 0.51716417 0.45087957
0.61251777 0.51515836 0.45082185
0.61248094 0.51315248 0.45076412
0.6124441 0.51114666 0.45070639
0.61409295 0.50964892 0.44948497
0.64341015 0.73428315 0.4357779
0.64168113 0.73134655 0.43687499
0.64164329 0.72928631 0.43681568
0.64160544 0.72722614 0.4367564
0.64156759 0.72516596 0.4366971
0.64152974 0.72310573 0.43663782
0.63895595 0.71976244 0.43831387
0.63722748 0.71685565 0.43941182
0.63718975 0.71480423 0.43935278
0.63715208 0.71275282 0.43929371
0.63711441 0.71070135 0.43923467
0.63707674 0.70864993 0.43917564
0.63534874 0.70576417 0.44027418
0.63531113 0.70371622 0.44021523
0.63358337 0.70084095 0.44131401
0.63354582 0.69879657 0.44125518
0.63350827 0.69675213 0.44119635
0.63347071 0.69470769 0.44113749
0.63343316 0.69266325 0.44107866
0.63339561 0.69061887 0.44101983
0.63335806 0.68857443 0.440961
0.63332051 0.68652999 0.44090214
0.63328296 0.68448561 0.44084331
0.6315558 0.68164539 0.44194311
0.6315183 0.67960447 0.44188437
0.63148081 0.67756361 0.44182563
0.62890917 0.67434484 0.44350535
0.6288718 0.67230916 0.44344676
0.62883437 0.67027348 0.44338816
0.62879699 0.66823786 0.44332957
0.63129336 0.66735899 0.44153196
0.62872219 0.66416651 0.44321242
0.62868482 0.66213083 0.44315383
0.62695849 0.65933454 0.4442549
0.62523216 0.65654516 0.44535619
0.62519491 0.65451658 0.44529781
0.62515765 0.65248793 0.44523942
0.62512034 0.65045923 0.44518104
0.62508309 0.64843065 0.44512266
0.6233573 0.64566237 0.44622454
0.6233201 0.64363718 0.44616625
0.62328285 0.64161205 0.44610798
0.62493408 0.64031607 0.44488913
0.62489682 0.63828743 0.44483075
0.62485951 0.63625878 0.44477236
0.62482226 0.63423014 0.44471398
0.62478501 0.63220149 0.4446556
0.62305969 0.62946123 0.44575828
0.6230225 0.6274361 0.44569999
0.6229853 0.62541097 0.4456417
0.62294811 0.62338585 0.44558343
0.62291092 0.62136072 0.44552514
0.62287372 0.61933553 0.44546688
0.62452418 0.61800098 0.44424692
0.62448692 0.61597234 0.44418854
0.62444967 0.6139437 0.44413015
0.62441242 0.61191505 0.44407177
0.62437516 0.60988641 0.44401339
0.62433791 0.60785776 0.443955
0.6243006 0.60582912 0.44389662
0.62426335 0.60380048 0.44383824
0.62422609 0.60177183 0.44377983
0.62587607 0.60040224 0.44255883
0.6258387 0.59837002 0.44250035
0.62580138 0.59633791 0.44244185
0.62745094 0.59495425 0.44122049
0.62741357 0.59291857 0.44116193
0.6273762 0.5908829 0.44110334
0.62733877 0.58884722 0.44104475
0.62730139 0.5868116 0.44098616
0.63148052 0.5863533 0.4380191
0.63144296 0.58430886 0.43796027
0.63140541 0.58226442 0.43790141
0.63136786 0.58021998 0.43784258
0.62964398 0.5775587 0.43894753
0.62960649 0.57551777 0.43888879
0.62956899 0.57347685 0.43883005
0.62531614 0.56991994 0.44168156
0.62527883 0.56788778 0.44162309
0.62524152 0.56585568 0.44156459
0.62351817 0.56322765 0.44267055
0.62348092 0.56119901 0.44261217
0.62175781 0.55858147 0.44371837
0.62003487 0.55597097 0.44482478
0.61999774 0.55394936 0.44476661
0.61574656 0.55048192 0.44762069
0.6157096 0.54846907 0.44756275
0.61567259 0.54645616 0.44750482
0.61395025 0.54387552 0.44861209
0.6139133 0.54186612 0.44855428
0.61219114 0.53929597 0.44966185
0.6121543 0.53729016 0.44960412
0.61211747 0.53528428 0.4495464
0.61208057 0.53327841 0.44948867
0.61204374 0.53127259 0.44943094
0.6120069 0.52926672 0.44937322
0.61197007 0.5272609 0.44931549
0.61193323 0.52525502 0.44925776
0.6118964 0.52324915 0.44920003
0.61185956 0.52124333 0.44914231
0.61182272 0.51923752 0.44908458
0.61178589 0.51723164 0.44902685
0.61174899 0.51522577 0.4489691
0.61171216 0.51321995 0.44891137
0.61167532 0.51121408 0.44885364
0.6426571 0.73641628 0.43393114
0.64261919 0.73435253 0.43387175
0.64089155 0.73141581 0.43497205
0.6408537 0.72935557 0.43491277
0.64081585 0.72729546 0.43485346
0.64077801 0.72523522 0.43479419
0.64074016 0.72317499 0.43473488
0.63816833 0.71983159 0.43641582
0.63644123 0.71692467 0.43751702
0.63640356 0.71487319 0.43745798
0.63636589 0.71282178 0.43739891
0.63632816 0.71077031 0.43733987
0.63629049 0.7087189 0.43728083
0.63456386 0.70583302 0.43838257
0.63452625 0.70378506 0.43832362
0.6327998 0.70090973 0.43942565
0.63276225 0.69886529 0.43936682
0.6327247 0.69682086 0.43930799
0.63268715 0.69477648 0.43924913
0.6326496 0.69273204 0.4391903
0.63261205 0.6906876 0.43913147
0.6325745 0.68864322 0.43907264
0.63253695 0.68659872 0.43901378
0.6324994 0.68455434 0.43895495
0.6307736 0.681714 0.44005799
0.63073611 0.67967308 0.43999925
0.63069862 0.67763221 0.43994051
0.62812895 0.67441326 0.44162509
0.62809157 0.67237759 0.4415665
0.6280542 0.67034197 0.44150794
0.62801683 0.66830629 0.44144934
0.63051116 0.6674276 0.43964684
0.62794203 0.66423494 0.44133216
0.62790465 0.66219932 0.44127357
0.62617964 0.65940285 0.44237787
0.62445462 0.65661341 0.44348243
0.62441736 0.65458477 0.44342405
0.62438011 0.65255612 0.44336566
0.62434286 0.65052748 0.44330728
0.62430561 0.64849883 0.4432489
0.62258112 0.64573044 0.444354
0.62254393 0.64370531 0.4442957
0.62250674 0.64168012 0.44423744
0.62415653 0.64038426 0.44301534
0.62411928 0.63835561 0.44295695
0.62408203 0.63632697 0.44289857
0.62404478 0.63429832 0.44284019
0.62400752 0.63226968 0.44278181
0.62228352 0.62952936 0.44388774
0.62224633 0.62750423 0.44382945
0.62220913 0.62547904 0.44377118
0.62217194 0.62345392 0.44371289
0.62213475 0.62142879 0.4436546
0.62209755 0.61940366 0.44359633
0.62374669 0.61806923 0.44237313
0.62370944 0.61604053 0.44231474
0.62367219 0.61401188 0.44225636
0.62363487 0.6119833 0.44219798
0.62359762 0.6099546 0.4421396
0.62356037 0.60792601 0.44208121
0.62352312 0.60589737 0.44202283
0.62348586 0.60386866 0.44196445
0.62344861 0.60184008 0.44190606
0.62509722 0.60047054 0.44068182
0.62505984 0.59843838 0.44062331
0.62502253 0.59640622 0.44056484
0.62667078 0.59502268 0.43934026
0.62663341 0.592987 0.43928167
0.62659597 0.59095138 0.43922308
0.6265586 0.58891571 0.43916449
0.62652123 0.58688003 0.4391059
0.6264838 0.58484435 0.43904734
0.62644643 0.58280873 0.43898875
0.62640905 0.58077306 0.43893015
0.62637168 0.57873744 0.43887156
0.62464929 0.57608473 0.43998
0.62292695 0.57343906 0.44108868
0.6228897 0.57141042 0.44103029
0.62285244 0.56938177 0.44097191
0.61944574 0.56614715 0.44324839
0.61940861 0.56412548 0.44319022
0.61937147 0.56210387 0.44313204
0.61933434 0.56008226 0.44307387
0.61761278 0.55747163 0.44418353
0.61504906 0.55457526 0.44587734
0.61501205 0.55256248 0.44581941
0.61329085 0.5499711 0.44692963
0.6115697 0.54738683 0.44804004
0.61153287 0.54538095 0.44798231
0.61149603 0.54337513 0.44792458
0.6114592 0.54136926 0.44786686
0.60973829 0.5388025 0.44897783
0.60801768 0.53624272 0.45008895
0.60798097 0.53424388 0.45003143
0.60794425 0.5322451 0.44997391
0.60790753 0.53024626 0.44991636
0.60787082 0.52824742 0.44985884
0.6078341 0.52624857 0.44980133
0.60948086 0.52478611 0.44857445
0.60944408 0.52278376 0.44851682
0.60940731 0.5207814 0.44845918
0.60937053 0.51877904 0.44840157
0.60933375 0.51677674 0.44834393
0.6076138 0.51425552 0.44945616
0.60757709 0.51225668 0.44939864
0.63768274 0.73634017 0.43499088
0.63764501 0.7342853 0.43493173
0.63760722 0.73223031 0.4348726
0.63588107 0.72930223 0.43597642
0.6358434 0.72725081 0.43591738
0.63580573 0.72519934 0.43585834
0.63407987 0.72228527 0.43696249
0.63404226 0.72023737 0.43690354
0.63231665 0.71733379 0.43800801
0.63059115 0.71443731 0.43911266
0.63055366 0.71239638 0.43905392
0.63051617 0.71035546 0.43899521
0.63047868 0.70831454 0.43893647
0.63044119 0.70627362 0.43887773
0.62787223 0.70298088 0.44056505
0.62783486 0.7009452 0.44050646
0.62779748 0.69890958 0.44044787
0.62776005 0.6968739 0.44038928
0.62772268 0.69483829 0.44033071
0.62768531 0.69280261 0.44027212
0.62596065 0.68995345 0.44137812
0.62592334 0.68792129 0.44131964
0.62588602 0.68588912 0.44126117
0.62753576 0.68465996 0.44003779
0.62581134 0.6818248 0.4411442
0.62408704 0.67899668 0.44225088
0.62404978 0.67696804 0.44219249
0.62401247 0.67493939 0.44213411
0.62228853 0.67212528 0.44324115
0.62225133 0.67010015 0.44318286
0.62221414 0.66807497 0.44312456
0.62217695 0.6660499 0.4430663
0.62213969 0.66402477 0.44300801
0.6204161 0.6612317 0.44411567
0.62037897 0.65921003 0.44405749
0.6203419 0.65718842 0.44399929
0.61608917 0.65327322 0.44685674
0.61605221 0.65126038 0.4467988
0.61601526 0.64924753 0.44674087
0.61597824 0.64723462 0.44668293
0.61594129 0.64522177 0.44662499
0.61421841 0.64246905 0.44773379
0.61418152 0.64045966 0.44767597
0.61414462 0.63845032 0.44761813
0.61410773 0.63644093 0.44756031
0.61407083 0.6344316 0.44750249
0.61403388 0.63242227 0.44744465
0.61568248 0.63113177 0.4462195
0.61564553 0.62911886 0.44616157
0.61560857 0.62710601 0.44610363
0.61557156 0.62509316 0.4460457
0.6155346 0.62308031 0.44598779
0.61549765 0.62106746 0.44592986
0.61546069 0.61905456 0.44587192
0.61542368 0.61704171 0.44581398
0.61538672 0.61502886 0.44575605
0.61534977 0.61301601 0.44569814
0.61531276 0.6110031 0.44564021
0.61780304 0.61001068 0.44382957
0.61776596 0.60799253 0.44377148
0.61772889 0.60597438 0.4437134
0.61769181 0.60395628 0.44365531
0.61765474 0.60193819 0.44359723
0.61761773 0.59992003 0.44353914
0.61926502 0.59856117 0.44231203
0.61922789 0.5965395 0.44225386
0.61919075 0.59451789 0.44219565
0.62083787 0.59314495 0.4409681
0.62080067 0.59111983 0.44090983
0.62076348 0.5890947 0.44085154
0.62072623 0.58706957 0.44079325
0.62068903 0.58504444 0.44073498
0.62065184 0.58301932 0.44067669
0.62061465 0.58099419 0.44061843
0.62057745 0.57896906 0.44056013
0.62054026 0.57694387 0.44050184
0.61881948 0.5743016 0.44161385
0.61709875 0.57166636 0.44272602
0.61706167 0.56964821 0.44266793
0.6170246 0.56763011 0.44260985
0.61446244 0.56470728 0.4443078
0.61442548 0.56269443 0.4442499
0.61270523 0.56008548 0.44536281
0.61266834 0.55807614 0.44530499
0.61263144 0.55606675 0.44524717
0.60922831 0.55288619 0.44753173
0.60919154 0.55088389 0.44747409
0.60915476 0.54888153 0.44741648
0.60743517 0.54630411 0.44853035
0.60739845 0.54430526 0.4484728
0.60567898 0.54173839 0.44958696
0.60564232 0.53974307 0.44952953
0.60560572 0.53774774 0.4494721
0.60388654 0.53519487 0.45058668
0.60384995 0.53320307 0.45052934
0.60381335 0.53121126 0.45047203
0.60377675 0.52921939 0.45041469
0.60374016 0.52722758 0.45035738
0.60370362 0.52523577 0.45030004
0.60366702 0.52324396 0.45024273
0.60363042 0.52125216 0.45018539
0.60359383 0.51926029 0.45012808
0.60355723 0.51726848 0.45007074
0.60352069 0.51527667 0.45001343
0.60180217 0.51276588 0.45112923
0.63352066 0.73464173 0.43542454
0.63179594 0.73171353 0.43653151
0.63175839 0.72966909 0.43647268
0.63003385 0.72675145 0.43758002
0.62999636 0.72471052 0.43752128
0.62995887 0.7226696 0.43746254
0.62739116 0.7193346 0.43915349
0.62735379 0.71729892 0.4390949
0.62562972 0.71440756 0.44020295
0.62390566 0.71152318 0.44131124
0.62386841 0.70949453 0.44125286
0.62383115 0.70746589 0.44119447
0.6237939 0.70543724 0.44113609
0.62375665 0.7034086 0.44107771
0.62203312 0.70054525 0.44218656
0.62199593 0.69852012 0.44212827
0.62195873 0.696495 0.44207001
0.62023544 0.69364572 0.44317928
0.62019831 0.6916241 0.44312111
0.62016118 0.68960243 0.44306293
0.62012404 0.68758082 0.44300473
0.62008691 0.68555915 0.44294655
0.62004977 0.68353754 0.44288838
0.62001264 0.68151593 0.4428302
0.61997551 0.67949432 0.442772
0.61825281 0.67667657 0.4438822
0.61821574 0.67465842 0.44382411
0.61817867 0.67264032 0.44376603
0.61561346 0.66944379 0.44546095
0.61557651 0.66743094 0.44540304
0.61553955 0.66541809 0.4453451
0.6155026 0.66340524 0.44528717
0.61546558 0.66139233 0.44522923
0.61374354 0.65861142 0.44634047
0.61370665 0.65660208 0.44628263
0.61198485 0.65383166 0.44739416
0.61026305 0.65106833 0.44850597
0.61022627 0.64906597 0.44844836
0.6101895 0.64706361 0.44839072
0.61520678 0.64730233 0.44482374
0.61516982 0.64528948 0.44476581
0.61344832 0.64253658 0.44587785
0.61341143 0.64052725 0.44582
0.61337453 0.63851786 0.44576219
0.61333758 0.63650852 0.44570434
0.61330068 0.63449919 0.44564652
0.61326379 0.6324898 0.44558871
0.61491102 0.63119942 0.44436029
0.61487406 0.62918657 0.44430235
0.61483711 0.62717366 0.44424444
0.6148001 0.62516081 0.44418651
0.61476314 0.62314796 0.44412857
0.61472619 0.62113512 0.44407064
0.61468923 0.61912227 0.4440127
0.61465222 0.61710936 0.4439548
0.61461526 0.61509651 0.44389686
0.61457831 0.61308366 0.44383892
0.61454135 0.61107081 0.44378099
0.61702955 0.61007851 0.44196552
0.61699253 0.60806042 0.44190744
0.61695546 0.60604227 0.44184935
0.61691839 0.60402417 0.44179127
0.61688131 0.60200602 0.44173318
0.61684424 0.59998792 0.4416751
0.61849022 0.59862912 0.44044474
0.61845309 0.59660751 0.44038656
0.61841595 0.5945859 0.44032836
0.6200617 0.59321308 0.43909758
0.6200245 0.59118795 0.43903929
0.61998731 0.58916277 0.438981
0.61995012 0.58713764 0.43892273
0.61991292 0.58511251 0.43886444
0.61987573 0.58308738 0.43880615
0.61983854 0.58106226 0.43874788
0.61980128 0.57903713 0.43868959
0.61976409 0.577012 0.4386313
0.61804461 0.57436961 0.43974656
0.61632526 0.57173419 0.44086197
0.61628824 0.56971604 0.44080389
0.61625117 0.56769794 0.4407458
0.61369097 0.56477493 0.44244862
0.61365402 0.56276214 0.44239068
0.61193514 0.56015301 0.44350687
0.61189824 0.55814368 0.44344902
0.61186135 0.55613428 0.4433912
0.6084609 0.55295354 0.44568226
0.60842413 0.55095118 0.44562462
0.60838735 0.54894882 0.44556701
0.60666907 0.54637134 0.44668409
0.60663235 0.5443725 0.44662657
0.60491425 0.54180551 0.44774395
0.60487759 0.53981018 0.44768652
0.60484093 0.53781486 0.44762909
0.60312313 0.53526181 0.44874689
0.60308653 0.53327 0.44868955
0.60304993 0.53127819 0.44863224
0.60301334 0.52928638 0.44857493
0.6029768 0.52729458 0.44851759
0.6029402 0.52530271 0.44846028
0.6029036 0.5233109 0.44840294
0.60286701 0.52131909 0.44834563
0.60283047 0.51932728 0.44828829
0.60279387 0.51733547 0.44823098
0.60275728 0.51534361 0.44817364
0.6327734 0.73675853 0.43359187
0.63273579 0.73471063 0.43353295
0.63101238 0.73178226 0.43464318
0.63097483 0.72973782 0.43458435
0.62925166 0.72682005 0.43569487
0.62921417 0.72477913 0.43563616
0.62917668 0.72273821 0.43557742
0.62661099 0.71940303 0.4372732
0.62657356 0.71736735 0.43721461
0.62485087 0.71447587 0.43832591
0.62312818 0.71159136 0.43943745
0.62309092 0.70956272 0.43937907
0.62305367 0.70753407 0.43932068
0.62301642 0.70550543 0.4392623
0.6229791 0.70347679 0.43920392
0.62125695 0.70061332 0.44031602
0.62121975 0.69858825 0.44025776
0.62118256 0.69656312 0.44019946
0.61946058 0.69371367 0.44131196
0.61942345 0.69169205 0.44125378
0.61938637 0.68967044 0.44119561
0.61934924 0.68764877 0.44113743
0.61931211 0.68562716 0.44107923
0.61927497 0.68360549 0.44102105
0.61923784 0.68158388 0.44096288
0.61920071 0.67956227 0.44090471
0.61747932 0.6767444 0.44201812
