ply
format ascii 1.0
comment Created by Open3D
element vertex 1741
property double x
property double y
property double z
end_header
0.970915 -0.162193 0.917641
0.970861 -0.164464 0.917648
0.970807 -0.166736 0.917655
0.970752 -0.169007 0.917663
0.970698 -0.171278 0.91767
0.970644 -0.173549 0.917677
0.970589 -0.175821 0.917684
0.971538 -0.178409 0.917534
0.971484 -0.180683 0.917541
0.971429 -0.182956 0.917548
0.972378 -0.185551 0.917398
0.972324 -0.187826 0.917405
0.972269 -0.190101 0.917412
0.972215 -0.192376 0.917419
0.973163 -0.19498 0.91727
0.973109 -0.197257 0.917277
0.973054 -0.199533 0.917284
0.973 -0.20181 0.917291
0.972946 -0.204086 0.917298
0.972891 -0.206363 0.917305
0.972837 -0.208639 0.917312
0.972782 -0.210916 0.917319
0.972728 -0.213193 0.917326
0.972673 -0.215469 0.917333
0.972619 -0.217746 0.91734
0.972565 -0.220022 0.917347
0.97251 -0.222299 0.917355
0.972456 -0.224575 0.917362
0.972401 -0.226852 0.917369
0.972347 -0.229128 0.917376
0.972292 -0.231405 0.917383
0.972238 -0.233681 0.91739
0.972403 0.314219 0.915477
0.972349 0.311963 0.915484
0.973307 0.309767 0.915332
0.973253 0.30751 0.915339
0.973199 0.305253 0.915346
0.973145 0.302996 0.915353
0.973091 0.300739 0.91536
0.973037 0.298481 0.915367
0.972983 0.296224 0.915374
0.972929 0.293967 0.915381
0.972875 0.29171 0.915388
0.972821 0.289452 0.915395
0.972767 0.287195 0.915402
0.972713 0.284938 0.915409
0.972659 0.282681 0.915416
0.972605 0.280423 0.915423
0.972551 0.278166 0.91543
0.972497 0.275909 0.915437
0.972443 0.273652 0.915444
0.972389 0.271394 0.915451
0.972335 0.269137 0.915458
0.973292 0.266906 0.915305
0.973238 0.264647 0.915312
0.973184 0.262388 0.915319
0.974141 0.26015 0.915167
0.974087 0.257889 0.915174
0.974033 0.255629 0.915181
0.974989 0.253384 0.915029
0.974935 0.251121 0.915036
0.974881 0.248859 0.915043
0.976847 0.246617 0.914731
0.976793 0.244351 0.914738
0.976739 0.242085 0.914745
0.977695 0.239824 0.914592
0.977641 0.237556 0.914599
0.977587 0.235289 0.914606
0.977532 0.233021 0.914614
0.977478 0.230753 0.914621
0.977424 0.228485 0.914628
0.97737 0.226218 0.914635
0.978325 0.223943 0.914482
0.978271 0.221673 0.914489
0.978217 0.219404 0.914496
0.979172 0.217122 0.914344
0.979118 0.214851 0.914351
0.979064 0.212579 0.914358
0.980019 0.21029 0.914206
0.979965 0.208017 0.914213
0.97991 0.205744 0.91422
0.979856 0.203471 0.914227
0.979802 0.201198 0.914234
0.979747 0.198925 0.914241
0.979693 0.196652 0.914248
0.979639 0.194379 0.914255
0.979584 0.192106 0.914262
0.97953 0.189833 0.914269
0.979476 0.18756 0.914276
0.979421 0.185287 0.914283
0.979367 0.183014 0.91429
0.980322 0.180701 0.914138
0.980267 0.178426 0.914145
0.980213 0.176151 0.914152
0.980159 0.173876 0.914159
0.980104 0.171602 0.914166
0.98005 0.169327 0.914173
0.981004 0.167001 0.914021
0.98095 0.164725 0.914028
0.980895 0.162448 0.914035
0.98185 0.160115 0.913883
0.981795 0.157837 0.91389
0.981741 0.155559 0.913897
0.981686 0.15328 0.913904
0.981632 0.151002 0.913911
0.981577 0.148724 0.913919
0.981523 0.146446 0.913926
0.981468 0.144167 0.913933
0.981414 0.141889 0.91394
0.981359 0.139611 0.913947
0.981305 0.137332 0.913954
0.98125 0.135054 0.913961
0.981196 0.132776 0.913968
0.981141 0.130498 0.913975
0.981087 0.128219 0.913982
0.981033 0.125941 0.913989
0.980978 0.123663 0.913996
0.980924 0.121384 0.914003
0.980869 0.119106 0.91401
0.980815 0.116828 0.914017
0.98076 0.11455 0.914024
0.979698 0.112364 0.914191
0.979643 0.110088 0.914198
0.979589 0.107811 0.914205
0.978527 0.105633 0.914371
0.978472 0.103358 0.914378
0.978418 0.101083 0.914385
0.978364 0.0988087 0.914392
0.977302 0.0966392 0.914558
0.977247 0.0943662 0.914565
0.977193 0.0920932 0.914572
0.976131 0.0899307 0.914738
0.976077 0.0876595 0.914745
0.976022 0.0853882 0.914752
0.975968 0.0831169 0.914759
0.975914 0.0808457 0.914766
0.97586 0.0785744 0.914773
0.975805 0.0763031 0.914781
0.975751 0.0740318 0.914788
0.975697 0.0717606 0.914795
0.975642 0.0694893 0.914802
0.975588 0.067218 0.914809
0.975534 0.0649468 0.914816
0.975479 0.0626755 0.914823
0.976432 0.0602708 0.914671
0.976378 0.0579978 0.914678
0.976323 0.0557248 0.914685
0.976269 0.0534518 0.914692
0.976215 0.0511788 0.914699
0.97616 0.0489057 0.914706
0.976106 0.0466327 0.914713
0.976052 0.0443597 0.91472
0.975997 0.0420867 0.914727
0.975943 0.0398136 0.914734
0.975889 0.0375406 0.914741
0.975834 0.0352676 0.914748
0.974773 0.033149 0.914914
0.974719 0.0308777 0.914921
0.974665 0.0286064 0.914928
0.97461 0.0263352 0.914935
0.974556 0.0240639 0.914942
0.974502 0.0217926 0.914949
0.974448 0.0195214 0.914957
0.974393 0.0172501 0.914964
0.974339 0.0149788 0.914971
0.974285 0.0127076 0.914978
0.97423 0.0104363 0.914985
0.974176 0.00816502 0.914992
0.974122 0.00589376 0.914999
0.974067 0.00362248 0.915006
0.974013 0.00135122 0.915013
0.973959 -0.000920055 0.91502
0.973904 -0.00319133 0.915027
0.97385 -0.00546259 0.915034
0.973796 -0.00773387 0.915041
0.973742 -0.0100051 0.915048
0.973687 -0.0122764 0.915055
0.973633 -0.0145477 0.915062
0.973579 -0.0168189 0.915069
0.973524 -0.0190902 0.915076
0.97347 -0.0213615 0.915083
0.973416 -0.0236327 0.91509
0.973361 -0.025904 0.915097
0.973307 -0.0281753 0.915104
0.973253 -0.0304466 0.915111
0.973198 -0.0327178 0.915118
0.974149 -0.0351961 0.914967
0.974095 -0.0374692 0.914974
0.974041 -0.0397422 0.914981
0.973986 -0.0420152 0.914988
0.973932 -0.0442882 0.914995
0.973878 -0.0465613 0.915002
0.974828 -0.0490518 0.91485
0.974774 -0.0513266 0.914857
0.974719 -0.0536014 0.914864
0.97567 -0.056099 0.914713
0.975615 -0.0583755 0.91472
0.975561 -0.060652 0.914727
0.975506 -0.0629286 0.914734
0.975452 -0.0652051 0.914741
0.975398 -0.0674816 0.914748
0.975343 -0.0697582 0.914755
0.976293 -0.0722698 0.914604
0.976239 -0.0745481 0.914611
0.976184 -0.0768264 0.914618
0.97613 -0.0791046 0.914625
0.976075 -0.0813829 0.914632
0.976021 -0.0836612 0.914639
0.975966 -0.0859395 0.914646
0.975912 -0.0882178 0.914653
0.975857 -0.0904961 0.91466
0.975803 -0.0927744 0.914667
0.975748 -0.0950527 0.914674
0.975694 -0.097331 0.914681
0.975639 -0.0996092 0.914688
0.975585 -0.101888 0.914695
0.97553 -0.104166 0.914702
0.975476 -0.106444 0.914709
0.975422 -0.108722 0.914716
0.975367 -0.111001 0.914724
0.975313 -0.113279 0.914731
0.975258 -0.115557 0.914738
0.975204 -0.117836 0.914745
0.974146 -0.119842 0.91491
0.974091 -0.122118 0.914917
0.974037 -0.124395 0.914924
0.972979 -0.126394 0.91509
0.972924 -0.128669 0.915097
0.97287 -0.130944 0.915104
0.971812 -0.132936 0.91527
0.971758 -0.135209 0.915277
0.971704 -0.137482 0.915284
0.970646 -0.139468 0.915449
0.970592 -0.141739 0.915456
0.970537 -0.14401 0.915463
0.970483 -0.146281 0.91547
0.970429 -0.148553 0.915477
0.970374 -0.150824 0.915484
0.97032 -0.153095 0.915492
0.970266 -0.155366 0.915499
0.970212 -0.157638 0.915506
0.970157 -0.159909 0.915513
0.970103 -0.16218 0.91552
0.970049 -0.164451 0.915527
0.969994 -0.166723 0.915534
0.96994 -0.168994 0.915541
0.969886 -0.171265 0.915548
0.969831 -0.173537 0.915555
0.969777 -0.175808 0.915562
0.970725 -0.178397 0.915411
0.970671 -0.18067 0.915418
0.970617 -0.182943 0.915425
0.971565 -0.185538 0.915273
0.97151 -0.187813 0.91528
0.971456 -0.190088 0.915287
0.971401 -0.192363 0.915294
0.972349 -0.194967 0.915143
0.972295 -0.197244 0.91515
0.97224 -0.19952 0.915157
0.972186 -0.201797 0.915164
0.972131 -0.204074 0.915171
0.972077 -0.20635 0.915178
0.972023 -0.208627 0.915186
0.971968 -0.210903 0.915193
0.971914 -0.21318 0.9152
0.971859 -0.215456 0.915207
0.971805 -0.217733 0.915214
0.97175 -0.220009 0.915221
0.971696 -0.222286 0.915228
0.971642 -0.224562 0.915235
0.971587 -0.226839 0.915242
0.971533 -0.229115 0.915249
0.971478 -0.231392 0.915256
0.971424 -0.233668 0.915263
0.971597 0.314232 0.91337
0.971543 0.311976 0.913377
0.9725 0.30978 0.913223
0.972446 0.307523 0.91323
0.972392 0.305266 0.913237
0.972338 0.303009 0.913244
0.972284 0.300751 0.913251
0.97223 0.298494 0.913258
0.972176 0.296237 0.913265
0.972122 0.29398 0.913272
0.972068 0.291722 0.913279
0.972014 0.289465 0.913286
0.97196 0.287208 0.913293
0.971906 0.284951 0.9133
0.971852 0.282693 0.913307
0.971798 0.280436 0.913314
0.971744 0.278179 0.913321
0.97169 0.275922 0.913328
0.971636 0.273664 0.913335
0.971582 0.271407 0.913342
0.971528 0.26915 0.913349
0.972484 0.266919 0.913195
0.97243 0.26466 0.913202
0.972376 0.262401 0.913209
0.973332 0.260163 0.913055
0.973278 0.257902 0.913062
0.973224 0.255641 0.913069
0.97418 0.253396 0.912915
0.974126 0.251134 0.912922
0.974072 0.248871 0.912929
0.976037 0.24663 0.912614
0.975983 0.244364 0.912621
0.975929 0.242098 0.912628
0.976884 0.239837 0.912474
0.97683 0.237569 0.912481
0.976776 0.235301 0.912488
0.976721 0.233034 0.912495
0.976667 0.230766 0.912502
0.976613 0.228498 0.912509
0.976559 0.22623 0.912516
0.977514 0.223956 0.912362
0.97746 0.221686 0.912369
0.977405 0.219417 0.912376
0.97836 0.217135 0.912222
0.978306 0.214863 0.912229
0.978252 0.212592 0.912236
0.979206 0.210303 0.912082
0.979152 0.20803 0.91209
0.979098 0.205757 0.912097
0.979043 0.203484 0.912104
0.978989 0.201211 0.912111
0.978935 0.198938 0.912118
0.97888 0.196665 0.912125
0.978826 0.194392 0.912132
0.978771 0.192119 0.912139
0.978717 0.189846 0.912146
0.978663 0.187573 0.912153
0.978608 0.1853 0.91216
0.978554 0.183027 0.912167
0.979508 0.180714 0.912013
0.979454 0.178439 0.91202
0.979399 0.176164 0.912027
0.979345 0.173889 0.912034
0.979291 0.171614 0.912041
0.979236 0.16934 0.912048
0.98019 0.167014 0.911895
0.980136 0.164737 0.911902
0.980081 0.162461 0.911909
0.981035 0.160128 0.911755
0.98098 0.15785 0.911762
0.980926 0.155572 0.911769
0.980872 0.153293 0.911776
0.980817 0.151015 0.911783
0.980763 0.148737 0.91179
0.980708 0.146458 0.911797
0.980654 0.14418 0.911804
0.980599 0.141902 0.911811
0.980545 0.139624 0.911819
0.98049 0.137345 0.911826
0.980436 0.135067 0.911833
0.980381 0.132789 0.91184
0.980327 0.13051 0.911847
0.980272 0.128232 0.911854
0.980218 0.125954 0.911861
0.980163 0.123676 0.911868
0.980109 0.121397 0.911875
0.980054 0.119119 0.911882
0.98 0.116841 0.911889
0.979945 0.114562 0.911896
0.978884 0.112377 0.912064
0.978829 0.110101 0.912071
0.978775 0.107824 0.912078
0.977713 0.105646 0.912246
0.977659 0.103371 0.912253
0.977605 0.101096 0.91226
0.97755 0.0988216 0.912267
0.976489 0.0966521 0.912435
0.976434 0.0943791 0.912442
0.97638 0.092106 0.912449
0.975319 0.0899436 0.912617
0.975265 0.0876723 0.912624
0.97521 0.085401 0.912631
0.975156 0.0831298 0.912638
0.975102 0.0808585 0.912645
0.975047 0.0785872 0.912652
0.974993 0.076316 0.912659
0.974939 0.0740447 0.912666
0.974884 0.0717734 0.912673
0.97483 0.0695021 0.91268
0.974776 0.0672309 0.912687
0.974721 0.0649596 0.912694
0.974667 0.0626883 0.912701
0.975619 0.0602837 0.912547
0.975565 0.0580107 0.912555
0.97551 0.0557377 0.912562
0.975456 0.0534646 0.912569
0.975402 0.0511916 0.912576
0.975347 0.0489186 0.912583
0.975293 0.0466456 0.91259
0.976245 0.0442269 0.912436
0.97619 0.0419521 0.912443
0.976136 0.0396773 0.91245
0.976082 0.0374026 0.912457
0.976027 0.0351278 0.912464
0.975973 0.032853 0.912471
0.975918 0.0305782 0.912479
0.975864 0.0283035 0.912486
0.97581 0.0260287 0.912493
0.975755 0.0237539 0.9125
0.975701 0.0214791 0.912507
0.975646 0.0192044 0.912514
0.975592 0.0169296 0.912521
0.975538 0.0146548 0.912528
0.975483 0.01238 0.912535
0.975429 0.0101052 0.912542
0.975374 0.00783047 0.912549
0.97532 0.00555568 0.912556
0.975266 0.0032809 0.912563
0.975211 0.00100613 0.91257
0.975157 -0.00126865 0.912577
0.975103 -0.00354342 0.912584
0.975048 -0.0058182 0.912591
0.974994 -0.00809298 0.912598
0.974939 -0.0103678 0.912605
0.974885 -0.0126425 0.912612
0.974831 -0.0149173 0.91262
0.974776 -0.0171921 0.912627
0.974722 -0.0194669 0.912634
0.974667 -0.0217416 0.912641
0.974613 -0.0240164 0.912648
0.974559 -0.0262912 0.912655
0.974504 -0.028566 0.912662
0.97445 -0.0308408 0.912669
0.974395 -0.0331155 0.912676
0.974341 -0.0353903 0.912683
0.974287 -0.0376651 0.91269
0.974232 -0.0399399 0.912697
0.974178 -0.0422146 0.912704
0.974123 -0.0444894 0.912711
0.974069 -0.0467642 0.912718
0.975019 -0.0492565 0.912565
0.974964 -0.0515331 0.912572
0.97491 -0.0538096 0.912579
0.97586 -0.0563089 0.912426
0.975805 -0.0585872 0.912433
0.975751 -0.0608655 0.91244
0.975696 -0.0631438 0.912447
0.975642 -0.0654221 0.912454
0.975587 -0.0677004 0.912461
0.975533 -0.0699786 0.912468
0.976482 -0.072492 0.912315
0.976428 -0.074772 0.912322
0.976373 -0.0770521 0.912329
0.976319 -0.0793321 0.912336
0.976264 -0.0816122 0.912343
0.97621 -0.0838922 0.91235
0.976155 -0.0861722 0.912357
0.976101 -0.0884523 0.912364
0.976046 -0.0907323 0.912371
0.975992 -0.0930124 0.912379
0.975937 -0.0952924 0.912386
0.975882 -0.0975724 0.912393
0.975828 -0.0998525 0.9124
0.975773 -0.102133 0.912407
0.975719 -0.104413 0.912414
0.975664 -0.106693 0.912421
0.97561 -0.108973 0.912428
0.975555 -0.111253 0.912435
0.975501 -0.113533 0.912442
0.975446 -0.115813 0.912449
0.975392 -0.118093 0.912456
0.975337 -0.120373 0.912463
0.975283 -0.122653 0.91247
0.975228 -0.124933 0.912477
0.974171 -0.126936 0.912645
0.974117 -0.129214 0.912652
0.974062 -0.131492 0.912659
0.973005 -0.133488 0.912826
0.97295 -0.135765 0.912833
0.972896 -0.138041 0.91284
0.971839 -0.14003 0.913007
0.971785 -0.142305 0.913014
0.97173 -0.14458 0.913021
0.971676 -0.146854 0.913028
0.971621 -0.149129 0.913035
0.971567 -0.151404 0.913043
0.971513 -0.153679 0.91305
0.971458 -0.155954 0.913057
0.971404 -0.158228 0.913064
0.971349 -0.160503 0.913071
0.971295 -0.162778 0.913078
0.971241 -0.165053 0.913085
0.971186 -0.167327 0.913092
0.971132 -0.169602 0.913099
0.971078 -0.171877 0.913106
0.971023 -0.174152 0.913113
0.970969 -0.176427 0.91312
0.970914 -0.178701 0.913127
0.97086 -0.180976 0.913134
0.970806 -0.183251 0.913141
0.971753 -0.185848 0.912988
0.971698 -0.188125 0.912995
0.971644 -0.190401 0.913002
0.972591 -0.193006 0.912849
0.972537 -0.195284 0.912857
0.972482 -0.197563 0.912864
0.972428 -0.199841 0.912871
0.972373 -0.202119 0.912878
0.972319 -0.204397 0.912885
0.972264 -0.206676 0.912892
0.973211 -0.209294 0.912739
0.973157 -0.211574 0.912746
0.973102 -0.213854 0.912753
0.973048 -0.216134 0.91276
0.972993 -0.218415 0.912767
0.972939 -0.220695 0.912774
0.972884 -0.222975 0.912781
0.972829 -0.225255 0.912788
0.972775 -0.227535 0.912796
0.97272 -0.229815 0.912803
0.972666 -0.232095 0.91281
0.972611 -0.234375 0.912817
0.97079 0.314244 0.911263
0.970736 0.311989 0.91127
0.971692 0.309793 0.911115
0.971638 0.307536 0.911122
0.971585 0.305279 0.911129
0.971531 0.303021 0.911136
0.971477 0.300764 0.911143
0.971423 0.298507 0.91115
0.971369 0.29625 0.911157
0.971315 0.293992 0.911164
0.971261 0.291735 0.911171
0.971207 0.289478 0.911178
0.971153 0.287221 0.911185
0.971099 0.284963 0.911192
0.971045 0.282706 0.911199
0.970991 0.280449 0.911206
0.970937 0.278192 0.911213
0.970883 0.275934 0.91122
0.970829 0.273677 0.911227
0.970775 0.27142 0.911234
0.970721 0.269163 0.911241
0.971676 0.266932 0.911085
0.971622 0.264673 0.911092
0.971568 0.262414 0.911099
0.972524 0.260176 0.910943
0.97247 0.257915 0.91095
0.972416 0.255654 0.910957
0.973371 0.253409 0.910801
0.973317 0.251147 0.910808
0.973263 0.248884 0.910815
0.975227 0.246643 0.910497
0.975173 0.244377 0.910504
0.975118 0.242111 0.910511
0.976073 0.23985 0.910356
0.976019 0.237582 0.910363
0.975965 0.235314 0.91037
0.97591 0.233047 0.910377
0.975856 0.230779 0.910384
0.975802 0.228511 0.910391
0.975748 0.226243 0.910398
0.976702 0.223968 0.910242
0.976648 0.221699 0.910249
0.976594 0.219429 0.910256
0.977548 0.217148 0.910101
0.977494 0.214876 0.910108
0.977439 0.212605 0.910115
0.978393 0.210316 0.909959
0.978339 0.208043 0.909966
0.978285 0.20577 0.909973
0.97823 0.203497 0.90998
0.978176 0.201224 0.909987
0.978122 0.198951 0.909994
0.978067 0.196678 0.910001
0.978013 0.194405 0.910008
0.977959 0.192132 0.910015
0.977904 0.189859 0.910023
0.97785 0.187586 0.91003
0.977796 0.185313 0.910037
0.977741 0.18304 0.910044
0.978695 0.180726 0.909888
0.97864 0.178452 0.909895
0.978586 0.176177 0.909902
0.978532 0.173902 0.909909
0.978477 0.171627 0.909916
0.978423 0.169353 0.909923
0.979376 0.167027 0.909768
0.979322 0.16475 0.909775
0.979267 0.162474 0.909782
0.98022 0.160141 0.909627
0.980166 0.157863 0.909634
0.980111 0.155584 0.909641
0.980057 0.153306 0.909648
0.980002 0.151028 0.909655
0.979948 0.14875 0.909662
0.979893 0.146471 0.909669
0.979839 0.144193 0.909676
0.979784 0.141915 0.909683
0.97973 0.139636 0.90969
0.979675 0.137358 0.909697
0.979621 0.13508 0.909704
0.979566 0.132802 0.909711
0.979512 0.130523 0.909718
0.979458 0.128245 0.909726
0.979403 0.125967 0.909733
0.979349 0.123688 0.90974
0.979294 0.12141 0.909747
0.97924 0.119132 0.909754
0.979185 0.116854 0.909761
0.979131 0.114575 0.909768
0.97807 0.11239 0.909937
0.978015 0.110114 0.909944
0.977961 0.107837 0.909951
0.9769 0.105659 0.910121
0.976845 0.103384 0.910128
0.976791 0.101109 0.910135
0.976737 0.0988344 0.910142
0.975676 0.0966649 0.910311
0.975622 0.0943919 0.910318
0.975567 0.0921189 0.910325
0.974507 0.0899564 0.910495
0.974452 0.0876852 0.910502
0.974398 0.0854139 0.910509
0.974344 0.0831426 0.910516
0.974289 0.0808713 0.910523
0.974235 0.0786001 0.91053
0.974181 0.0763288 0.910537
0.974126 0.0740575 0.910544
0.974072 0.0717863 0.910551
0.974018 0.069515 0.910558
0.973964 0.0672437 0.910565
0.973909 0.0649725 0.910572
0.973855 0.0627012 0.910579
0.974806 0.0602966 0.910424
0.974752 0.0580235 0.910431
0.974698 0.0557505 0.910438
0.974643 0.0534775 0.910445
0.974589 0.0512045 0.910452
0.974535 0.0489315 0.910459
0.97448 0.0466584 0.910466
0.975431 0.0442398 0.910311
0.975377 0.041965 0.910318
0.975322 0.0396902 0.910325
0.975268 0.0374154 0.910332
0.975214 0.0351407 0.910339
0.975159 0.0328659 0.910346
0.975105 0.0305911 0.910353
0.975051 0.0283163 0.910361
0.974996 0.0260415 0.910368
0.974942 0.0237668 0.910375
0.974887 0.021492 0.910382
0.974833 0.0192172 0.910389
0.974779 0.0169424 0.910396
0.974724 0.0146677 0.910403
0.97467 0.0123929 0.91041
0.974615 0.0101181 0.910417
0.974561 0.00784334 0.910424
0.974507 0.00556854 0.910431
0.974452 0.00329377 0.910438
0.974398 0.00101899 0.910445
0.974343 -0.00125578 0.910452
0.974289 -0.00353056 0.910459
0.974235 -0.00580534 0.910466
0.97418 -0.00808011 0.910473
0.974126 -0.0103549 0.91048
0.974071 -0.0126297 0.910487
0.974017 -0.0149044 0.910495
0.973963 -0.0171792 0.910502
0.973908 -0.019454 0.910509
0.973854 -0.0217288 0.910516
0.973799 -0.0240036 0.910523
0.973745 -0.0262783 0.91053
0.973691 -0.0285531 0.910537
0.973636 -0.0308279 0.910544
0.973582 -0.0331027 0.910551
0.973528 -0.0353774 0.910558
0.973473 -0.0376522 0.910565
0.973419 -0.039927 0.910572
0.973364 -0.0422018 0.910579
0.97331 -0.0444766 0.910586
0.973256 -0.0467513 0.910593
0.974205 -0.0492436 0.910438
0.97415 -0.0515202 0.910445
0.974096 -0.0537967 0.910452
0.975045 -0.0562961 0.910297
0.974991 -0.0585743 0.910305
0.974936 -0.0608526 0.910312
0.974882 -0.0631309 0.910319
0.974827 -0.0654092 0.910326
0.974773 -0.0676875 0.910333
0.974718 -0.0699657 0.91034
0.975667 -0.0724791 0.910185
0.975612 -0.0747592 0.910192
0.975558 -0.0770392 0.910199
0.975503 -0.0793192 0.910206
0.975449 -0.0815993 0.910213
0.975394 -0.0838793 0.91022
0.97534 -0.0861593 0.910227
0.975285 -0.0884394 0.910235
0.975231 -0.0907194 0.910242
0.975176 -0.0929995 0.910249
0.975122 -0.0952795 0.910256
0.975067 -0.0975595 0.910263
0.975013 -0.0998396 0.91027
0.974958 -0.10212 0.910277
0.974904 -0.1044 0.910284
0.974849 -0.10668 0.910291
0.974795 -0.10896 0.910298
0.97474 -0.11124 0.910305
0.974685 -0.11352 0.910312
0.974631 -0.1158 0.910319
0.974576 -0.11808 0.910326
0.974522 -0.12036 0.910333
0.974467 -0.12264 0.910341
0.974413 -0.12492 0.910348
0.973356 -0.126923 0.910516
0.973302 -0.129201 0.910523
0.973247 -0.131479 0.910531
0.972191 -0.133475 0.910699
0.972136 -0.135752 0.910706
0.972082 -0.138028 0.910713
0.971026 -0.140017 0.910882
0.970971 -0.142292 0.910889
0.970917 -0.144567 0.910896
0.970862 -0.146842 0.910903
0.970808 -0.149116 0.91091
0.970754 -0.151391 0.910918
0.970699 -0.153666 0.910925
0.970645 -0.155941 0.910932
0.97059 -0.158215 0.910939
0.970536 -0.16049 0.910946
0.970482 -0.162765 0.910953
0.970427 -0.16504 0.91096
0.970373 -0.167315 0.910967
0.970318 -0.169589 0.910974
0.970264 -0.171864 0.910981
0.97021 -0.174139 0.910988
0.970155 -0.176414 0.910995
0.970101 -0.178688 0.911002
0.970046 -0.180963 0.911009
0.969992 -0.183238 0.911016
0.970939 -0.185836 0.910862
0.970884 -0.188112 0.910869
0.97083 -0.190389 0.910876
0.971776 -0.192993 0.910721
0.971722 -0.195271 0.910728
0.971667 -0.19755 0.910735
0.971613 -0.199828 0.910742
0.971559 -0.202106 0.910749
0.971504 -0.204385 0.910756
0.97145 -0.206663 0.910764
0.972396 -0.209281 0.910609
0.972341 -0.211561 0.910616
0.972287 -0.213842 0.910623
0.972232 -0.216122 0.91063
0.972178 -0.218402 0.910637
0.972123 -0.220682 0.910644
0.972069 -0.222962 0.910651
0.972014 -0.225242 0.910659
0.97196 -0.227522 0.910666
0.971905 -0.229802 0.910673
0.971851 -0.232082 0.91068
0.971796 -0.234362 0.910687
0.970993 0.31432 0.908992
0.970939 0.312063 0.908999
0.971895 0.309865 0.908842
0.971841 0.307606 0.908849
0.971787 0.305347 0.908856
0.971733 0.303088 0.908863
0.971679 0.300829 0.90887
0.971625 0.29857 0.908877
0.971571 0.296311 0.908884
0.971517 0.294052 0.908891
0.971463 0.291793 0.908898
0.971409 0.289534 0.908905
0.971355 0.287275 0.908912
0.971301 0.285016 0.908919
0.971247 0.282757 0.908926
0.971193 0.280498 0.908933
0.971139 0.278239 0.90894
0.971085 0.27598 0.908947
0.971031 0.273721 0.908954
0.970977 0.271462 0.908961
0.970923 0.269203 0.908968
0.971878 0.266971 0.90881
0.971823 0.26471 0.908817
0.971769 0.262449 0.908824
0.972724 0.26021 0.908667
0.97267 0.257947 0.908674
0.972616 0.255685 0.908681
0.97357 0.253438 0.908524
0.973516 0.251173 0.908531
0.973462 0.248909 0.908538
0.975425 0.246666 0.908216
0.975371 0.244398 0.908223
0.975316 0.24213 0.90823
0.97627 0.239868 0.908073
0.976216 0.237598 0.90808
0.976162 0.235329 0.908087
0.976108 0.233059 0.908094
0.976053 0.23079 0.908101
0.975999 0.22852 0.908108
0.975945 0.226251 0.908115
0.976899 0.223974 0.907958
0.976844 0.221703 0.907965
0.97679 0.219432 0.907972
0.977744 0.217148 0.907815
0.977689 0.214875 0.907822
0.977635 0.212602 0.907829
0.978588 0.210311 0.907671
0.978534 0.208037 0.907679
0.977472 0.205783 0.90785
0.977417 0.20351 0.907857
0.977363 0.201237 0.907864
0.977309 0.198964 0.907871
0.977254 0.196691 0.907878
0.9772 0.194418 0.907885
0.977146 0.192145 0.907892
0.977091 0.189872 0.907899
0.977037 0.187599 0.907906
0.976983 0.185326 0.907913
0.976928 0.183053 0.90792
0.977881 0.180739 0.907763
0.977827 0.178465 0.90777
0.977772 0.17619 0.907777
0.977718 0.173915 0.907784
0.977664 0.17164 0.907791
0.977609 0.169365 0.907798
0.978562 0.16704 0.907641
0.978507 0.164763 0.907648
0.978453 0.162487 0.907655
0.979405 0.160154 0.907498
0.979351 0.157876 0.907505
0.979296 0.155597 0.907513
0.979242 0.153319 0.90752
0.979188 0.151041 0.907527
0.979133 0.148763 0.907534
0.979079 0.146484 0.907541
0.979024 0.144206 0.907548
0.97897 0.141928 0.907555
0.978915 0.139649 0.907562
0.978861 0.137371 0.907569
0.978806 0.135093 0.907576
0.978752 0.132815 0.907583
0.978697 0.130536 0.90759
0.978643 0.128258 0.907597
0.978588 0.12598 0.907604
0.978534 0.123701 0.907611
0.978479 0.121423 0.907618
0.978425 0.119145 0.907625
0.97837 0.116867 0.907633
0.978316 0.114588 0.90764
0.977255 0.112403 0.907811
0.977201 0.110126 0.907818
0.977147 0.10785 0.907825
0.976086 0.105672 0.907996
0.976032 0.103397 0.908003
0.975978 0.101122 0.90801
0.975923 0.0988473 0.908017
0.974863 0.0966778 0.908188
0.974809 0.0944048 0.908195
0.974754 0.0921317 0.908202
0.973694 0.0899693 0.908373
0.97364 0.087698 0.90838
0.973586 0.0854267 0.908387
0.973531 0.0831555 0.908394
0.973477 0.0808842 0.908401
0.973423 0.0786129 0.908408
0.973369 0.0763417 0.908415
0.973314 0.0740704 0.908422
0.97326 0.0717991 0.908429
0.973206 0.0695278 0.908436
0.973151 0.0672566 0.908443
0.973097 0.0649853 0.908451
0.973043 0.062714 0.908458
0.973993 0.0603094 0.908301
0.973939 0.0580364 0.908308
0.973885 0.0557634 0.908315
0.97383 0.0534903 0.908322
0.973776 0.0512173 0.908329
0.973722 0.0489443 0.908336
0.973667 0.0466713 0.908343
0.974618 0.0442526 0.908186
0.974563 0.0419779 0.908193
0.974509 0.0397031 0.9082
0.974455 0.0374283 0.908207
0.9744 0.0351535 0.908214
0.974346 0.0328788 0.908221
0.974291 0.030604 0.908228
0.974237 0.0283292 0.908236
0.974183 0.0260544 0.908243
0.974128 0.0237796 0.90825
0.974074 0.0215049 0.908257
0.974019 0.0192301 0.908264
0.973965 0.0169553 0.908271
0.973911 0.0146805 0.908278
0.973856 0.0124058 0.908285
0.973802 0.010131 0.908292
0.973747 0.0078562 0.908299
0.973693 0.00558141 0.908306
0.973639 0.00330663 0.908313
0.973584 0.00103186 0.90832
0.97353 -0.00124292 0.908327
0.973476 -0.00351769 0.908334
0.973421 -0.00579247 0.908341
0.973367 -0.00806725 0.908348
0.973312 -0.010342 0.908355
0.973258 -0.0126168 0.908362
0.973204 -0.0148916 0.908369
0.973149 -0.0171664 0.908377
0.973095 -0.0194411 0.908384
0.97304 -0.0217159 0.908391
0.972986 -0.0239907 0.908398
0.972932 -0.0262655 0.908405
0.972877 -0.0285402 0.908412
0.972823 -0.030815 0.908419
0.972768 -0.0330898 0.908426
0.972714 -0.0353646 0.908433
0.97266 -0.0376393 0.90844
0.972605 -0.0399141 0.908447
0.972551 -0.0421889 0.908454
0.972496 -0.0444637 0.908461
0.972442 -0.0467385 0.908468
0.973391 -0.0492308 0.908312
0.973336 -0.0515073 0.908319
0.973282 -0.0537838 0.908326
0.97423 -0.0562832 0.908169
0.974176 -0.0585614 0.908176
0.974121 -0.0608397 0.908183
0.974067 -0.063118 0.90819
0.974012 -0.0653963 0.908197
0.973958 -0.0676746 0.908205
0.973903 -0.0699529 0.908212
0.974851 -0.0724662 0.908055
0.974797 -0.0747463 0.908062
0.974742 -0.0770263 0.908069
0.974688 -0.0793063 0.908076
0.974633 -0.0815864 0.908083
0.974579 -0.0838664 0.90809
0.974524 -0.0861464 0.908098
0.97447 -0.0884265 0.908105
0.974415 -0.0907065 0.908112
0.974361 -0.0929866 0.908119
0.974306 -0.0952666 0.908126
0.974252 -0.0975466 0.908133
0.974197 -0.0998267 0.90814
0.974143 -0.102107 0.908147
0.974088 -0.104387 0.908154
0.974034 -0.106667 0.908161
0.973979 -0.108947 0.908168
0.973925 -0.111227 0.908175
0.97387 -0.113507 0.908182
0.973816 -0.115787 0.908189
0.973761 -0.118067 0.908196
0.973707 -0.120347 0.908204
0.973652 -0.122627 0.908211
0.973598 -0.124907 0.908218
0.972541 -0.12691 0.908388
0.972487 -0.129188 0.908395
0.972433 -0.131467 0.908402
0.971377 -0.133462 0.908573
0.971322 -0.135739 0.90858
0.971268 -0.138016 0.908587
0.970212 -0.140004 0.908757
0.970158 -0.142279 0.908764
0.970103 -0.144554 0.908771
0.970049 -0.146829 0.908778
0.969994 -0.149103 0.908785
0.96994 -0.151378 0.908793
0.969886 -0.153653 0.9088
0.969831 -0.155928 0.908807
0.969777 -0.158203 0.908814
0.969722 -0.160477 0.908821
0.969668 -0.162752 0.908828
0.969614 -0.165027 0.908835
0.969559 -0.167302 0.908842
0.969505 -0.169576 0.908849
0.969451 -0.171851 0.908856
0.969396 -0.174126 0.908863
0.969342 -0.176401 0.90887
0.969287 -0.178676 0.908877
0.969233 -0.18095 0.908884
0.969179 -0.183225 0.908891
0.970125 -0.185823 0.908735
0.97007 -0.188099 0.908742
0.970016 -0.190376 0.908749
0.970962 -0.19298 0.908593
0.970907 -0.195259 0.9086
0.970853 -0.197537 0.908607
0.970798 -0.199815 0.908614
0.970744 -0.202093 0.908621
0.970689 -0.204372 0.908628
0.970635 -0.20665 0.908635
0.97158 -0.209269 0.908479
0.971526 -0.211549 0.908486
0.971471 -0.213829 0.908493
0.971417 -0.216109 0.9085
0.971362 -0.218389 0.908507
0.971308 -0.220669 0.908514
0.971253 -0.222949 0.908522
0.971199 -0.225229 0.908529
0.971144 -0.227509 0.908536
0.97109 -0.229789 0.908543
0.971035 -0.232069 0.90855
0.970981 -0.234349 0.908557
0.970186 0.314333 0.906883
0.970132 0.312076 0.90689
0.971087 0.309878 0.906731
0.971033 0.307619 0.906738
0.970979 0.30536 0.906745
0.970925 0.303101 0.906752
0.970871 0.300842 0.906759
0.970817 0.298583 0.906766
0.970763 0.296324 0.906773
0.970709 0.294065 0.90678
0.970655 0.291806 0.906787
0.970601 0.289547 0.906794
0.970547 0.287288 0.906801
0.970493 0.285029 0.906808
0.970439 0.28277 0.906815
0.970385 0.280511 0.906822
0.970331 0.278252 0.906829
0.970277 0.275993 0.906836
0.970223 0.273734 0.906843
0.970169 0.271475 0.90685
0.970115 0.269216 0.906857
0.971069 0.266984 0.906698
0.971015 0.264723 0.906705
0.970961 0.262462 0.906712
0.971915 0.260222 0.906553
0.971861 0.25796 0.90656
0.971807 0.255697 0.906567
0.972761 0.253451 0.906408
0.972706 0.251186 0.906415
0.972652 0.248922 0.906422
0.974614 0.246679 0.906098
0.97456 0.244411 0.906105
0.974505 0.242143 0.906112
0.975459 0.239881 0.905953
0.975405 0.237611 0.90596
0.97535 0.235342 0.905967
0.975296 0.233072 0.905974
0.975242 0.230803 0.905981
0.975188 0.228533 0.905988
0.975133 0.226264 0.905995
0.976086 0.223987 0.905836
0.976032 0.221716 0.905843
0.975978 0.219444 0.90585
0.976931 0.217161 0.905691
0.976876 0.214888 0.905698
0.976822 0.212615 0.905705
0.977775 0.210324 0.905546
0.97772 0.208049 0.905554
0.977666 0.205775 0.905561
0.977612 0.2035 0.905568
0.977557 0.201225 0.905575
0.977503 0.19895 0.905582
0.977449 0.196676 0.905589
0.977394 0.194401 0.905596
0.97734 0.192126 0.905603
0.977285 0.189851 0.90561
0.977231 0.187576 0.905617
0.977177 0.185302 0.905624
0.977122 0.183027 0.905631
0.978074 0.180712 0.905472
0.97802 0.178435 0.905479
0.977965 0.176159 0.905486
0.977911 0.173882 0.905494
0.977857 0.171606 0.905501
0.977802 0.169329 0.905508
0.978754 0.167002 0.905349
0.9787 0.164723 0.905356
0.978645 0.162445 0.905363
0.979597 0.160111 0.905204
0.979542 0.157831 0.905211
0.979488 0.155551 0.905218
0.979433 0.153271 0.905226
0.979379 0.150991 0.905233
0.979324 0.14871 0.90524
0.97927 0.14643 0.905247
0.979215 0.14415 0.905254
0.979161 0.14187 0.905261
0.979106 0.13959 0.905268
0.979052 0.13731 0.905275
0.978997 0.13503 0.905282
0.978943 0.13275 0.905289
0.978888 0.13047 0.905296
0.978834 0.12819 0.905303
0.978779 0.12591 0.90531
0.978725 0.12363 0.905317
0.97867 0.12135 0.905324
0.97761 0.119158 0.905497
0.977556 0.116879 0.905504
0.977501 0.114601 0.905511
0.976441 0.112416 0.905684
0.976387 0.110139 0.905691
0.976332 0.107863 0.905698
0.975273 0.105684 0.905871
0.975218 0.10341 0.905878
0.975164 0.101135 0.905885
0.97511 0.0988602 0.905892
0.97405 0.0966906 0.906065
0.973996 0.0944176 0.906072
0.973941 0.0921446 0.906079
0.972882 0.0899821 0.906251
0.972828 0.0877108 0.906258
0.972774 0.0854396 0.906265
0.972719 0.0831683 0.906272
0.972665 0.080897 0.90628
0.972611 0.0786258 0.906287
0.972556 0.0763545 0.906294
0.972502 0.0740832 0.906301
0.972448 0.071812 0.906308
0.972393 0.0695407 0.906315
0.972339 0.0672694 0.906322
0.972285 0.0649981 0.906329
0.97223 0.0627269 0.906336
0.973181 0.0603223 0.906177
0.973126 0.0580493 0.906184
0.973072 0.0557762 0.906191
0.973018 0.0535032 0.906198
0.973967 0.0510898 0.90604
0.973913 0.048815 0.906047
0.973859 0.0465403 0.906054
0.974808 0.0441199 0.905896
0.974754 0.0418434 0.905903
0.974699 0.0395668 0.90591
0.974645 0.0372903 0.905917
0.974591 0.0350138 0.905924
0.974536 0.0327372 0.905931
0.975486 0.0303046 0.905773
0.975431 0.0280263 0.90578
0.975377 0.025748 0.905787
0.975322 0.0234697 0.905794
0.975268 0.0211914 0.905801
0.975213 0.0189131 0.905808
0.975159 0.0166349 0.905815
0.975104 0.0143566 0.905822
0.97505 0.0120783 0.905829
0.974995 0.0098 0.905836
0.974941 0.00752172 0.905843
0.974886 0.00524343 0.90585
0.974832 0.00296514 0.905857
0.974777 0.000686862 0.905864
0.974723 -0.00159143 0.905871
0.974668 -0.00386971 0.905879
0.974614 -0.006148 0.905886
0.974559 -0.00842627 0.905893
0.974505 -0.0107046 0.9059
0.974451 -0.0129828 0.905907
0.974396 -0.0152611 0.905914
0.974342 -0.0175394 0.905921
0.974287 -0.0198177 0.905928
0.974233 -0.022096 0.905935
0.974178 -0.0243743 0.905942
0.974124 -0.0266526 0.905949
0.974069 -0.0289308 0.905956
0.974015 -0.0312091 0.905963
0.97396 -0.0334874 0.90597
0.973906 -0.0357657 0.905977
0.973851 -0.038044 0.905984
0.973797 -0.0403223 0.905991
0.973742 -0.0426006 0.905999
0.973688 -0.0448788 0.906006
0.973633 -0.0471571 0.906013
0.974581 -0.0496529 0.905855
0.974527 -0.051933 0.905862
0.974472 -0.054213 0.905869
0.974418 -0.0564931 0.905876
0.974363 -0.0587731 0.905883
0.974309 -0.0610531 0.90589
0.974254 -0.0633332 0.905897
0.9742 -0.0656132 0.905904
0.974145 -0.0678932 0.905911
0.975093 -0.0704066 0.905753
0.975038 -0.0726884 0.90576
0.974983 -0.0749702 0.905767
0.974929 -0.077252 0.905774
0.974874 -0.0795338 0.905781
0.97482 -0.0818155 0.905788
0.974765 -0.0840973 0.905795
0.974711 -0.0863791 0.905802
0.974656 -0.0886609 0.905809
0.974602 -0.0909427 0.905817
0.974547 -0.0932245 0.905824
0.974492 -0.0955063 0.905831
0.974438 -0.0977881 0.905838
0.974383 -0.10007 0.905845
0.974329 -0.102352 0.905852
0.974274 -0.104633 0.905859
0.97422 -0.106915 0.905866
0.974165 -0.109197 0.905873
0.974111 -0.111479 0.90588
0.974056 -0.113761 0.905887
0.974001 -0.116042 0.905894
0.973947 -0.118324 0.905901
0.973892 -0.120606 0.905908
0.973838 -0.122888 0.905916
0.973783 -0.12517 0.905923
0.972728 -0.127174 0.906095
0.972673 -0.129454 0.906102
0.972619 -0.131734 0.906109
0.972564 -0.134014 0.906116
0.97251 -0.136294 0.906123
0.972455 -0.138574 0.90613
0.9714 -0.140567 0.906302
0.971345 -0.142845 0.906309
0.971291 -0.145123 0.906316
0.971236 -0.147402 0.906323
0.971182 -0.14968 0.90633
0.971127 -0.151958 0.906338
0.971073 -0.154237 0.906345
0.971019 -0.156515 0.906352
0.970964 -0.158793 0.906359
0.97091 -0.161071 0.906366
0.970855 -0.16335 0.906373
0.970801 -0.165628 0.90638
0.970746 -0.167906 0.906387
0.970692 -0.170185 0.906394
0.970637 -0.172463 0.906401
0.970583 -0.174741 0.906408
0.970528 -0.177019 0.906415
0.970474 -0.179298 0.906422
0.970419 -0.181576 0.906429
0.970365 -0.183854 0.906436
0.97031 -0.186133 0.906443
0.970256 -0.188411 0.90645
0.970201 -0.190689 0.906458
0.971147 -0.193295 0.9063
0.971092 -0.195575 0.906307
0.971038 -0.197855 0.906314
0.970983 -0.200136 0.906321
0.971928 -0.202751 0.906163
0.971874 -0.205032 0.90617
0.971819 -0.207314 0.906177
0.971764 -0.209596 0.906184
0.97171 -0.211878 0.906191
0.971655 -0.21416 0.906198
0.9726 -0.216787 0.906041
0.972546 -0.21907 0.906048
0.972491 -0.221354 0.906055
0.972436 -0.223638 0.906062
0.972382 -0.225921 0.906069
0.972327 -0.228205 0.906076
0.972273 -0.230488 0.906083
0.972218 -0.232772 0.90609
0.972163 -0.235055 0.906097
0.969379 0.314346 0.904775
0.969325 0.312089 0.904782
0.970279 0.309891 0.904621
0.970225 0.307632 0.904628
0.970171 0.305373 0.904635
0.970117 0.303114 0.904642
0.970063 0.300855 0.904649
0.970009 0.298596 0.904656
0.969955 0.296337 0.904663
0.969901 0.294078 0.90467
0.969847 0.291819 0.904677
0.969793 0.28956 0.904684
0.969739 0.287301 0.904691
0.969685 0.285042 0.904698
0.969631 0.282783 0.904705
0.969577 0.280524 0.904712
0.969523 0.278265 0.904719
0.969469 0.276006 0.904726
0.969415 0.273747 0.904733
0.969361 0.271488 0.90474
0.969307 0.269229 0.904747
0.970261 0.266996 0.904586
0.970206 0.264736 0.904593
0.970152 0.262475 0.9046
0.971106 0.260235 0.90444
0.971052 0.257973 0.904447
0.970998 0.25571 0.904454
0.971951 0.253463 0.904293
0.971897 0.251199 0.9043
0.971843 0.248935 0.904307
0.973803 0.246692 0.903979
0.973749 0.244424 0.903986
0.973694 0.242156 0.903993
0.974647 0.239894 0.903833
0.974593 0.237624 0.90384
0.974539 0.235354 0.903847
0.974484 0.233085 0.903854
0.97443 0.230815 0.903861
0.974376 0.228546 0.903868
0.974322 0.226276 0.903875
0.975274 0.224 0.903714
0.97522 0.221729 0.903721
0.975165 0.219457 0.903728
0.976118 0.217174 0.903568
0.976063 0.214901 0.903575
0.976009 0.212628 0.903582
0.976961 0.210337 0.903421
0.976907 0.208062 0.903429
0.976853 0.205788 0.903436
0.976798 0.203513 0.903443
0.976744 0.201238 0.90345
0.976689 0.198963 0.903457
0.976635 0.196688 0.903464
0.976581 0.194414 0.903471
0.976526 0.192139 0.903478
0.976472 0.189864 0.903485
0.976417 0.187589 0.903492
0.976363 0.185315 0.903499
0.976309 0.18304 0.903506
0.97726 0.180725 0.903346
0.977206 0.178448 0.903353
0.977151 0.176172 0.90336
0.977097 0.173895 0.903367
0.977042 0.171619 0.903374
0.976988 0.169342 0.903381
0.977939 0.167015 0.903221
0.977885 0.164736 0.903228
0.97783 0.162458 0.903235
0.978781 0.160124 0.903074
0.978727 0.157844 0.903082
0.978672 0.155563 0.903089
0.978618 0.153283 0.903096
0.978563 0.151003 0.903103
0.978509 0.148723 0.90311
0.978454 0.146443 0.903117
0.9784 0.144163 0.903124
0.978345 0.141883 0.903131
0.978291 0.139603 0.903138
0.978236 0.137323 0.903145
0.978182 0.135043 0.903152
0.978127 0.132763 0.903159
0.978073 0.130483 0.903166
0.978018 0.128203 0.903173
0.977964 0.125923 0.90318
0.977909 0.123643 0.903188
0.977855 0.121363 0.903195
0.976795 0.119171 0.903369
0.976741 0.116892 0.903376
0.976686 0.114614 0.903383
0.975627 0.112429 0.903557
0.975573 0.110152 0.903564
0.975518 0.107876 0.903571
0.974459 0.105697 0.903746
0.974405 0.103423 0.903753
0.974351 0.101148 0.90376
0.974296 0.098873 0.903767
0.973237 0.0967035 0.903941
0.973183 0.0944305 0.903948
0.973129 0.0921575 0.903955
0.97207 0.089995 0.90413
0.972016 0.0877237 0.904137
0.971961 0.0854524 0.904144
0.971907 0.0831812 0.904151
0.971853 0.0809099 0.904158
0.971798 0.0786386 0.904165
0.971744 0.0763673 0.904172
0.97169 0.0740961 0.904179
0.971635 0.0718248 0.904186
0.971581 0.0695535 0.904193
0.971527 0.0672823 0.9042
0.971473 0.065011 0.904207
0.971418 0.0627397 0.904214
0.972368 0.0603351 0.904054
0.972313 0.0580621 0.904061
0.972259 0.0557891 0.904068
0.972205 0.0535161 0.904075
0.973154 0.0511027 0.903915
0.9731 0.0488279 0.903922
0.973045 0.0465531 0.903929
0.973994 0.0441328 0.903769
0.97394 0.0418562 0.903776
0.973885 0.0395797 0.903783
0.973831 0.0373032 0.90379
0.973776 0.0350266 0.903797
0.973722 0.0327501 0.903804
0.974671 0.0303174 0.903644
0.974616 0.0280392 0.903651
0.974562 0.0257609 0.903658
0.974507 0.0234826 0.903665
0.974453 0.0212043 0.903673
0.974398 0.018926 0.90368
0.974344 0.0166477 0.903687
0.974289 0.0143695 0.903694
0.974235 0.0120912 0.903701
0.974181 0.00981288 0.903708
0.974126 0.00753461 0.903715
0.974072 0.00525632 0.903722
0.974017 0.00297802 0.903729
0.973963 0.000699747 0.903736
0.973908 -0.00157854 0.903743
0.973854 -0.00385682 0.90375
0.973799 -0.00613511 0.903757
0.973745 -0.00841339 0.903764
0.97369 -0.0106917 0.903771
0.973636 -0.01297 0.903778
0.973581 -0.0152483 0.903786
0.973527 -0.0175265 0.903793
0.973472 -0.0198048 0.9038
0.973418 -0.0220831 0.903807
0.973363 -0.0243614 0.903814
0.973309 -0.0266397 0.903821
0.973254 -0.028918 0.903828
0.9732 -0.0311962 0.903835
0.973145 -0.0334745 0.903842
0.973091 -0.0357528 0.903849
0.973037 -0.0380311 0.903856
0.972982 -0.0403094 0.903863
0.972928 -0.0425877 0.90387
0.972873 -0.044866 0.903877
0.972819 -0.0471442 0.903884
0.973766 -0.04964 0.903725
0.973711 -0.0519201 0.903732
0.973657 -0.0542001 0.903739
0.973602 -0.0564802 0.903746
0.973548 -0.0587602 0.903753
0.973493 -0.0610402 0.90376
0.973439 -0.0633203 0.903767
0.973384 -0.0656003 0.903774
0.97333 -0.0678804 0.903781
0.974277 -0.0703937 0.903621
0.974222 -0.0726755 0.903628
0.974167 -0.0749573 0.903635
0.974113 -0.0772391 0.903643
0.974058 -0.0795209 0.90365
0.974004 -0.0818026 0.903657
0.973949 -0.0840844 0.903664
0.973895 -0.0863662 0.903671
0.97384 -0.088648 0.903678
0.973786 -0.0909298 0.903685
0.973731 -0.0932116 0.903692
0.973676 -0.0954934 0.903699
0.973622 -0.0977752 0.903706
0.973567 -0.100057 0.903713
0.973513 -0.102339 0.90372
0.973458 -0.104621 0.903727
0.973404 -0.106902 0.903734
0.973349 -0.109184 0.903742
0.973295 -0.111466 0.903749
0.97324 -0.113748 0.903756
0.973185 -0.11603 0.903763
0.973131 -0.118311 0.90377
0.973076 -0.120593 0.903777
0.973022 -0.122875 0.903784
0.972967 -0.125157 0.903791
0.971912 -0.127161 0.903965
0.971858 -0.129441 0.903972
0.971803 -0.131721 0.903979
0.971749 -0.134001 0.903986
0.971694 -0.136282 0.903993
0.97164 -0.138562 0.904
0.970585 -0.140554 0.904174
0.970531 -0.142832 0.904181
0.970476 -0.145111 0.904188
0.970422 -0.147389 0.904195
0.970367 -0.149667 0.904202
0.970313 -0.151945 0.904209
0.970258 -0.154224 0.904216
0.970204 -0.156502 0.904223
0.970149 -0.15878 0.90423
0.970095 -0.161059 0.904237
0.97004 -0.163337 0.904245
0.969986 -0.165615 0.904252
0.969931 -0.167893 0.904259
0.969877 -0.170172 0.904266
0.969822 -0.17245 0.904273
0.969768 -0.174728 0.90428
0.969714 -0.177006 0.904287
0.969659 -0.179285 0.904294
0.969605 -0.181563 0.904301
0.96955 -0.183841 0.904308
0.969496 -0.18612 0.904315
0.969441 -0.188398 0.904322
0.969387 -0.190676 0.904329
0.970331 -0.193283 0.90417
0.970277 -0.195563 0.904177
0.970222 -0.197843 0.904184
0.970168 -0.200123 0.904191
0.971112 -0.202738 0.904032
0.971058 -0.205019 0.904039
0.971003 -0.207301 0.904046
0.970948 -0.209583 0.904053
0.970894 -0.211865 0.90406
0.970839 -0.214147 0.904067
0.971784 -0.216774 0.903907
0.971729 -0.219058 0.903915
0.971674 -0.221341 0.903922
0.97162 -0.223625 0.903929
0.971565 -0.225908 0.903936
0.97151 -0.228192 0.903943
0.971456 -0.230475 0.90395
0.971401 -0.232759 0.903957
0.971347 -0.235042 0.903964
0.969579 0.314422 0.902497
0.969525 0.312163 0.902504
0.969471 0.309904 0.902511
0.969417 0.307645 0.902518
0.969363 0.305386 0.902525
0.969309 0.303127 0.902532
0.969255 0.300868 0.902539
0.969201 0.298609 0.902546
0.969147 0.29635 0.902553
0.969093 0.294091 0.90256
0.969039 0.291832 0.902567
0.968985 0.289573 0.902574
0.968931 0.287314 0.902581
0.968877 0.285055 0.902588
0.968823 0.282796 0.902595
0.968769 0.280537 0.902602
0.968715 0.278278 0.902609
0.968661 0.276019 0.902616
0.968607 0.27376 0.902623
0.968553 0.271501 0.90263
0.968499 0.269242 0.902637
0.969452 0.267009 0.902474
0.969398 0.264748 0.902481
0.969344 0.262488 0.902488
0.970297 0.260248 0.902326
0.970243 0.257985 0.902333
0.970188 0.255723 0.90234
0.971141 0.253476 0.902178
0.971087 0.251212 0.902185
0.971033 0.248948 0.902192
0.972992 0.246704 0.901861
0.972938 0.244437 0.901868
0.972883 0.242169 0.901875
0.973836 0.239906 0.901712
0.973781 0.237637 0.901719
0.973727 0.235367 0.901727
0.973673 0.233098 0.901734
0.973619 0.230828 0.901741
0.973564 0.228559 0.901748
0.97351 0.226289 0.901755
0.974462 0.224013 0.901593
0.974408 0.221741 0.9016
0.974353 0.21947 0.901607
0.975305 0.217187 0.901444
0.975251 0.214914 0.901452
0.975196 0.212641 0.901459
0.976148 0.21035 0.901296
0.976093 0.208075 0.901303
0.976039 0.2058 0.901311
0.975985 0.203526 0.901318
0.97593 0.201251 0.901325
0.975876 0.198976 0.901332
0.975822 0.196701 0.901339
0.975767 0.194427 0.901346
0.975713 0.192152 0.901353
0.975658 0.189877 0.90136
0.975604 0.187602 0.901367
0.97555 0.185327 0.901374
0.975495 0.183053 0.901381
0.976446 0.180738 0.901219
0.976392 0.178461 0.901226
0.976337 0.176184 0.901233
0.976283 0.173908 0.90124
0.976228 0.171631 0.901247
0.976174 0.169355 0.901254
0.977125 0.167027 0.901092
0.97707 0.164749 0.901099
0.977016 0.162471 0.901106
0.977966 0.160136 0.900945
0.977912 0.157856 0.900952
0.977857 0.155576 0.900959
0.977803 0.153296 0.900966
0.977748 0.151016 0.900973
0.977694 0.148736 0.90098
0.977639 0.146456 0.900987
0.977584 0.144176 0.900994
0.97753 0.141896 0.901001
0.977475 0.139616 0.901008
0.977421 0.137336 0.901015
0.977366 0.135056 0.901022
0.977312 0.132776 0.901029
0.977257 0.130496 0.901036
0.977203 0.128216 0.901043
0.977148 0.125936 0.901051
0.977094 0.123656 0.901058
0.977039 0.121376 0.901065
0.975981 0.119183 0.901241
0.975926 0.116905 0.901248
0.975872 0.114627 0.901255
0.974813 0.112442 0.901431
0.974759 0.110165 0.901438
0.974704 0.107889 0.901445
0.973646 0.10571 0.901621
0.973591 0.103435 0.901628
0.973537 0.101161 0.901635
0.973483 0.0988859 0.901642
0.972424 0.0967164 0.901818
0.97237 0.0944433 0.901825
0.972316 0.0921703 0.901832
0.971258 0.0900078 0.902008
0.971203 0.0877365 0.902015
0.971149 0.0854653 0.902022
0.971095 0.083194 0.902029
0.97104 0.0809227 0.902036
0.970986 0.0786515 0.902043
0.970932 0.0763802 0.90205
0.970878 0.0741089 0.902057
0.970823 0.0718376 0.902064
0.970769 0.0695664 0.902071
0.970715 0.0672951 0.902078
0.97066 0.0650238 0.902085
0.970606 0.0627526 0.902092
0.971555 0.060348 0.901931
0.9715 0.058075 0.901938
0.971446 0.0558019 0.901945
0.971392 0.0535289 0.901952
0.97234 0.0511156 0.90179
0.972286 0.0488408 0.901797
0.972232 0.046566 0.901804
0.97318 0.0441456 0.901642
0.973126 0.0418691 0.901649
0.973071 0.0395926 0.901657
0.973017 0.037316 0.901664
0.972962 0.0350395 0.901671
0.972908 0.032763 0.901678
0.973856 0.0303303 0.901516
0.973802 0.0280521 0.901523
0.973747 0.0257738 0.90153
0.973693 0.0234955 0.901537
0.973638 0.0212172 0.901544
0.973584 0.0189389 0.901551
0.973529 0.0166606 0.901558
0.973475 0.0143823 0.901565
0.97342 0.0121041 0.901572
0.973366 0.00982577 0.90158
0.973311 0.00754749 0.901587
0.973257 0.0052692 0.901594
0.973202 0.00299091 0.901601
0.973148 0.000712632 0.901608
0.973093 -0.00156566 0.901615
0.973039 -0.00384394 0.901622
0.972984 -0.00612223 0.901629
0.97293 -0.00840051 0.901636
0.972875 -0.0106788 0.901643
0.972821 -0.0129571 0.90165
0.972767 -0.0152354 0.901657
0.972712 -0.0175137 0.901664
0.972658 -0.0197919 0.901671
0.972603 -0.0220702 0.901678
0.972549 -0.0243485 0.901685
0.972494 -0.0266268 0.901693
0.97244 -0.0289051 0.9017
0.972385 -0.0311834 0.901707
0.972331 -0.0334617 0.901714
0.972276 -0.0357399 0.901721
0.972222 -0.0380182 0.901728
0.972167 -0.0402965 0.901735
0.972113 -0.0425748 0.901742
0.972058 -0.0448531 0.901749
0.972004 -0.0471314 0.901756
0.97295 -0.0496272 0.901595
0.972896 -0.0519072 0.901602
0.972841 -0.0541872 0.901609
0.972787 -0.0564673 0.901616
0.972732 -0.0587473 0.901623
0.972678 -0.0610273 0.90163
0.972623 -0.0633074 0.901637
0.972569 -0.0655874 0.901644
0.972514 -0.0678675 0.901651
0.973461 -0.0703808 0.90149
0.973406 -0.0726626 0.901497
0.973351 -0.0749444 0.901504
0.973297 -0.0772261 0.901511
0.973242 -0.079508 0.901518
0.973188 -0.0817897 0.901525
0.973133 -0.0840715 0.901532
0.973079 -0.0863533 0.901539
0.973024 -0.0886351 0.901546
0.97297 -0.0909169 0.901553
0.972915 -0.0931987 0.90156
0.97286 -0.0954805 0.901568
0.972806 -0.0977623 0.901575
0.972751 -0.100044 0.901582
0.972697 -0.102326 0.901589
0.972642 -0.104608 0.901596
0.972588 -0.106889 0.901603
0.972533 -0.109171 0.90161
0.972479 -0.111453 0.901617
0.972424 -0.113735 0.901624
0.972369 -0.116017 0.901631
0.972315 -0.118298 0.901638
0.97226 -0.12058 0.901645
0.972206 -0.122862 0.901652
0.972151 -0.125144 0.90166
0.971097 -0.127148 0.901835
0.971042 -0.129429 0.901842
0.970988 -0.131709 0.901849
0.970933 -0.133989 0.901856
0.970879 -0.136269 0.901863
0.970824 -0.138549 0.90187
0.96977 -0.140541 0.902046
0.969716 -0.142819 0.902053
0.969661 -0.145098 0.90206
0.969607 -0.147376 0.902067
0.969552 -0.149654 0.902074
0.969498 -0.151932 0.902081
0.969444 -0.154211 0.902088
0.969389 -0.156489 0.902095
0.969335 -0.158767 0.902102
0.96928 -0.161046 0.902109
0.969226 -0.163324 0.902116
0.969171 -0.165602 0.902123
0.969117 -0.16788 0.90213
0.969062 -0.170159 0.902137
0.969008 -0.172437 0.902144
0.968953 -0.174715 0.902152
0.968899 -0.176994 0.902159
0.968844 -0.179272 0.902166
0.96879 -0.18155 0.902173
0.968735 -0.183828 0.90218
0.968681 -0.186107 0.902187
0.968626 -0.188385 0.902194
0.968572 -0.190663 0.902201
0.969516 -0.19327 0.90204
0.969461 -0.19555 0.902047
0.969407 -0.19783 0.902054
0.969352 -0.20011 0.902061
0.970296 -0.202725 0.9019
0.970242 -0.205007 0.901907
0.970187 -0.207288 0.901914
0.970132 -0.20957 0.901921
0.970078 -0.211852 0.901928
0.970023 -0.214134 0.901935
0.970967 -0.216761 0.901774
0.970912 -0.219045 0.901781
0.970858 -0.221328 0.901788
0.970803 -0.223612 0.901795
0.970748 -0.225895 0.901803
0.970694 -0.228179 0.90181
0.970639 -0.230462 0.901817
0.970585 -0.232746 0.901824
0.97053 -0.235029 0.901831
0.968772 0.314434 0.900386
0.968718 0.312175 0.900393
0.969671 0.309976 0.900229
0.969617 0.307715 0.900236
0.969563 0.305455 0.900243
0.969508 0.303194 0.90025
0.969454 0.300933 0.900257
0.9694 0.298672 0.900264
0.969346 0.296412 0.900271
0.969292 0.294151 0.900278
0.969238 0.29189 0.900285
0.969184 0.289629 0.900292
0.96913 0.287369 0.900299
0.969076 0.285108 0.900307
0.969022 0.282847 0.900314
