ply
format ascii 1.0
comment Created by Open3D
element vertex 779
property double x
property double y
property double z
property double nx
property double ny
property double nz
property uchar red
property uchar green
property uchar blue
end_header
0.876433 -0.220295 1.0084 0.505857 -0.421867 -0.0718558 0 0 0
0.874662 -0.214616 1.00213 0.726965 -0.482576 -0.0792634 0 0 0
0.876266 -0.218093 1.00789 0.523591 -0.426736 -0.0724499 0 0 0
0.874241 -0.212848 1.00066 0.778748 -0.496794 -0.0809983 0 0 0
0.875755 -0.217126 1.00605 0.58866 -0.444602 -0.0746299 0 0 0
0.875901 -0.214076 1.00675 0.563936 -0.437813 -0.0738016 0 0 0
0.875334 -0.215609 1.00457 0.640946 -0.458958 -0.0763816 0 0 0
0.873852 -0.220357 0.999107 0.833635 -0.511864 -0.0828371 0 0 0
0.87465 -0.216809 1.00203 0.730638 -0.483584 -0.0793865 0 0 0
0.874553 -0.220114 1.00162 0.744921 -0.487506 -0.079865 0 0 0
0.87595 -0.221386 1.00661 0.569023 -0.43921 -0.073972 0 0 0
0.874034 -0.215115 0.999847 0.807509 -0.504691 -0.0819618 0 0 0
0.874145 -0.218247 1.00019 0.795288 -0.501335 -0.0815524 0 0 0
0.875645 -0.219134 1.00555 0.606213 -0.449421 -0.0752179 0 0 0
0.875203 -0.220443 1.00395 0.662888 -0.464982 -0.0771167 0 0 0
0.875542 -0.205245 1.00513 0.460635 -0.407298 -0.0628847 0 0 0
0.875957 -0.203396 1.00647 0.44849 -0.403368 -0.0604147 0 0 0
0.87631 -0.208217 1.0081 0.48015 -0.413613 -0.0668535 0 0 0
0.874322 -0.209021 1.00083 0.702288 -0.474864 -0.0751927 0 0 0
0.875283 -0.211093 1.00452 0.622334 -0.453578 -0.074826 0 0 0
0.874963 -0.207969 1.00315 0.595227 -0.44513 -0.0704328 0 0 0
0.875489 -0.208944 1.00515 0.547982 -0.432472 -0.0699375 0 0 0
0.874917 -0.205183 1.00281 0.539686 -0.428983 -0.065464 0 0 0
0.875185 -0.203133 1.00368 0.45926 -0.40624 -0.0604826 0 0 0
0.874478 -0.206787 1.00125 0.629856 -0.454257 -0.0702743 0 0 0
0.874169 -0.205749 0.999029 0.804693 -0.532198 -0.0447339 0 0 0
0.873862 -0.210652 0.999137 0.804613 -0.505286 -0.078641 0 0 0
0.874437 -0.20265 0.999427 0.755341 -0.528794 -0.0284901 0 0 0
0.874595 -0.204162 1.00104 0.587228 -0.45103 -0.0566051 0 0 0
0.910495 -0.147031 1.00903 0.833643 -0.515238 -0.198293 0 0 0
0.91181 -0.144942 1.01058 0.839231 -0.509425 -0.189778 0 0 0
0.91204 -0.143681 1.00871 0.83753 -0.508794 -0.198891 0 0 0
0.914241 -0.140036 1.009 0.845321 -0.499305 -0.185522 0 0 0
0.916418 -0.137137 1.01066 0.886794 -0.403281 -0.224371 0 0 0
0.917293 -0.133878 1.00883 0.887693 -0.423217 -0.178678 0 0 0
0.918353 -0.130615 1.00886 0.899183 -0.396795 -0.176909 0 0 0
0.920082 -0.128569 1.0101 0.85805 -0.479627 -0.170383 0 0 0
0.921705 -0.125588 1.00917 0.850228 -0.499305 -0.157545 0 0 0
0.967996 -0.0446821 1.01165 0.911243 -0.410584 -0.0124853 0 0 0
0.967954 -0.0446199 1.00954 0.907842 -0.418165 -0.010074 0 0 0
0.966654 -0.0474555 1.01261 0.907919 -0.417134 -0.0120983 0 0 0
0.970914 -0.0387616 1.00866 0.911582 -0.410737 -0.0106413 0 0 0
0.970116 -0.0403164 1.01049 0.911375 -0.410643 -0.0117714 0 0 0
0.969129 -0.0424107 1.01233 0.911166 -0.410549 -0.0129054 0 0 0
0.969266 -0.0419657 1.00958 0.911478 -0.41069 -0.011211 0 0 0
0.970653 -0.0392932 1.01244 0.911153 -0.410543 -0.0129734 0 0 0
0.972978 -0.0345263 1.01195 0.911061 -0.410501 -0.0134781 0 0 0
0.973156 -0.0343271 1.00962 0.911061 -0.410501 -0.0134781 0 0 0
0.971669 -0.0372492 1.01285 0.911061 -0.410501 -0.0134781 0 0 0
0.971573 -0.0374523 1.01059 0.911061 -0.410501 -0.0134781 0 0 0
0.975038 -0.0303837 1.01009 0.911061 -0.410501 -0.0134781 0 0 0
0.974491 -0.0313398 1.0121 0.911061 -0.410501 -0.0134781 0 0 0
0.973951 -0.032634 1.01061 0.911061 -0.410501 -0.0134781 0 0 0
0.976109 -0.0281215 1.01043 0.909115 -0.36582 -0.132484 0 0 0
0.97766 -0.0239496 1.01276 0.908351 -0.348269 -0.179228 0 0 0
0.976938 -0.0265124 1.00844 0.908351 -0.348269 -0.179228 0 0 0
0.977141 -0.0256195 1.01052 0.908351 -0.348269 -0.179228 0 0 0
0.978484 -0.0217942 1.01307 0.908351 -0.348269 -0.179228 0 0 0
0.978968 -0.0209675 1.01057 0.908351 -0.348269 -0.179228 0 0 0
0.978532 -0.0225045 1.00895 0.908351 -0.348269 -0.179228 0 0 0
0.977956 -0.0236372 1.01077 0.908351 -0.348269 -0.179228 0 0 0
0.968426 -0.0439754 1.01402 0.911061 -0.410501 -0.0134781 0 0 0
0.968342 -0.0443332 1.01643 0.911061 -0.410501 -0.0134781 0 0 0
0.967131 -0.0467522 1.0151 0.911061 -0.410501 -0.0134781 0 0 0
0.967161 -0.0469001 1.01758 0.911061 -0.410501 -0.0134781 0 0 0
0.970953 -0.0387509 1.01451 0.911061 -0.410501 -0.0134781 0 0 0
0.971078 -0.0385408 1.01697 0.911061 -0.410501 -0.0134781 0 0 0
0.969283 -0.0422084 1.01468 0.911061 -0.410501 -0.0134781 0 0 0
0.969551 -0.0418058 1.01695 0.911061 -0.410501 -0.0134781 0 0 0
0.972735 -0.0349109 1.01419 0.911061 -0.410501 -0.0134781 0 0 0
0.971968 -0.0364573 1.0179 0.911061 -0.410501 -0.0134781 0 0 0
0.971715 -0.0370626 1.01559 0.911061 -0.410501 -0.0134781 0 0 0
0.973894 -0.0324357 1.01418 0.911061 -0.410501 -0.0134781 0 0 0
0.975096 -0.0298379 1.01387 0.911061 -0.410501 -0.0134781 0 0 0
0.973357 -0.0333555 1.01622 0.911061 -0.410501 -0.0134781 0 0 0
0.975026 -0.0295019 1.01724 0.911061 -0.410501 -0.0134781 0 0 0
0.976038 -0.0277338 1.01361 0.909351 -0.37125 -0.11802 0 0 0
0.976802 -0.0258109 1.01386 0.908351 -0.348269 -0.179228 0 0 0
0.976284 -0.0267435 1.01578 0.908351 -0.348269 -0.179228 0 0 0
0.976665 -0.0254735 1.01735 0.908351 -0.348269 -0.179228 0 0 0
0.979568 -0.0189786 1.0134 0.908351 -0.348269 -0.179228 0 0 0
0.978258 -0.0218568 1.01521 0.908351 -0.348269 -0.179228 0 0 0
0.977551 -0.0233209 1.01687 0.908351 -0.348269 -0.179228 0 0 0
0.877289 -0.212049 1.01096 0.504529 -0.421502 -0.0718113 0 0 0
0.87803 -0.212261 1.01291 0.504529 -0.421502 -0.0718113 0 0 0
0.87774 -0.21636 1.01199 0.504529 -0.421502 -0.0718113 0 0 0
0.879097 -0.213129 1.01568 0.504529 -0.421502 -0.0718113 0 0 0
0.876386 -0.215369 1.00847 0.504529 -0.421502 -0.0718113 0 0 0
0.878097 -0.21434 1.01301 0.504529 -0.421502 -0.0718113 0 0 0
0.877159 -0.214558 1.01053 0.504529 -0.421502 -0.0718113 0 0 0
0.877109 -0.21884 1.01024 0.504529 -0.421502 -0.0718113 0 0 0
0.879593 -0.219602 1.01702 0.504529 -0.421502 -0.0718113 0 0 0
0.877887 -0.218834 1.01234 0.504529 -0.421502 -0.0718113 0 0 0
0.877857 -0.221442 1.01227 0.504529 -0.421502 -0.0718113 0 0 0
0.878646 -0.220746 1.01443 0.504529 -0.421502 -0.0718113 0 0 0
0.878763 -0.215525 1.01474 0.504529 -0.421502 -0.0718113 0 0 0
0.879287 -0.21714 1.01618 0.504529 -0.421502 -0.0718113 0 0 0
0.879991 -0.216489 1.01802 0.504529 -0.421502 -0.0718113 0 0 0
0.879816 -0.214208 1.01761 0.504529 -0.421502 -0.0718113 0 0 0
0.877452 -0.204774 1.01086 0.457544 -0.406298 -0.0622559 0 0 0
0.876554 -0.204123 1.00859 0.45327 -0.404915 -0.0613867 0 0 0
0.877292 -0.20255 1.01034 0.442938 -0.401571 -0.0592855 0 0 0
0.876915 -0.206657 1.00962 0.46991 -0.410299 -0.0647708 0 0 0
0.879608 -0.211215 1.01701 0.499838 -0.419984 -0.0708574 0 0 0
0.878416 -0.208367 1.01364 0.48114 -0.413934 -0.0670548 0 0 0
0.878429 -0.210368 1.01384 0.494278 -0.418185 -0.0697266 0 0 0
0.878086 -0.205823 1.01255 0.46443 -0.408526 -0.0636564 0 0 0
0.877229 -0.209238 1.01059 0.486858 -0.415784 -0.0682176 0 0 0
0.878533 -0.202929 1.01348 0.445427 -0.402377 -0.0597916 0 0 0
0.879114 -0.20598 1.0152 0.465463 -0.40886 -0.0638665 0 0 0
0.879375 -0.20884 1.01618 0.484241 -0.414937 -0.0676854 0 0 0
0.880369 -0.203083 1.01736 0.446438 -0.402704 -0.0599972 0 0 0
0.880008 -0.206526 1.01719 0.469049 -0.410021 -0.0645957 0 0 0
0.881794 -0.199511 1.01877 0.45018 -0.403915 -0.0607584 0 0 0
0.882928 -0.198023 1.02029 0.470063 -0.410349 -0.0648019 0 0 0
0.882756 -0.200183 1.0209 0.478092 -0.412947 -0.0664349 0 0 0
0.881361 -0.202046 1.01905 0.453832 -0.405096 -0.061501 0 0 0
0.884268 -0.196453 1.02203 0.497049 -0.419082 -0.0702902 0 0 0
0.883615 -0.194934 1.01978 0.481569 -0.414072 -0.067142 0 0 0
0.883519 -0.193418 1.0185 0.0843783 -0.030461 -0.0253942 0 0 0
0.884991 -0.19463 1.02232 0.504529 -0.421502 -0.0718113 0 0 0
0.885997 -0.187959 1.01961 0.06471 -0.00538814 -0.0242568 0 0 0
0.885386 -0.190133 1.01979 0.173553 -0.108365 -0.0360252 0 0 0
0.884846 -0.192521 1.02064 0.504529 -0.421502 -0.0718113 0 0 0
0.886445 -0.189991 1.02193 0.504529 -0.421502 -0.0718113 0 0 0
0.885703 -0.192589 1.02249 0.504529 -0.421502 -0.0718113 0 0 0
0.887698 -0.183584 1.01871 -0.0243919 0.0789115 -0.0146228 0 0 0
0.888662 -0.185082 1.02192 0.372045 -0.296159 -0.0574868 0 0 0
0.887142 -0.187757 1.02167 0.339518 -0.265385 -0.0539699 0 0 0
0.892289 -0.178461 1.02096 0.808015 -0.571383 -0.107651 0 0 0
0.891046 -0.179529 1.01955 0.810883 -0.573607 -0.0920111 0 0 0
0.889827 -0.181253 1.01946 0.711285 -0.52459 -0.0768765 0 0 0
0.889583 -0.182735 1.02162 0.521349 -0.429778 -0.0744083 0 0 0
0.891202 -0.180792 1.0223 0.640177 -0.487988 -0.0978267 0 0 0
0.893201 -0.175565 1.01819 0.80238 -0.585522 -0.0957187 0 0 0
0.893504 -0.176134 1.02007 0.803048 -0.57865 -0.109108 0 0 0
0.89219 -0.177455 1.01895 0.802651 -0.582733 -0.101153 0 0 0
0.894552 -0.175879 1.02229 0.803834 -0.570568 -0.124855 0 0 0
0.897963 -0.1697 1.01883 0.785515 -0.600531 -0.108202 0 0 0
0.896713 -0.172796 1.02218 0.798859 -0.577338 -0.123356 0 0 0
0.897724 -0.170952 1.02119 0.791718 -0.589749 -0.115247 0 0 0
0.89585 -0.17304 1.0201 0.798564 -0.584376 -0.108588 0 0 0
0.899378 -0.168903 1.02193 0.804053 -0.568309 -0.129256 0 0 0
0.902611 -0.163693 1.02028 0.813663 -0.551195 -0.155996 0 0 0
0.901015 -0.165851 1.01954 0.816373 -0.546368 -0.163538 0 0 0
0.902324 -0.164675 1.02221 0.806625 -0.563728 -0.136413 0 0 0
0.899578 -0.167803 1.01954 0.809155 -0.559222 -0.143454 0 0 0
0.903381 -0.162061 1.01926 0.827369 -0.522744 -0.184848 0 0 0
0.90351 -0.162807 1.02211 0.806989 -0.563081 -0.137425 0 0 0
0.905367 -0.159461 1.02124 0.816487 -0.5436 -0.157959 0 0 0
0.904724 -0.161068 1.02287 0.804319 -0.56778 -0.12987 0 0 0
0.904541 -0.160022 1.01891 0.833802 -0.509191 -0.197929 0 0 0
0.90821 -0.15505 1.02227 0.82661 -0.534485 -0.161074 0 0 0
0.90647 -0.157545 1.02101 0.823284 -0.53377 -0.166879 0 0 0
0.906752 -0.156368 1.01897 0.83797 -0.504251 -0.201398 0 0 0
0.908216 -0.153973 1.0191 0.837617 -0.505989 -0.198618 0 0 0
0.990366 0.0899812 1.02602 0.976076 0.0102357 -0.206247 0 0 0
0.990406 0.0966097 1.02252 0.976076 0.0102357 -0.206247 0 0 0
0.990412 0.0943597 1.0267 0.976076 0.0102357 -0.206247 0 0 0
0.990369 0.0929777 1.02215 0.976076 0.0102357 -0.206247 0 0 0
0.99037 0.0916491 1.0242 0.976076 0.0102357 -0.206247 0 0 0
0.990385 0.0964895 1.01962 0.976076 0.0102357 -0.206247 0 0 0
0.990415 0.0960782 1.02471 0.976076 0.0102357 -0.206247 0 0 0
0.99036 0.0919858 1.01992 0.977844 -0.00695242 -0.185991 0 0 0
0.990354 0.0901506 1.0214 0.978053 -0.0089763 -0.183606 0 0 0
0.99035 0.0886797 1.02316 0.977883 -0.00733176 -0.185544 0 0 0
0.990344 0.0884755 1.02037 0.979612 -0.0241318 -0.165746 0 0 0
0.990447 0.100611 1.02584 0.976076 0.0102357 -0.206247 0 0 0
0.990432 0.101481 1.02368 0.976076 0.0102357 -0.206247 0 0 0
0.990464 0.103314 1.02596 0.976076 0.0102357 -0.206247 0 0 0
0.990421 0.105634 1.01988 0.976076 0.0102357 -0.206247 0 0 0
0.990464 0.105491 1.02463 0.976076 0.0102357 -0.206247 0 0 0
0.990445 0.103678 1.02371 0.976076 0.0102357 -0.206247 0 0 0
0.990415 0.103328 1.02046 0.976076 0.0102357 -0.206247 0 0 0
0.990401 0.101211 1.01932 0.976076 0.0102357 -0.206247 0 0 0
0.990403 0.0981934 1.02103 0.976076 0.0102357 -0.206247 0 0 0
0.990437 0.0984092 1.0261 0.976076 0.0102357 -0.206247 0 0 0
0.990412 0.100723 1.02125 0.976076 0.0102357 -0.206247 0 0 0
0.990418 0.0986496 1.02314 0.976076 0.0102357 -0.206247 0 0 0
0.990414 0.112904 1.0197 0.976076 0.0102357 -0.206247 0 0 0
0.990433 0.113804 1.0218 0.976076 0.0102357 -0.206247 0 0 0
0.990442 0.111265 1.02224 0.976076 0.0102357 -0.206247 0 0 0
0.990432 0.109614 1.02085 0.976076 0.0102357 -0.206247 0 0 0
0.990408 0.109896 1.01855 0.976076 0.0102357 -0.206247 0 0 0
0.990464 0.11439 1.02495 0.976076 0.0102357 -0.206247 0 0 0
0.990464 0.110032 1.02433 0.976076 0.0102357 -0.206247 0 0 0
0.990422 0.107733 1.01954 0.976076 0.0102357 -0.206247 0 0 0
0.990467 0.112271 1.0249 0.976076 0.0102357 -0.206247 0 0 0
0.990491 0.112543 1.02755 0.976076 0.0102357 -0.206247 0 0 0
0.990444 0.107055 1.02189 0.976076 0.0102357 -0.206247 0 0 0
0.990482 0.115017 1.02689 0.976076 0.0102357 -0.206247 0 0 0
0.99048 0.108182 1.02588 0.976076 0.0102357 -0.206247 0 0 0
0.990495 0.110385 1.0277 0.976076 0.0102357 -0.206247 0 0 0
0.990402 0.125131 1.02497 0.976076 0.0102357 -0.206247 0 0 0
0.990389 0.123381 1.02149 0.976076 0.0102357 -0.206247 0 0 0
0.990452 0.120253 1.0269 0.976076 0.0102357 -0.206247 0 0 0
0.990426 0.122721 1.02582 0.976076 0.0102357 -0.206247 0 0 0
0.990412 0.122314 1.02351 0.976076 0.0102357 -0.206247 0 0 0
0.990419 0.116485 1.02099 0.976076 0.0102357 -0.206247 0 0 0
0.990463 0.117257 1.0257 0.976076 0.0102357 -0.206247 0 0 0
0.990375 0.122575 1.01951 0.976076 0.0102357 -0.206247 0 0 0
0.990419 0.120174 1.02269 0.976076 0.0102357 -0.206247 0 0 0
0.990395 0.11912 1.01989 0.976076 0.0102357 -0.206247 0 0 0
0.990443 0.116618 1.02338 0.976076 0.0102357 -0.206247 0 0 0
0.99037 0.120791 1.01819 0.976076 0.0102357 -0.206247 0 0 0
0.990396 0.116437 1.01875 0.976076 0.0102357 -0.206247 0 0 0
0.990361 0.128641 1.02549 0.976076 0.0102357 -0.206247 0 0 0
0.990275 0.133198 1.0277 0.976076 0.0102357 -0.206247 0 0 0
0.990295 0.131987 1.02357 0.976076 0.0102357 -0.206247 0 0 0
0.990345 0.129532 1.02739 0.976076 0.0102357 -0.206247 0 0 0
0.990246 0.134525 1.02287 0.976076 0.0102357 -0.206247 0 0 0
0.990334 0.129988 1.02376 0.976076 0.0102357 -0.206247 0 0 0
0.990273 0.133213 1.02554 0.976076 0.0102357 -0.206247 0 0 0
0.990253 0.134083 1.0205 0.976076 0.0102357 -0.206247 0 0 0
0.990373 0.126179 1.02244 0.976076 0.0102357 -0.206247 0 0 0
0.99036 0.125992 1.02024 0.976076 0.0102357 -0.206247 0 0 0
0.990309 0.129326 1.01911 0.976076 0.0102357 -0.206247 0 0 0
0.990271 0.132106 1.01877 0.976076 0.0102357 -0.206247 0 0 0
0.990301 0.131355 1.02151 0.976076 0.0102357 -0.206247 0 0 0
0.990397 0.126613 1.02637 0.976076 0.0102357 -0.206247 0 0 0
0.990339 0.128466 1.02168 0.976076 0.0102357 -0.206247 0 0 0
0.989994 0.143134 1.02714 0.976076 0.0102357 -0.206247 0 0 0
0.989956 0.144999 1.02536 0.976076 0.0102357 -0.206247 0 0 0
0.990119 0.139098 1.02743 0.976076 0.0102357 -0.206247 0 0 0
0.990065 0.141247 1.02627 0.976076 0.0102357 -0.206247 0 0 0
0.99001 0.144107 1.02328 0.976076 0.0102357 -0.206247 0 0 0
0.990151 0.139539 1.02371 0.976076 0.0102357 -0.206247 0 0 0
0.990079 0.143209 1.01968 0.976076 0.0102357 -0.206247 0 0 0
0.990159 0.138969 1.01887 0.976076 0.0102357 -0.206247 0 0 0
0.990123 0.140964 1.02104 0.976076 0.0102357 -0.206247 0 0 0
0.990203 0.136695 1.02082 0.976076 0.0102357 -0.206247 0 0 0
0.990209 0.136623 1.02623 0.976076 0.0102357 -0.206247 0 0 0
0.990193 0.137375 1.02403 0.976076 0.0102357 -0.206247 0 0 0
0.989657 0.151267 1.02625 0.976076 0.0102357 -0.206247 0 0 0
0.989644 0.152792 1.024 0.976076 0.0102357 -0.206247 0 0 0
0.989485 0.154044 1.02745 0.976076 0.0102357 -0.206247 0 0 0
0.989647 0.154395 1.02102 0.976076 0.0102357 -0.206247 0 0 0
0.989803 0.150207 1.02294 0.976076 0.0102357 -0.206247 0 0 0
0.989797 0.149257 1.02485 0.976076 0.0102357 -0.206247 0 0 0
0.989756 0.151943 1.02152 0.976076 0.0102357 -0.206247 0 0 0
0.990009 0.145979 1.01839 0.976076 0.0102357 -0.206247 0 0 0
0.989913 0.14674 1.02399 0.976076 0.0102357 -0.206247 0 0 0
0.989928 0.147599 1.02041 0.976076 0.0102357 -0.206247 0 0 0
0.989785 0.152243 1.0191 0.976076 0.0102357 -0.206247 0 0 0
0.98997 0.145957 1.02157 0.976076 0.0102357 -0.206247 0 0 0
0.98985 0.149825 1.02051 0.976076 0.0102357 -0.206247 0 0 0
0.989321 0.158056 1.02529 0.973937 0.0395074 -0.205726 0 0 0
0.989177 0.163989 1.01936 0.968769 0.110248 -0.204465 0 0 0
0.989255 0.161255 1.02185 0.970937 0.0805756 -0.204994 0 0 0
0.989114 0.161431 1.02448 0.973232 0.0491659 -0.205553 0 0 0
0.988882 0.16359 1.02598 0.974547 0.0311624 -0.205874 0 0 0
0.989067 0.163456 1.0224 0.971423 0.0739257 -0.205112 0 0 0
0.989132 0.159465 1.02705 0.975477 0.018429 -0.206101 0 0 0
0.989438 0.155799 1.02592 0.975198 0.022255 -0.206033 0 0 0
0.989522 0.155647 1.0232 0.97533 0.0204425 -0.206066 0 0 0
0.989305 0.161761 1.01956 0.969994 0.0934839 -0.204763 0 0 0
0.989453 0.158949 1.01949 0.972449 0.0598812 -0.205362 0 0 0
0.989396 0.158777 1.02185 0.972599 0.0578262 -0.205399 0 0 0
0.989586 0.156556 1.0192 0.974537 0.0312975 -0.205872 0 0 0
0.985616 0.191197 1.02362 0.915035 0.295541 -0.231588 0 0 0
0.985178 0.192719 1.02541 0.915035 0.295541 -0.231588 0 0 0
0.985741 0.191769 1.02129 0.915035 0.295541 -0.231588 0 0 0
0.985472 0.190355 1.02662 0.915035 0.295541 -0.231588 0 0 0
0.984274 0.199268 1.02067 0.915035 0.295541 -0.231588 0 0 0
0.984023 0.19936 1.02313 0.915035 0.295541 -0.231588 0 0 0
0.984086 0.200776 1.01925 0.915035 0.295541 -0.231588 0 0 0
0.984914 0.196792 1.01947 0.915035 0.295541 -0.231588 0 0 0
0.983518 0.201105 1.02455 0.915035 0.295541 -0.231588 0 0 0
0.983252 0.20094 1.02769 0.915035 0.295541 -0.231588 0 0 0
0.984299 0.197458 1.02444 0.915035 0.295541 -0.231588 0 0 0
0.984752 0.194216 1.02681 0.915035 0.295541 -0.231588 0 0 0
0.98553 0.1938 1.01968 0.915035 0.295541 -0.231588 0 0 0
0.984995 0.194313 1.0241 0.915035 0.295541 -0.231588 0 0 0
0.984295 0.196589 1.02637 0.915035 0.295541 -0.231588 0 0 0
0.983832 0.199174 1.02554 0.915035 0.295541 -0.231588 0 0 0
0.984649 0.196905 1.02203 0.915035 0.295541 -0.231588 0 0 0
0.987887 0.173207 1.02715 0.968427 0.114925 -0.204381 0 0 0
0.988649 0.166119 1.02649 0.974614 0.0302503 -0.205891 0 0 0
0.988114 0.17242 1.02498 0.969114 0.105525 -0.204549 0 0 0
0.988569 0.168044 1.02481 0.972934 0.0532435 -0.205481 0 0 0
0.988367 0.170995 1.02339 0.970358 0.088504 -0.204852 0 0 0
0.988466 0.171517 1.02115 0.969902 0.0947431 -0.204741 0 0 0
0.988236 0.170565 1.02595 0.970733 0.0833688 -0.204944 0 0 0
0.988262 0.173913 1.02059 0.967811 0.123365 -0.204231 0 0 0
0.988844 0.165318 1.02403 0.972841 0.0545108 -0.205458 0 0 0
0.988968 0.166049 1.02026 0.969547 0.099593 -0.204655 0 0 0
0.988911 0.167614 1.01879 0.96827 0.117084 -0.204343 0 0 0
0.988713 0.168994 1.02052 0.969782 0.0963758 -0.204712 0 0 0
0.98877 0.167163 1.02243 0.971449 0.0735591 -0.205119 0 0 0
0.987447 0.180352 1.02155 0.967652 0.12553 -0.204192 0 0 0
0.987359 0.17716 1.02753 0.967652 0.12553 -0.204192 0 0 0
0.987055 0.18 1.02661 0.967652 0.12553 -0.204192 0 0 0
0.986993 0.183552 1.02178 0.967652 0.12553 -0.204192 0 0 0
0.986757 0.18248 1.02616 0.967652 0.12553 -0.204192 0 0 0
0.987165 0.18087 1.02398 0.967652 0.12553 -0.204192 0 0 0
0.988011 0.17472 1.02293 0.967652 0.12553 -0.204192 0 0 0
0.987715 0.178976 1.01999 0.967652 0.12553 -0.204192 0 0 0
0.987695 0.175635 1.02601 0.967652 0.12553 -0.204192 0 0 0
0.987381 0.182239 1.0193 0.967652 0.12553 -0.204192 0 0 0
0.988246 0.17546 1.0182 0.967652 0.12553 -0.204192 0 0 0
0.987534 0.178783 1.02297 0.967652 0.12553 -0.204192 0 0 0
0.987987 0.176005 1.02108 0.967652 0.12553 -0.204192 0 0 0
0.98655 0.1858 1.0229 0.939385 0.216865 -0.21891 0 0 0
0.985982 0.191821 1.01863 0.917634 0.287145 -0.230236 0 0 0
0.98613 0.190021 1.02016 0.923284 0.268888 -0.227293 0 0 0
0.986551 0.187993 1.01895 0.939415 0.216768 -0.218895 0 0 0
0.985936 0.189239 1.02381 0.915838 0.292947 -0.231171 0 0 0
0.986718 0.186305 1.02005 0.945829 0.196045 -0.215555 0 0 0
0.986335 0.185591 1.02575 0.939448 0.21666 -0.218877 0 0 0
0.986764 0.183773 1.02406 0.967217 0.126937 -0.204419 0 0 0
0.944953 0.306365 1.03051 0.870486 0.407284 -0.263592 0 0 0
0.94412 0.308475 1.03064 0.870486 0.407284 -0.263592 0 0 0
0.945009 0.305798 1.02849 0.870486 0.407284 -0.263592 0 0 0
0.944501 0.30802 1.03299 0.870486 0.407284 -0.263592 0 0 0
0.944108 0.308068 1.02857 0.870486 0.407284 -0.263592 0 0 0
0.944675 0.308203 1.03591 0.870486 0.407284 -0.263592 0 0 0
0.945324 0.305888 1.03262 0.870486 0.407284 -0.263592 0 0 0
0.946316 0.302609 1.02884 0.870486 0.407284 -0.263592 0 0 0
0.945717 0.30439 1.03019 0.870486 0.407284 -0.263592 0 0 0
0.946326 0.303814 1.0358 0.870486 0.407284 -0.263592 0 0 0
0.947119 0.301291 1.03326 0.870486 0.407284 -0.263592 0 0 0
0.946717 0.30208 1.03151 0.870486 0.407284 -0.263592 0 0 0
0.946271 0.30363 1.03375 0.870486 0.407284 -0.263592 0 0 0
0.945232 0.306586 1.03491 0.870486 0.407284 -0.263592 0 0 0
0.947229 0.301382 1.03564 0.870486 0.407284 -0.263592 0 0 0
0.947295 0.30007 1.02859 0.870486 0.407284 -0.263592 0 0 0
0.942871 0.311259 1.02865 0.870486 0.407284 -0.263592 0 0 0
0.942004 0.314346 1.03206 0.870486 0.407284 -0.263592 0 0 0
0.941024 0.317413 1.03424 0.870486 0.407284 -0.263592 0 0 0
0.940621 0.31738 1.03003 0.870486 0.407284 -0.263592 0 0 0
0.940849 0.317307 1.03205 0.870486 0.407284 -0.263592 0 0 0
0.941949 0.313579 1.02847 0.870486 0.407284 -0.263592 0 0 0
0.941148 0.31562 1.02841 0.870486 0.407284 -0.263592 0 0 0
0.942633 0.313242 1.03444 0.870486 0.407284 -0.263592 0 0 0
0.943908 0.309841 1.03441 0.870486 0.407284 -0.263592 0 0 0
0.94337 0.310419 1.03063 0.870486 0.407284 -0.263592 0 0 0
0.941771 0.315895 1.03604 0.870486 0.407284 -0.263592 0 0 0
0.942778 0.312356 1.03223 0.870486 0.407284 -0.263592 0 0 0
0.937162 0.327721 1.03244 0.871123 0.382535 -0.289945 0 0 0
0.93689 0.327236 1.0293 0.871123 0.382535 -0.289945 0 0 0
0.937331 0.325596 1.02814 0.871123 0.382535 -0.289945 0 0 0
0.938763 0.324399 1.03599 0.870898 0.391298 -0.280614 0 0 0
0.939226 0.322429 1.03452 0.870803 0.394979 -0.276695 0 0 0
0.939828 0.321508 1.03685 0.87068 0.399766 -0.271597 0 0 0
0.937739 0.328004 1.03731 0.871107 0.383153 -0.289288 0 0 0
0.938304 0.324034 1.03145 0.870992 0.387647 -0.284502 0 0 0
0.937993 0.326558 1.03555 0.871055 0.385171 -0.287138 0 0 0
0.940083 0.319126 1.03145 0.870517 0.406099 -0.264853 0 0 0
0.938976 0.321841 1.03066 0.87082 0.394298 -0.27742 0 0 0
0.940161 0.319857 1.03504 0.870599 0.402922 -0.268237 0 0 0
0.939634 0.319762 1.02933 0.870588 0.403334 -0.267798 0 0 0
0.93345 0.337498 1.03101 0.871123 0.382535 -0.289945 0 0 0
0.934406 0.335336 1.03207 0.871123 0.382535 -0.289945 0 0 0
0.933371 0.336646 1.02859 0.871123 0.382535 -0.289945 0 0 0
0.934315 0.337216 1.03576 0.871123 0.382535 -0.289945 0 0 0
0.933878 0.337344 1.03333 0.871123 0.382535 -0.289945 0 0 0
0.934325 0.333672 1.0278 0.871123 0.382535 -0.289945 0 0 0
0.934653 0.333967 1.03051 0.871123 0.382535 -0.289945 0 0 0
0.935306 0.331738 1.02953 0.871123 0.382535 -0.289945 0 0 0
0.935235 0.33324 1.03249 0.871123 0.382535 -0.289945 0 0 0
0.935551 0.334353 1.03736 0.871123 0.382535 -0.289945 0 0 0
0.93492 0.335115 1.03482 0.871123 0.382535 -0.289945 0 0 0
0.936824 0.330141 1.03605 0.871123 0.382535 -0.289945 0 0 0
0.936196 0.330882 1.03348 0.871123 0.382535 -0.289945 0 0 0
0.936062 0.332199 1.03572 0.871123 0.382535 -0.289945 0 0 0
0.936201 0.329508 1.03021 0.871123 0.382535 -0.289945 0 0 0
0.928 0.354067 1.03138 0.871123 0.382535 -0.289945 0 0 0
0.927422 0.354678 1.02946 0.871123 0.382535 -0.289945 0 0 0
0.927307 0.356323 1.03149 0.871123 0.382535 -0.289945 0 0 0
0.92763 0.357236 1.03455 0.871123 0.382535 -0.289945 0 0 0
0.926397 0.357064 1.02811 0.871123 0.382535 -0.289945 0 0 0
0.931521 0.342508 1.02949 0.871123 0.382535 -0.289945 0 0 0
0.931313 0.345478 1.03356 0.871123 0.382535 -0.289945 0 0 0
0.93111 0.347029 1.03522 0.871123 0.382535 -0.289945 0 0 0
0.930379 0.347041 1.03166 0.871123 0.382535 -0.289945 0 0 0
0.930663 0.345233 1.02995 0.871123 0.382535 -0.289945 0 0 0
0.9336 0.3393 1.03561 0.871123 0.382535 -0.289945 0 0 0
0.932458 0.3429 1.03537 0.871123 0.382535 -0.289945 0 0 0
0.932404 0.341427 1.03222 0.871123 0.382535 -0.289945 0 0 0
0.932994 0.339342 1.03192 0.871123 0.382535 -0.289945 0 0 0
0.928942 0.351576 1.03201 0.871123 0.382535 -0.289945 0 0 0
0.928373 0.354328 1.03361 0.871123 0.382535 -0.289945 0 0 0
0.928267 0.352168 1.02967 0.871123 0.382535 -0.289945 0 0 0
0.930418 0.349068 1.0352 0.871123 0.382535 -0.289945 0 0 0
0.929186 0.35362 1.03643 0.871123 0.382535 -0.289945 0 0 0
0.930051 0.351109 1.03665 0.871123 0.382535 -0.289945 0 0 0
0.929651 0.350283 1.0334 0.871123 0.382535 -0.289945 0 0 0
0.929358 0.351973 1.03466 0.871123 0.382535 -0.289945 0 0 0
0.928419 0.355771 1.03612 0.871123 0.382535 -0.289945 0 0 0
0.929204 0.348503 1.02835 0.871123 0.382535 -0.289945 0 0 0
0.929234 0.34959 1.03025 0.871123 0.382535 -0.289945 0 0 0
0.924553 0.364661 1.02942 0.871123 0.382535 -0.289945 0 0 0
0.926036 0.359985 1.02989 0.871123 0.382535 -0.289945 0 0 0
0.925503 0.365195 1.03357 0.871123 0.382535 -0.289945 0 0 0
0.925432 0.362227 1.03007 0.871123 0.382535 -0.289945 0 0 0
0.924163 0.366908 1.03041 0.871123 0.382535 -0.289945 0 0 0
0.923771 0.36639 1.02838 0.871123 0.382535 -0.289945 0 0 0
0.925456 0.36371 1.03178 0.871123 0.382535 -0.289945 0 0 0
0.925697 0.36616 1.03535 0.871123 0.382535 -0.289945 0 0 0
0.926644 0.361038 1.03399 0.871123 0.382535 -0.289945 0 0 0
0.926846 0.359084 1.0328 0.871123 0.382535 -0.289945 0 0 0
0.926167 0.36145 1.03206 0.871123 0.382535 -0.289945 0 0 0
0.927291 0.359358 1.03534 0.871123 0.382535 -0.289945 0 0 0
0.926546 0.362643 1.0353 0.871123 0.382535 -0.289945 0 0 0
0.923694 0.375985 1.03654 0.871123 0.382535 -0.289945 0 0 0
0.922747 0.373411 1.03077 0.871123 0.382535 -0.289945 0 0 0
0.923475 0.371801 1.03211 0.871123 0.382535 -0.289945 0 0 0
0.922581 0.375221 1.03171 0.871123 0.382535 -0.289945 0 0 0
0.923265 0.374089 1.03329 0.871123 0.382535 -0.289945 0 0 0
0.922118 0.373893 1.02882 0.871123 0.382535 -0.289945 0 0 0
0.92147 0.376343 1.02851 0.871123 0.382535 -0.289945 0 0 0
0.924621 0.371414 1.03607 0.871123 0.382535 -0.289945 0 0 0
0.923726 0.369724 1.03125 0.871123 0.382535 -0.289945 0 0 0
0.925349 0.368517 1.0363 0.871123 0.382535 -0.289945 0 0 0
0.924648 0.367424 1.03272 0.871123 0.382535 -0.289945 0 0 0
0.923466 0.368547 1.02926 0.871123 0.382535 -0.289945 0 0 0
0.923942 0.373225 1.03509 0.871123 0.382535 -0.289945 0 0 0
0.924274 0.370582 1.03405 0.871123 0.382535 -0.289945 0 0 0
0.921138 0.378631 1.02852 0.871123 0.382535 -0.289945 0 0 0
0.920875 0.384382 1.03044 0.871123 0.382535 -0.289945 0 0 0
0.921589 0.382341 1.03157 0.871123 0.382535 -0.289945 0 0 0
0.921111 0.380909 1.02951 0.871123 0.382535 -0.289945 0 0 0
0.920145 0.383735 1.02801 0.871123 0.382535 -0.289945 0 0 0
0.922366 0.38538 1.03525 0.871123 0.382535 -0.289945 0 0 0
0.921801 0.384295 1.0331 0.871123 0.382535 -0.289945 0 0 0
0.922811 0.376841 1.03392 0.871123 0.382535 -0.289945 0 0 0
0.922077 0.377412 1.03135 0.871123 0.382535 -0.289945 0 0 0
0.923178 0.380606 1.03648 0.871123 0.382535 -0.289945 0 0 0
0.921896 0.37981 1.03142 0.871123 0.382535 -0.289945 0 0 0
0.922559 0.378795 1.03359 0.871123 0.382535 -0.289945 0 0 0
0.923305 0.378547 1.03631 0.871123 0.382535 -0.289945 0 0 0
0.92239 0.382316 1.03406 0.871123 0.382535 -0.289945 0 0 0
0.922996 0.38397 1.03685 0.871123 0.382535 -0.289945 0 0 0
0.919821 0.389325 1.02913 0.871123 0.382535 -0.289945 0 0 0
0.919544 0.392571 1.02932 0.871123 0.382535 -0.289945 0 0 0
0.920983 0.395039 1.03398 0.871123 0.382535 -0.289945 0 0 0
0.918736 0.395682 1.02801 0.871123 0.382535 -0.289945 0 0 0
0.919443 0.394729 1.02967 0.871123 0.382535 -0.289945 0 0 0
0.92106 0.392606 1.03348 0.871123 0.382535 -0.289945 0 0 0
0.921692 0.395284 1.036 0.871123 0.382535 -0.289945 0 0 0
0.920175 0.395762 1.03198 0.871123 0.382535 -0.289945 0 0 0
0.921824 0.390803 1.03523 0.871123 0.382535 -0.289945 0 0 0
0.921989 0.392706 1.03619 0.871123 0.382535 -0.289945 0 0 0
0.91986 0.386656 1.02849 0.871123 0.382535 -0.289945 0 0 0
0.922445 0.389666 1.03677 0.871123 0.382535 -0.289945 0 0 0
0.921116 0.386499 1.03211 0.871123 0.382535 -0.289945 0 0 0
0.922539 0.387427 1.03649 0.871123 0.382535 -0.289945 0 0 0
0.920555 0.389971 1.03133 0.871123 0.382535 -0.289945 0 0 0
0.920535 0.387948 1.03078 0.871123 0.382535 -0.289945 0 0 0
0.92135 0.388891 1.03338 0.871123 0.382535 -0.289945 0 0 0
0.957594 -0.0674747 1.04109 0.867645 -0.441627 -0.16112 0 0 0
0.956961 -0.0685931 1.04423 0.881648 -0.400175 -0.161354 0 0 0
0.954462 -0.074168 1.04258 0.874304 -0.421915 -0.161231 0 0 0
0.956561 -0.0684577 1.05201 0.916367 -0.297394 -0.161935 0 0 0
0.95434 -0.0750373 1.03785 0.853201 -0.484385 -0.160878 0 0 0
0.955673 -0.0720638 1.03875 0.857231 -0.472457 -0.160945 0 0 0
0.9549 -0.0735006 1.04047 0.86489 -0.449782 -0.161073 0 0 0
0.95659 -0.0687786 1.04903 0.903048 -0.336823 -0.161712 0 0 0
0.955822 -0.0712999 1.04222 0.872684 -0.426711 -0.161204 0 0 0
0.956442 -0.07022 1.04027 0.864013 -0.45238 -0.161059 0 0 0
0.955122 -0.0725618 1.04407 0.88096 -0.402209 -0.161342 0 0 0
0.956511 -0.0692816 1.04643 0.89146 -0.371126 -0.161518 0 0 0
0.955627 -0.0712661 1.04574 0.888401 -0.380183 -0.161467 0 0 0
0.952363 -0.0788488 1.04163 0.852068 -0.474219 -0.169366 0 0 0
0.952685 -0.0771863 1.04943 0.87716 -0.392645 -0.174375 0 0 0
0.95068 -0.0821348 1.04465 0.844734 -0.480311 -0.179071 0 0 0
0.949704 -0.0841607 1.04543 0.837731 -0.493176 -0.183903 0 0 0
0.953018 -0.0776333 1.03994 0.85346 -0.476814 -0.165163 0 0 0
0.953899 -0.0746883 1.04829 0.885369 -0.378348 -0.168219 0 0 0
0.952356 -0.0782822 1.04635 0.865343 -0.429081 -0.173264 0 0 0
0.953728 -0.0759076 1.04141 0.864317 -0.447899 -0.163316 0 0 0
0.954599 -0.0733801 1.04656 0.887092 -0.380315 -0.1638 0 0 0
0.951922 -0.0795159 1.04399 0.854588 -0.46074 -0.173196 0 0 0
0.951213 -0.0804844 1.04863 0.861016 -0.431001 -0.180041 0 0 0
0.95403 -0.0741106 1.05067 0.893337 -0.352758 -0.169611 0 0 0
0.952877 -0.0774134 1.0442 0.864181 -0.438851 -0.16926 0 0 0
0.949843 -0.0835258 1.04813 0.846675 -0.464368 -0.18552 0 0 0
0.955615 -0.0705865 1.05131 0.910085 -0.313619 -0.163323 0 0 0
0.954175 -0.0745382 1.04464 0.877665 -0.40758 -0.164046 0 0 0
0.9534 -0.0760533 1.04602 0.874245 -0.410531 -0.168503 0 0 0
0.955171 -0.0717692 1.04954 0.900892 -0.339867 -0.163776 0 0 0
0.954665 -0.0725789 1.05189 0.902773 -0.327831 -0.167879 0 0 0
0.956468 -0.068283 1.05495 0.928418 -0.260923 -0.16264 0 0 0
0.95142 -0.0802983 1.0465 0.856939 -0.44715 -0.177407 0 0 0
0.955819 -0.0698502 1.05368 0.918718 -0.286597 -0.164391 0 0 0
0.951855 -0.0800901 1.0393 0.84721 -0.492745 -0.166677 0 0 0
0.951267 -0.0812173 1.04144 0.842839 -0.495243 -0.173175 0 0 0
0.948648 -0.086366 1.03963 0.846544 -0.493125 -0.167667 0 0 0
0.95077 -0.0822236 1.03856 0.848737 -0.491872 -0.164407 0 0 0
0.949568 -0.0845468 1.04115 0.843446 -0.494896 -0.172272 0 0 0
0.949012 -0.0856122 1.04309 0.839458 -0.497174 -0.178199 0 0 0
0.949268 -0.085175 1.03772 0.850447 -0.490895 -0.161865 0 0 0
0.954587 -0.0724381 1.05649 0.908337 -0.308296 -0.169899 0 0 0
0.95329 -0.0754903 1.05256 0.891603 -0.350379 -0.17431 0 0 0
0.95025 -0.0824944 1.05101 0.853202 -0.446948 -0.184434 0 0 0
0.951077 -0.0805707 1.05238 0.863748 -0.420425 -0.181653 0 0 0
0.951919 -0.0785694 1.05609 0.874721 -0.392832 -0.178761 0 0 0
0.949365 -0.0845451 1.04993 0.841958 -0.475223 -0.187398 0 0 0
0.953684 -0.0745121 1.05648 0.896966 -0.336892 -0.172896 0 0 0
0.953853 -0.0741682 1.05406 0.898852 -0.33215 -0.172399 0 0 0
0.952363 -0.0775921 1.05384 0.880079 -0.379357 -0.177348 0 0 0
0.95209 -0.0782559 1.05194 0.87644 -0.388509 -0.178307 0 0 0
0.949146 -0.0850027 1.05239 0.839449 -0.481531 -0.188059 0 0 0
0.950024 -0.0829779 1.0529 0.850551 -0.453614 -0.185132 0 0 0
0.955564 -0.0701959 1.05656 0.920631 -0.277381 -0.166658 0 0 0
0.950638 -0.0815068 1.05622 0.858616 -0.433331 -0.183006 0 0 0
0.958745 -0.062192 1.05864 0.93722 -0.235664 -0.162285 0 0 0
0.963482 -0.0483233 1.06983 0.93722 -0.235664 -0.162285 0 0 0
0.963169 -0.050265 1.0638 0.93722 -0.235664 -0.162285 0 0 0
0.961886 -0.0544705 1.05846 0.93722 -0.235664 -0.162285 0 0 0
0.960474 -0.0575103 1.06076 0.93722 -0.235664 -0.162285 0 0 0
0.962415 -0.0505093 1.07213 0.93722 -0.235664 -0.162285 0 0 0
0.960466 -0.0562824 1.06718 0.93722 -0.235664 -0.162285 0 0 0
0.960559 -0.0577133 1.05863 0.93722 -0.235664 -0.162285 0 0 0
0.960875 -0.0549574 1.0688 0.93722 -0.235664 -0.162285 0 0 0
0.963692 -0.0502724 1.05712 0.93722 -0.235664 -0.162285 0 0 0
0.964623 -0.0479891 1.05704 0.93722 -0.235664 -0.162285 0 0 0
0.958703 -0.0617133 1.06163 0.93722 -0.235664 -0.162285 0 0 0
0.963325 -0.0503837 1.06121 0.93722 -0.235664 -0.162285 0 0 0
0.964066 -0.0488761 1.05956 0.93722 -0.235664 -0.162285 0 0 0
0.962894 -0.0504814 1.06619 0.93722 -0.235664 -0.162285 0 0 0
0.961408 -0.0552522 1.06051 0.93722 -0.235664 -0.162285 0 0 0
0.961982 -0.0535591 1.06194 0.93722 -0.235664 -0.162285 0 0 0
0.962807 -0.052325 1.0578 0.93722 -0.235664 -0.162285 0 0 0
0.959498 -0.0595773 1.06252 0.93722 -0.235664 -0.162285 0 0 0
0.957838 -0.064673 1.05738 0.93722 -0.235664 -0.162285 0 0 0
0.96165 -0.0533624 1.06716 0.93722 -0.235664 -0.162285 0 0 0
0.961151 -0.054903 1.06557 0.93722 -0.235664 -0.162285 0 0 0
0.963822 -0.0482586 1.06584 0.93722 -0.235664 -0.162285 0 0 0
0.960464 -0.0567801 1.06464 0.93722 -0.235664 -0.162285 0 0 0
0.959766 -0.0599085 1.05741 0.93722 -0.235664 -0.162285 0 0 0
0.962132 -0.0525981 1.06498 0.93722 -0.235664 -0.162285 0 0 0
0.961573 -0.0528649 1.0707 0.93722 -0.235664 -0.162285 0 0 0
0.963098 -0.0496172 1.06804 0.93722 -0.235664 -0.162285 0 0 0
0.962925 -0.048841 1.07424 0.93722 -0.235664 -0.162285 0 0 0
0.959586 -0.0598622 1.05994 0.93722 -0.235664 -0.162285 0 0 0
0.957352 -0.0645295 1.06672 0.93722 -0.235664 -0.162285 0 0 0
0.957239 -0.06395 1.073 0.93722 -0.235664 -0.162285 0 0 0
0.958699 -0.0606933 1.06875 0.93722 -0.235664 -0.162285 0 0 0
0.961795 -0.0518218 1.07385 0.93722 -0.235664 -0.162285 0 0 0
0.959832 -0.0574275 1.07076 0.93722 -0.235664 -0.162285 0 0 0
0.960091 -0.0564207 1.07308 0.93722 -0.235664 -0.162285 0 0 0
0.956528 -0.0659362 1.07219 0.93722 -0.235664 -0.162285 0 0 0
0.956676 -0.0661403 1.06793 0.93722 -0.235664 -0.162285 0 0 0
0.958558 -0.0617808 1.06363 0.93722 -0.235664 -0.162285 0 0 0
0.958544 -0.0603418 1.0742 0.93722 -0.235664 -0.162285 0 0 0
0.957761 -0.0638344 1.06397 0.93722 -0.235664 -0.162285 0 0 0
0.957267 -0.065762 1.05949 0.93722 -0.235664 -0.162285 0 0 0
0.960974 -0.0539546 1.07407 0.93722 -0.235664 -0.162285 0 0 0
0.96081 -0.0546812 1.07195 0.93722 -0.235664 -0.162285 0 0 0
0.956842 -0.0664786 1.06238 0.93722 -0.235664 -0.162285 0 0 0
0.959165 -0.059249 1.07029 0.93722 -0.235664 -0.162285 0 0 0
0.956713 -0.0650673 1.07492 0.93722 -0.235664 -0.162285 0 0 0
0.959163 -0.0589553 1.07244 0.93722 -0.235664 -0.162285 0 0 0
0.957965 -0.0622237 1.07166 0.93722 -0.235664 -0.162285 0 0 0
0.959115 -0.0598823 1.06671 0.93722 -0.235664 -0.162285 0 0 0
0.95947 -0.0592284 1.0647 0.93722 -0.235664 -0.162285 0 0 0
0.958192 -0.0624383 1.06582 0.93722 -0.235664 -0.162285 0 0 0
0.957658 -0.0632825 1.06987 0.93722 -0.235664 -0.162285 0 0 0
0.957639 -0.0625635 1.07536 0.93722 -0.235664 -0.162285 0 0 0
0.956841 -0.0661196 1.06498 0.93722 -0.235664 -0.162285 0 0 0
0.958032 -0.0636313 1.06031 0.93722 -0.235664 -0.162285 0 0 0
0.960011 -0.0562994 1.07544 0.93722 -0.235664 -0.162285 0 0 0
0.966235 -0.040282 1.07115 0.93722 -0.235664 -0.162285 0 0 0
0.965498 -0.043894 1.06505 0.93722 -0.235664 -0.162285 0 0 0
0.966145 -0.0410752 1.06898 0.93722 -0.235664 -0.162285 0 0 0
0.963672 -0.0467491 1.0748 0.93722 -0.235664 -0.162285 0 0 0
0.966505 -0.0409491 1.06527 0.93722 -0.235664 -0.162285 0 0 0
0.964885 -0.0449558 1.06791 0.93722 -0.235664 -0.162285 0 0 0
0.965766 -0.0426909 1.06682 0.93722 -0.235664 -0.162285 0 0 0
0.964349 -0.0448571 1.07459 0.93722 -0.235664 -0.162285 0 0 0
0.965407 -0.0422535 1.07281 0.93722 -0.235664 -0.162285 0 0 0
0.965326 -0.0417984 1.07561 0.93722 -0.235664 -0.162285 0 0 0
0.965168 -0.0435068 1.07049 0.93722 -0.235664 -0.162285 0 0 0
0.9663 -0.0430635 1.05905 0.93722 -0.235664 -0.162285 0 0 0
0.96608 -0.0428485 1.0625 0.93722 -0.235664 -0.162285 0 0 0
0.966345 -0.0394626 1.0732 0.93722 -0.235664 -0.162285 0 0 0
0.964626 -0.046348 1.06484 0.93722 -0.235664 -0.162285 0 0 0
0.964226 -0.0468427 1.06757 0.93722 -0.235664 -0.162285 0 0 0
0.964494 -0.0474325 1.06137 0.93722 -0.235664 -0.162285 0 0 0
0.964968 -0.0465656 1.05947 0.93722 -0.235664 -0.162285 0 0 0
0.965269 -0.0451902 1.06216 0.93722 -0.235664 -0.162285 0 0 0
0.963742 -0.0471846 1.0721 0.93722 -0.235664 -0.162285 0 0 0
0.965503 -0.0455025 1.05771 0.93722 -0.235664 -0.162285 0 0 0
0.968492 -0.0366819 1.05926 0.93722 -0.235664 -0.162285 0 0 0
0.968373 -0.0347271 1.06736 0.93722 -0.235664 -0.162285 0 0 0
0.970018 -0.0306218 1.06538 0.93722 -0.235664 -0.162285 0 0 0
0.968906 -0.0347431 1.06197 0.93722 -0.235664 -0.162285 0 0 0
0.969195 -0.0323813 1.06741 0.93722 -0.235664 -0.162285 0 0 0
0.967748 -0.0391064 1.05816 0.93722 -0.235664 -0.162285 0 0 0
0.968195 -0.0359821 1.06472 0.93722 -0.235664 -0.162285 0 0 0
0.967098 -0.0411459 1.05747 0.93722 -0.235664 -0.162285 0 0 0
0.970502 -0.0298336 1.0633 0.93722 -0.235664 -0.162285 0 0 0
0.969652 -0.0292837 1.07378 0.93722 -0.235664 -0.162285 0 0 0
0.969503 -0.0337069 1.05963 0.93722 -0.235664 -0.162285 0 0 0
0.969455 -0.034549 1.05714 0.93722 -0.235664 -0.162285 0 0 0
0.971036 -0.0293284 1.05973 0.93722 -0.235664 -0.162285 0 0 0
0.969526 -0.0324486 1.06385 0.93722 -0.235664 -0.162285 0 0 0
0.969145 -0.0317727 1.07007 0.93722 -0.235664 -0.162285 0 0 0
0.969988 -0.0296312 1.06917 0.93722 -0.235664 -0.162285 0 0 0
0.967675 -0.0379735 1.06289 0.93722 -0.235664 -0.162285 0 0 0
0.967598 -0.0387829 1.06081 0.93722 -0.235664 -0.162285 0 0 0
0.970788 -0.0306472 1.05756 0.93722 -0.235664 -0.162285 0 0 0
0.970248 -0.0314731 1.06006 0.93722 -0.235664 -0.162285 0 0 0
0.968867 -0.0320099 1.07219 0.93722 -0.235664 -0.162285 0 0 0
0.967221 -0.0374053 1.07083 0.93722 -0.235664 -0.162285 0 0 0
0.967137 -0.0391417 1.0648 0.93722 -0.235664 -0.162285 0 0 0
0.968255 -0.0340115 1.07171 0.93722 -0.235664 -0.162285 0 0 0
0.967572 -0.0371599 1.06743 0.93722 -0.235664 -0.162285 0 0 0
0.968144 -0.0348936 1.0695 0.93722 -0.235664 -0.162285 0 0 0
0.968882 -0.0313011 1.07489 0.93722 -0.235664 -0.162285 0 0 0
0.967149 -0.0367046 1.07459 0.93722 -0.235664 -0.162285 0 0 0
0.96696 -0.0408202 1.06018 0.93722 -0.235664 -0.162285 0 0 0
0.967704 -0.0347674 1.07553 0.93722 -0.235664 -0.162285 0 0 0
0.966779 -0.0396456 1.06724 0.93722 -0.235664 -0.162285 0 0 0
0.967073 -0.039877 1.0626 0.93722 -0.235664 -0.162285 0 0 0
0.967685 -0.0354388 1.07304 0.93722 -0.235664 -0.162285 0 0 0
0.974126 -0.019711 1.05807 0.93722 -0.235664 -0.162285 0 0 0
0.97623 -0.0114935 1.06141 0.93722 -0.235664 -0.162285 0 0 0
0.975465 -0.0106342 1.07043 0.93722 -0.235664 -0.162285 0 0 0
0.975439 -0.0145198 1.06032 0.93722 -0.235664 -0.162285 0 0 0
0.97512 -0.0127783 1.06776 0.93722 -0.235664 -0.162285 0 0 0
0.973424 -0.0200278 1.06341 0.93722 -0.235664 -0.162285 0 0 0
0.976511 -0.0097446 1.06359 0.93722 -0.235664 -0.162285 0 0 0
0.974704 -0.0164109 1.06176 0.93722 -0.235664 -0.162285 0 0 0
0.975001 -0.0113483 1.07262 0.93722 -0.235664 -0.162285 0 0 0
0.976761 -0.0106268 1.05903 0.93722 -0.235664 -0.162285 0 0 0
0.974628 -0.0177252 1.05894 0.93722 -0.235664 -0.162285 0 0 0
0.973968 -0.0193649 1.06039 0.93722 -0.235664 -0.162285 0 0 0
0.974857 -0.0150244 1.0641 0.93722 -0.235664 -0.162285 0 0 0
0.976076 -0.0128173 1.05924 0.93722 -0.235664 -0.162285 0 0 0
0.97422 -0.0165808 1.06557 0.93722 -0.235664 -0.162285 0 0 0
0.973754 -0.0184072 1.06481 0.93722 -0.235664 -0.162285 0 0 0
0.975605 -0.0092838 1.07278 0.93722 -0.235664 -0.162285 0 0 0
0.976473 -0.0123395 1.05701 0.93722 -0.235664 -0.162285 0 0 0
0.974039 -0.0164137 1.06761 0.93722 -0.235664 -0.162285 0 0 0
0.97241 -0.0248848 1.05942 0.93722 -0.235664 -0.162285 0 0 0
0.975607 -0.0109494 1.06834 0.93722 -0.235664 -0.162285 0 0 0
0.975826 -0.0119252 1.06382 0.93722 -0.235664 -0.162285 0 0 0
0.974678 -0.0129265 1.07126 0.93722 -0.235664 -0.162285 0 0 0
0.973347 -0.0221391 1.05847 0.93722 -0.235664 -0.162285 0 0 0
0.972936 -0.022316 1.06162 0.93722 -0.235664 -0.162285 0 0 0
0.975297 -0.0159434 1.05778 0.93722 -0.235664 -0.162285 0 0 0
0.975244 -0.013275 1.06535 0.93722 -0.235664 -0.162285 0 0 0
0.971624 -0.0248167 1.06737 0.93722 -0.235664 -0.162285 0 0 0
0.973371 -0.0170609 1.07227 0.93722 -0.235664 -0.162285 0 0 0
0.971706 -0.0233287 1.07085 0.93722 -0.235664 -0.162285 0 0 0
0.972737 -0.0205064 1.06867 0.93722 -0.235664 -0.162285 0 0 0
0.973754 -0.0150395 1.07427 0.93722 -0.235664 -0.162285 0 0 0
0.971432 -0.0274462 1.06169 0.93722 -0.235664 -0.162285 0 0 0
0.970571 -0.0285209 1.06723 0.93722 -0.235664 -0.162285 0 0 0
0.970293 -0.0271801 1.07389 0.93722 -0.235664 -0.162285 0 0 0
0.972634 -0.0191549 1.07361 0.93722 -0.235664 -0.162285 0 0 0
0.970945 -0.0267688 1.06854 0.93722 -0.235664 -0.162285 0 0 0
0.973763 -0.0163772 1.07032 0.93722 -0.235664 -0.162285 0 0 0
0.973035 -0.0203712 1.06606 0.93722 -0.235664 -0.162285 0 0 0
0.972099 -0.0228216 1.06838 0.93722 -0.235664 -0.162285 0 0 0
0.971817 -0.0216551 1.07457 0.93722 -0.235664 -0.162285 0 0 0
0.974028 -0.0148038 1.0722 0.93722 -0.235664 -0.162285 0 0 0
0.971955 -0.0246894 1.06442 0.93722 -0.235664 -0.162285 0 0 0
0.9731 -0.0172647 1.0744 0.93722 -0.235664 -0.162285 0 0 0
0.972212 -0.0232123 1.06611 0.93722 -0.235664 -0.162285 0 0 0
0.970905 -0.0252009 1.07347 0.93722 -0.235664 -0.162285 0 0 0
0.970137 -0.0270284 1.07589 0.93722 -0.235664 -0.162285 0 0 0
0.970276 -0.0280949 1.07141 0.93722 -0.235664 -0.162285 0 0 0
0.971696 -0.0280919 1.05718 0.93722 -0.235664 -0.162285 0 0 0
0.970897 -0.0281713 1.06496 0.93722 -0.235664 -0.162285 0 0 0
0.974656 -0.0116338 1.07507 0.93722 -0.235664 -0.162285 0 0 0
0.970954 -0.0258463 1.07112 0.93722 -0.235664 -0.162285 0 0 0
0.972338 -0.0211483 1.07081 0.93722 -0.235664 -0.162285 0 0 0
0.971189 -0.0236472 1.07511 0.93722 -0.235664 -0.162285 0 0 0
0.971796 -0.0269302 1.05953 0.93722 -0.235664 -0.162285 0 0 0
0.972763 -0.0219982 1.06409 0.93722 -0.235664 -0.162285 0 0 0
0.972829 -0.0192345 1.07142 0.93722 -0.235664 -0.162285 0 0 0
0.973443 -0.0183859 1.06772 0.93722 -0.235664 -0.162285 0 0 0
0.980464 0.00393636 1.05736 0.93722 -0.235664 -0.162285 0 0 0
0.980854 0.00867537 1.06369 0.93722 -0.235664 -0.162285 0 0 0
0.981778 0.00932075 1.05694 0.93722 -0.235664 -0.162285 0 0 0
0.981456 0.00915929 1.05942 0.93722 -0.235664 -0.162285 0 0 0
0.980115 0.00452659 1.06163 0.93722 -0.235664 -0.162285 0 0 0
0.980765 0.00959562 1.06636 0.93722 -0.235664 -0.162285 0 0 0
0.980302 0.00713398 1.06535 0.93722 -0.235664 -0.162285 0 0 0
0.979354 0.00437323 1.06796 0.93722 -0.235664 -0.162285 0 0 0
0.979804 0.00812693 1.07174 0.93722 -0.235664 -0.162285 0 0 0
0.979919 0.00643079 1.06725 0.93722 -0.235664 -0.162285 0 0 0
0.978512 -0.00122247 1.06382 0.93722 -0.235664 -0.162285 0 0 0
0.978774 -0.00246674 1.05898 0.93722 -0.235664 -0.162285 0 0 0
0.979061 0.000358389 1.06227 0.93722 -0.235664 -0.162285 0 0 0
0.980664 0.00626693 1.0604 0.93722 -0.235664 -0.162285 0 0 0
0.980991 0.00670467 1.05844 0.93722 -0.235664 -0.162285 0 0 0
0.979608 0.00208053 1.06103 0.93722 -0.235664 -0.162285 0 0 0
0.979621 0.00639903 1.06978 0.93722 -0.235664 -0.162285 0 0 0
0.979266 -0.000377189 1.05897 0.93722 -0.235664 -0.162285 0 0 0
0.98016 0.00364435 1.05942 0.93722 -0.235664 -0.162285 0 0 0
0.9783 -0.00448661 1.05897 0.93722 -0.235664 -0.162285 0 0 0
0.979167 0.00191154 1.06454 0.93722 -0.235664 -0.162285 0 0 0
0.977965 -0.00667967 1.05739 0.93722 -0.235664 -0.162285 0 0 0
0.978662 0.000290968 1.06562 0.93722 -0.235664 -0.162285 0 0 0
0.979772 0.00406169 1.06367 0.93722 -0.235664 -0.162285 0 0 0
0.978683 -0.00156708 1.06163 0.93722 -0.235664 -0.162285 0 0 0
0.980246 0.00598963 1.06349 0.93722 -0.235664 -0.162285 0 0 0
0.979859 0.00131894 1.05728 0.93722 -0.235664 -0.162285 0 0 0
0.980202 0.00829106 1.0686 0.93722 -0.235664 -0.162285 0 0 0
0.977149 -0.00221274 1.07378 0.93722 -0.235664 -0.162285 0 0 0
0.977338 -0.000378177 1.0759 0.93722 -0.235664 -0.162285 0 0 0
0.979478 0.0078689 1.07406 0.93722 -0.235664 -0.162285 0 0 0
0.976535 -0.00482287 1.0738 0.93722 -0.235664 -0.162285 0 0 0
0.976229 -0.00756349 1.07085 0.93722 -0.235664 -0.162285 0 0 0
0.97876 0.00248124 1.06927 0.93722 -0.235664 -0.162285 0 0 0
0.978536 0.00292162 1.07215 0.93722 -0.235664 -0.162285 0 0 0
0.978857 0.00540283 1.07444 0.93722 -0.235664 -0.162285 0 0 0
0.976904 -0.00776084 1.0645 0.93722 -0.235664 -0.162285 0 0 0
0.978396 0.000228896 1.06783 0.93722 -0.235664 -0.162285 0 0 0
0.977098 -0.00829428 1.06169 0.93722 -0.235664 -0.162285 0 0 0
0.977615 -0.00635293 1.06114 0.93722 -0.235664 -0.162285 0 0 0
0.978223 0.0011052 1.07116 0.93722 -0.235664 -0.162285 0 0 0
0.975931 -0.00646818 1.07573 0.93722 -0.235664 -0.162285 0 0 0
0.97921 0.00596689 1.0725 0.93722 -0.235664 -0.162285 0 0 0
0.979047 0.00418906 1.07027 0.93722 -0.235664 -0.162285 0 0 0
0.977966 0.00147839 1.0742 0.93722 -0.235664 -0.162285 0 0 0
0.977545 -0.00563776 1.06323 0.93722 -0.235664 -0.162285 0 0 0
0.978029 -0.00247917 1.06548 0.93722 -0.235664 -0.162285 0 0 0
0.978081 -0.00331966 1.06329 0.93722 -0.235664 -0.162285 0 0 0
0.977029 -0.00563714 1.06777 0.93722 -0.235664 -0.162285 0 0 0
0.976365 -0.00922618 1.06622 0.93722 -0.235664 -0.162285 0 0 0
0.978285 0.00335989 1.07526 0.93722 -0.235664 -0.162285 0 0 0
0.977024 -0.00371197 1.07179 0.93722 -0.235664 -0.162285 0 0 0
0.977675 -0.00287049 1.06779 0.93722 -0.235664 -0.162285 0 0 0
0.976434 -0.00784998 1.06846 0.93722 -0.235664 -0.162285 0 0 0
0.976865 -0.00519198 1.07014 0.93722 -0.235664 -0.162285 0 0 0
0.977766 -0.000827936 1.0712 0.93722 -0.235664 -0.162285 0 0 0
0.976083 -0.00705408 1.07318 0.93722 -0.235664 -0.162285 0 0 0
0.982871 0.0215811 1.06563 0.93722 -0.235664 -0.162285 0 0 0
0.982988 0.0232541 1.06739 0.93722 -0.235664 -0.162285 0 0 0
0.983521 0.028426 1.07114 0.93722 -0.235664 -0.162285 0 0 0
0.983844 0.0264764 1.0646 0.93722 -0.235664 -0.162285 0 0 0
0.983783 0.0275305 1.06703 0.93722 -0.235664 -0.162285 0 0 0
0.981344 0.016758 1.0722 0.93722 -0.235664 -0.162285 0 0 0
0.981206 0.0173944 1.07466 0.93722 -0.235664 -0.162285 0 0 0
0.983405 0.0255882 1.06735 0.93722 -0.235664 -0.162285 0 0 0
0.979976 0.0110653 1.07572 0.93722 -0.235664 -0.162285 0 0 0
0.98298 0.0258951 1.07205 0.93722 -0.235664 -0.162285 0 0 0
0.984904 0.0288248 1.05829 0.93722 -0.235664 -0.162285 0 0 0
0.982017 0.0183111 1.06832 0.93722 -0.235664 -0.162285 0 0 0
0.983303 0.0236269 1.06494 0.93722 -0.235664 -0.162285 0 0 0
0.981995 0.022128 1.07516 0.93722 -0.235664 -0.162285 0 0 0
0.982445 0.0223514 1.07113 0.93722 -0.235664 -0.162285 0 0 0
0.982568 0.0241567 1.07306 0.93722 -0.235664 -0.162285 0 0 0
0.982591 0.0211545 1.06763 0.93722 -0.235664 -0.162285 0 0 0
0.982867 0.0263882 1.07401 0.93722 -0.235664 -0.162285 0 0 0
0.984299 0.0278395 1.0625 0.93722 -0.235664 -0.162285 0 0 0
0.983711 0.0282658 1.069 0.93722 -0.235664 -0.162285 0 0 0
0.984484 0.0274978 1.0601 0.93722 -0.235664 -0.162285 0 0 0
0.980417 0.0135738 1.07575 0.93722 -0.235664 -0.162285 0 0 0
0.981974 0.0192051 1.07029 0.93722 -0.235664 -0.162285 0 0 0
0.981968 0.0207366 1.07301 0.93722 -0.235664 -0.162285 0 0 0
0.983066 0.0249463 1.06955 0.93722 -0.235664 -0.162285 0 0 0
0.983708 0.0243804 1.06229 0.93722 -0.235664 -0.162285 0 0 0
0.981602 0.0168556 1.06985 0.93722 -0.235664 -0.162285 0 0 0
0.980678 0.0135229 1.07311 0.93722 -0.235664 -0.162285 0 0 0
0.983337 0.0184496 1.05691 0.93722 -0.235664 -0.162285 0 0 0
0.983001 0.017976 1.05917 0.93722 -0.235664 -0.162285 0 0 0
0.981556 0.0105949 1.06115 0.93722 -0.235664 -0.162285 0 0 0
0.982689 0.0175214 1.06124 0.93722 -0.235664 -0.162285 0 0 0
0.98209 0.01737 1.06626 0.93722 -0.235664 -0.162285 0 0 0
0.982345 0.0133898 1.05829 0.93722 -0.235664 -0.162285 0 0 0
0.983092 0.0214807 1.06342 0.93722 -0.235664 -0.162285 0 0 0
0.981766 0.0125376 1.06211 0.93722 -0.235664 -0.162285 0 0 0
0.984196 0.0242848 1.05782 0.93722 -0.235664 -0.162285 0 0 0
0.982406 0.0177979 1.06411 0.93722 -0.235664 -0.162285 0 0 0
0.981575 0.013357 1.06497 0.93722 -0.235664 -0.162285 0 0 0
0.980572 0.010643 1.06983 0.93722 -0.235664 -0.162285 0 0 0
0.984045 0.0248967 1.06002 0.93722 -0.235664 -0.162285 0 0 0
0.983629 0.0218676 1.05929 0.93722 -0.235664 -0.162285 0 0 0
0.982469 0.0154163 1.06012 0.93722 -0.235664 -0.162285 0 0 0
0.98007 0.0101043 1.07344 0.93722 -0.235664 -0.162285 0 0 0
0.980546 0.0117649 1.07167 0.93722 -0.235664 -0.162285 0 0 0
0.981309 0.0135714 1.0676 0.93722 -0.235664 -0.162285 0 0 0
0.982238 0.0157768 1.06266 0.93722 -0.235664 -0.162285 0 0 0
