ply
format ascii 1.0
comment Created by Open3D
element vertex 1742
property double x
property double y
property double z
end_header
0.986686 0.0862992 0.973302
0.986632 0.0840472 0.973309
0.987602 0.0816774 0.973201
0.987548 0.0794237 0.973208
0.987495 0.0771699 0.973215
0.988465 0.0747931 0.973107
0.988411 0.0725376 0.973114
0.988357 0.0702821 0.973121
0.988303 0.0680266 0.973128
0.988249 0.0657711 0.973135
0.988195 0.0635156 0.973142
0.988141 0.0612602 0.973149
0.988087 0.0590047 0.973156
0.988033 0.0567492 0.973163
0.987979 0.0544937 0.97317
0.987925 0.0522382 0.973177
0.987872 0.0499827 0.973184
0.987818 0.0477273 0.973191
0.987764 0.0454718 0.973198
0.98771 0.0432163 0.973205
0.986632 0.0411102 0.973327
0.986578 0.0388565 0.973334
0.986525 0.0366028 0.973341
0.985447 0.0345037 0.973462
0.985394 0.0322517 0.973469
0.98534 0.0299998 0.973476
0.985286 0.0277478 0.973483
0.984209 0.0256575 0.973605
0.984155 0.0234073 0.973612
0.984101 0.0211571 0.973619
0.983024 0.0190738 0.97374
0.982971 0.0168253 0.973747
0.982917 0.0145769 0.973754
0.980817 0.0126728 0.973991
0.980764 0.0104279 0.973998
0.98071 0.00818293 0.974004
0.979633 0.00611545 0.974126
0.97958 0.00387224 0.974133
0.979526 0.00162903 0.97414
0.97845 -0.000431419 0.974261
0.978396 -0.00267287 0.974268
0.978343 -0.00491434 0.974275
0.977267 -0.00696777 0.974397
0.977213 -0.00920748 0.974404
0.977159 -0.0114472 0.974411
0.977106 -0.0136869 0.974418
0.975008 -0.0155365 0.974654
0.974954 -0.0177727 0.974661
0.974901 -0.0200089 0.974668
0.973825 -0.0220448 0.974789
0.973772 -0.0242793 0.974796
0.973718 -0.0265137 0.974803
0.97162 -0.028337 0.975039
0.971567 -0.030568 0.975046
0.971514 -0.0327989 0.975053
0.968395 -0.0343974 0.975403
0.968341 -0.0366231 0.97541
0.968288 -0.0388487 0.975417
0.965169 -0.0404262 0.975767
0.965116 -0.0426466 0.975774
0.965063 -0.044867 0.975781
0.96501 -0.0470874 0.975788
0.961892 -0.0486386 0.976138
0.961839 -0.0508537 0.976145
0.961786 -0.0530688 0.976152
0.958668 -0.0545989 0.976502
0.958615 -0.0568088 0.976509
0.958563 -0.0590187 0.976515
0.955445 -0.0605278 0.976866
0.955393 -0.0627324 0.976872
0.95534 -0.064937 0.976879
0.952223 -0.066425 0.977229
0.952171 -0.0686244 0.977236
0.952118 -0.0708237 0.977243
0.947981 -0.0720466 0.977707
0.947928 -0.0742389 0.977714
0.947876 -0.0764313 0.977721
0.94476 -0.0778754 0.978071
0.944708 -0.0800625 0.978077
0.944656 -0.0822496 0.978084
0.944603 -0.0844367 0.978091
0.940468 -0.0855981 0.978555
0.940415 -0.0877782 0.978562
0.940363 -0.0899582 0.978569
0.936228 -0.0910916 0.979033
0.936176 -0.0932647 0.979039
0.936124 -0.0954377 0.979046
0.93199 -0.096543 0.97951
0.931938 -0.0987091 0.979517
0.931886 -0.100875 0.979524
0.928773 -0.102225 0.979873
0.928721 -0.104385 0.97988
0.928669 -0.106546 0.979887
0.924536 -0.107597 0.98035
0.924485 -0.109751 0.980357
0.924433 -0.111905 0.980364
0.924382 -0.114058 0.98037
0.92127 -0.115359 0.98072
0.921218 -0.117507 0.980727
0.921167 -0.119656 0.980733
0.918055 -0.120935 0.981083
0.918004 -0.123078 0.981089
0.917953 -0.125221 0.981096
0.914841 -0.12648 0.981445
0.91479 -0.128618 0.981452
0.914739 -0.130756 0.981458
0.911629 -0.131993 0.981808
0.911578 -0.134126 0.981814
0.911527 -0.136258 0.981821
0.908416 -0.137474 0.98217
0.908366 -0.139602 0.982177
0.908315 -0.141729 0.982183
0.908264 -0.143857 0.98219
0.905154 -0.145047 0.982539
0.905104 -0.147169 0.982545
0.905053 -0.149291 0.982552
0.901944 -0.15046 0.982901
0.901893 -0.152577 0.982908
0.901843 -0.154694 0.982914
0.898734 -0.155841 0.983263
0.898683 -0.157953 0.98327
0.898633 -0.160065 0.983276
0.895525 -0.161191 0.983625
0.895475 -0.163298 0.983632
0.895424 -0.165404 0.983638
0.892317 -0.16651 0.983987
0.892266 -0.168611 0.983994
0.892216 -0.170712 0.984
0.892166 -0.172813 0.984007
0.88804 -0.173552 0.984469
0.88799 -0.175646 0.984476
0.88794 -0.17774 0.984482
0.884834 -0.178797 0.984831
0.884784 -0.180886 0.984838
0.884734 -0.182975 0.984844
0.881628 -0.18401 0.985193
0.881578 -0.186094 0.985199
0.881528 -0.188177 0.985206
0.878423 -0.189192 0.985554
0.908493 0.369748 0.979895
0.908443 0.36764 0.979902
0.908392 0.365532 0.979908
0.911429 0.363749 0.979563
0.911378 0.361636 0.97957
0.911328 0.359522 0.979576
0.914364 0.357718 0.979232
0.914313 0.3556 0.979238
0.914262 0.353481 0.979245
0.917298 0.351656 0.9789
0.917247 0.349532 0.978907
0.917196 0.347408 0.978913
0.919203 0.345469 0.978686
0.919152 0.343342 0.978692
0.919101 0.341214 0.978699
0.922136 0.339349 0.978355
0.922085 0.337216 0.978361
0.922034 0.335083 0.978368
0.925068 0.333197 0.978023
0.925017 0.331059 0.97803
0.924966 0.328921 0.978036
0.924914 0.326783 0.978043
0.92692 0.324795 0.977816
0.926869 0.322654 0.977822
0.926817 0.320512 0.977829
0.92985 0.31858 0.977485
0.929799 0.316434 0.977491
0.929748 0.314287 0.977498
0.93278 0.312334 0.977154
0.932729 0.310182 0.97716
0.932677 0.30803 0.977167
0.935709 0.306056 0.976823
0.935658 0.303898 0.97683
0.935606 0.301741 0.976836
0.938638 0.299746 0.976492
0.938586 0.297583 0.976499
0.938534 0.295421 0.976505
0.941565 0.293405 0.976161
0.941513 0.291237 0.976168
0.941461 0.289069 0.976175
0.944492 0.287032 0.975831
0.94444 0.284859 0.975838
0.944388 0.282686 0.975844
0.944336 0.280513 0.975851
0.947366 0.278449 0.975507
0.947314 0.276271 0.975514
0.947262 0.274092 0.975521
0.950291 0.272008 0.975177
0.950239 0.269824 0.975184
0.950187 0.267641 0.97519
0.953216 0.265535 0.974846
0.953163 0.263346 0.974853
0.953111 0.261157 0.97486
0.956139 0.259031 0.974516
0.956087 0.256837 0.974523
0.956034 0.254642 0.97453
0.959062 0.252495 0.974186
0.959009 0.250295 0.974193
0.958957 0.248096 0.9742
0.961984 0.245927 0.973856
0.961932 0.243723 0.973863
0.961879 0.241518 0.97387
0.961826 0.239313 0.973877
0.964853 0.237118 0.973533
0.9648 0.234908 0.97354
0.964747 0.232698 0.973547
0.967773 0.230482 0.973204
0.96772 0.228267 0.97321
0.967667 0.226052 0.973217
0.970693 0.223815 0.972874
0.97064 0.221594 0.972881
0.970587 0.219374 0.972888
0.973612 0.217116 0.972544
0.973559 0.21489 0.972551
0.973506 0.212664 0.972558
0.97653 0.210385 0.972215
0.976477 0.208154 0.972222
0.976424 0.205923 0.972229
0.979448 0.203623 0.971885
0.979394 0.201387 0.971892
0.979341 0.199151 0.971899
0.981339 0.196858 0.971673
0.981285 0.194618 0.97168
0.981232 0.192378 0.971687
0.981178 0.190138 0.971694
0.983176 0.187828 0.971467
0.983122 0.185585 0.971474
0.983069 0.183342 0.971481
0.98404 0.181058 0.971372
0.983987 0.178813 0.971379
0.983933 0.176568 0.971385
0.984905 0.174277 0.971276
0.984851 0.17203 0.971283
0.984797 0.169783 0.97129
0.985769 0.167485 0.97118
0.985715 0.165237 0.971187
0.985661 0.162989 0.971194
0.985607 0.16074 0.971201
0.985554 0.158492 0.971208
0.9855 0.156243 0.971215
0.985446 0.153995 0.971222
0.985392 0.151746 0.971229
0.985338 0.149498 0.971236
0.985285 0.147249 0.971243
0.985231 0.145001 0.97125
0.985177 0.142752 0.971257
0.985123 0.140504 0.971264
0.98507 0.138255 0.971271
0.985016 0.136007 0.971278
0.984962 0.133758 0.971285
0.985933 0.131431 0.971175
0.985879 0.129181 0.971182
0.985825 0.12693 0.971189
0.985772 0.12468 0.971196
0.985718 0.12243 0.971203
0.985664 0.12018 0.97121
0.98561 0.117929 0.971217
0.985556 0.115679 0.971224
0.985502 0.113429 0.971231
0.986473 0.111084 0.971121
0.986419 0.108832 0.971128
0.986365 0.10658 0.971135
0.986311 0.104328 0.971142
0.986257 0.102076 0.971149
0.986204 0.0998238 0.971156
0.98615 0.0975718 0.971163
0.986096 0.0953198 0.97117
0.986042 0.0930679 0.971177
0.985988 0.0908159 0.971184
0.985934 0.0885639 0.971191
0.985881 0.0863119 0.971198
0.985827 0.0840599 0.971205
0.986796 0.0816901 0.971096
0.986742 0.0794364 0.971103
0.986689 0.0771827 0.97111
0.987658 0.0748058 0.971
0.987604 0.0725503 0.971007
0.98755 0.0702949 0.971014
0.987496 0.0680394 0.971021
0.987442 0.0657839 0.971028
0.987389 0.0635284 0.971035
0.987335 0.0612729 0.971042
0.987281 0.0590174 0.971049
0.987227 0.056762 0.971056
0.987173 0.0545065 0.971063
0.987119 0.052251 0.97107
0.987065 0.0499955 0.971077
0.987011 0.04774 0.971084
0.986957 0.0454845 0.971091
0.986903 0.043229 0.971098
0.985826 0.041123 0.971221
0.985772 0.0388692 0.971228
0.985719 0.0366155 0.971235
0.984642 0.0345165 0.971359
0.984588 0.0322645 0.971366
0.984534 0.0300125 0.971373
0.984481 0.0277605 0.97138
0.983404 0.0256702 0.971503
0.98335 0.02342 0.97151
0.983296 0.0211698 0.971517
0.98222 0.0190865 0.97164
0.982166 0.0168381 0.971647
0.982113 0.0145896 0.971654
0.980014 0.0126855 0.971893
0.979961 0.0104406 0.9719
0.979907 0.00819562 0.971907
0.978831 0.00612813 0.97203
0.978778 0.00388492 0.972037
0.978724 0.00164171 0.972044
0.977648 -0.000418743 0.972168
0.977595 -0.00266019 0.972175
0.977541 -0.00490166 0.972181
0.976466 -0.0069551 0.972305
0.976412 -0.00919481 0.972312
0.976358 -0.0114345 0.972319
0.976305 -0.0136742 0.972325
0.974208 -0.0155239 0.972565
0.974154 -0.0177601 0.972572
0.974101 -0.0199963 0.972579
0.973026 -0.0220322 0.972702
0.972973 -0.0242666 0.972709
0.972919 -0.0265011 0.972716
0.970823 -0.0283244 0.972955
0.970769 -0.0305553 0.972962
0.970716 -0.0327863 0.972969
0.967599 -0.0343848 0.973324
0.967545 -0.0366105 0.973331
0.967492 -0.0388362 0.973338
0.964375 -0.0404136 0.973693
0.964322 -0.042634 0.9737
0.964269 -0.0448544 0.973707
0.964216 -0.0470749 0.973713
0.9611 -0.048626 0.974069
0.961047 -0.0508412 0.974075
0.960994 -0.0530563 0.974082
0.957878 -0.0545864 0.974437
0.957825 -0.0567963 0.974444
0.957772 -0.0590062 0.974451
0.954657 -0.0605153 0.974806
0.954604 -0.0627199 0.974813
0.954552 -0.0649245 0.97482
0.951437 -0.0664126 0.975175
0.951384 -0.0686119 0.975182
0.951332 -0.0708113 0.975188
0.947197 -0.0720342 0.975659
0.947144 -0.0742265 0.975666
0.947092 -0.0764189 0.975673
0.943978 -0.077863 0.976028
0.943926 -0.0800501 0.976034
0.943874 -0.0822372 0.976041
0.943821 -0.0844243 0.976048
0.939688 -0.0855858 0.976519
0.939636 -0.0877658 0.976525
0.939584 -0.0899459 0.976532
0.935451 -0.0910793 0.977003
0.935399 -0.0932524 0.97701
0.935347 -0.0954254 0.977016
0.931215 -0.0965308 0.977487
0.931163 -0.0986968 0.977493
0.931111 -0.100863 0.9775
0.928 -0.102212 0.977855
0.927948 -0.104373 0.977861
0.927897 -0.106534 0.977868
0.923766 -0.107585 0.978338
0.923714 -0.109739 0.978345
0.923663 -0.111892 0.978352
0.923612 -0.114046 0.978358
0.920501 -0.115347 0.978713
0.92045 -0.117495 0.978719
0.920398 -0.119644 0.978726
0.917289 -0.120923 0.97908
0.917237 -0.123066 0.979087
0.917186 -0.125209 0.979094
0.914077 -0.126468 0.979448
0.914026 -0.128606 0.979455
0.913975 -0.130744 0.979461
0.910866 -0.131981 0.979815
0.910815 -0.134113 0.979822
0.910764 -0.136246 0.979829
0.907656 -0.137462 0.980183
0.907605 -0.13959 0.980189
0.907554 -0.141717 0.980196
0.907503 -0.143845 0.980202
0.904395 -0.145035 0.980556
0.904345 -0.147157 0.980563
0.904294 -0.149279 0.98057
0.901187 -0.150448 0.980924
0.901136 -0.152565 0.98093
0.901085 -0.154682 0.980937
0.897979 -0.155829 0.981291
0.897928 -0.157941 0.981297
0.897878 -0.160053 0.981304
0.894772 -0.16118 0.981657
0.894721 -0.163286 0.981664
0.894671 -0.165392 0.981671
0.891565 -0.166498 0.982024
0.891515 -0.168599 0.982031
0.891465 -0.1707 0.982037
0.891415 -0.172801 0.982044
0.887291 -0.17354 0.982513
0.887241 -0.175634 0.98252
0.887191 -0.177729 0.982526
0.884087 -0.178785 0.98288
0.884037 -0.180874 0.982886
0.883987 -0.182963 0.982893
0.880883 -0.183998 0.983246
0.880833 -0.186082 0.983253
0.880783 -0.188166 0.983259
0.87768 -0.18918 0.983613
0.907739 0.36976 0.977926
0.907689 0.367652 0.977932
0.907638 0.365544 0.977939
0.910673 0.363761 0.977589
0.910623 0.361648 0.977596
0.910572 0.359534 0.977602
0.913606 0.35773 0.977253
0.913555 0.355611 0.977259
0.913505 0.353493 0.977266
0.916538 0.351668 0.976916
0.916488 0.349544 0.976923
0.916437 0.34742 0.976929
0.918442 0.345481 0.976698
0.918391 0.343354 0.976705
0.91834 0.341226 0.976712
0.921373 0.339361 0.976362
0.921322 0.337228 0.976369
0.921271 0.335096 0.976375
0.924303 0.333209 0.976026
0.924252 0.331071 0.976033
0.924201 0.328933 0.976039
0.92415 0.326795 0.976046
0.926154 0.324807 0.975815
0.926103 0.322666 0.975822
0.926051 0.320524 0.975829
0.929083 0.318592 0.975479
0.929031 0.316446 0.975486
0.92898 0.314299 0.975493
0.932011 0.312346 0.975143
0.931959 0.310194 0.97515
0.931908 0.308042 0.975157
0.934938 0.306068 0.974808
0.934886 0.303911 0.974814
0.934835 0.301753 0.974821
0.938891 0.299812 0.974353
0.93884 0.297648 0.97436
0.938788 0.295484 0.974367
0.941817 0.293466 0.974018
0.941765 0.291296 0.974025
0.941713 0.289127 0.974031
0.944742 0.287088 0.973682
0.94469 0.284913 0.973689
0.944638 0.282738 0.973696
0.944586 0.280563 0.973703
0.947614 0.278498 0.973354
0.947561 0.276318 0.97336
0.947509 0.274138 0.973367
0.950537 0.272051 0.973018
0.950485 0.269866 0.973025
0.950432 0.267681 0.973032
0.953459 0.265573 0.972683
0.953407 0.263383 0.97269
0.953354 0.261192 0.972697
0.956381 0.259064 0.972348
0.956328 0.256868 0.972355
0.956276 0.254672 0.972362
0.959302 0.252523 0.972013
0.959249 0.250322 0.97202
0.959196 0.24812 0.972027
0.962222 0.24595 0.971678
0.962169 0.243744 0.971685
0.962116 0.241537 0.971692
0.965141 0.239346 0.971344
0.965088 0.237134 0.97135
0.965036 0.234922 0.971357
0.964983 0.232711 0.971364
0.968007 0.230493 0.971016
0.967954 0.228276 0.971023
0.967901 0.226059 0.97103
0.970925 0.22382 0.970681
0.970872 0.221598 0.970688
0.970818 0.219376 0.970695
0.973842 0.217116 0.970347
0.973788 0.214888 0.970354
0.973735 0.212661 0.970361
0.976758 0.21038 0.970012
0.976705 0.208147 0.970019
0.976651 0.205915 0.970026
0.979673 0.203612 0.969678
0.97962 0.201375 0.969685
0.979566 0.199137 0.969692
0.981563 0.196842 0.969462
0.981509 0.1946 0.969469
0.981456 0.192359 0.969476
0.981402 0.190118 0.969483
0.983399 0.187805 0.969254
0.983345 0.18556 0.96926
0.983291 0.183315 0.969267
0.985287 0.180989 0.969038
0.985233 0.178741 0.969045
0.98518 0.176492 0.969052
0.985126 0.174244 0.969059
0.985072 0.171995 0.969066
0.985018 0.169747 0.969073
0.985989 0.167447 0.968961
0.985935 0.165197 0.968968
0.985881 0.162947 0.968975
0.985828 0.160696 0.968982
0.985774 0.158446 0.968989
0.98572 0.156196 0.968996
0.985666 0.153946 0.969003
0.985612 0.151695 0.96901
0.985559 0.149445 0.969017
0.985505 0.147195 0.969024
0.985451 0.144945 0.969031
0.985397 0.142695 0.969038
0.985343 0.140444 0.969045
0.98529 0.138194 0.969052
0.985236 0.135944 0.969059
0.985182 0.133694 0.969066
0.986152 0.131364 0.968955
0.986098 0.129112 0.968962
0.986044 0.12686 0.968969
0.985991 0.124608 0.968976
0.985937 0.122356 0.968983
0.985883 0.120104 0.96899
0.985829 0.117852 0.968997
0.985775 0.1156 0.969004
0.985721 0.113348 0.969011
0.986691 0.111001 0.9689
0.986637 0.108748 0.968907
0.986583 0.106494 0.968913
0.986529 0.10424 0.96892
0.986475 0.101986 0.968927
0.986421 0.0997327 0.968934
0.986368 0.097479 0.968941
0.987337 0.0951179 0.96883
0.987283 0.0928625 0.968837
0.987229 0.090607 0.968844
0.987175 0.0883515 0.968851
0.987121 0.086096 0.968858
0.987067 0.0838405 0.968865
0.988036 0.0814672 0.968754
0.987982 0.07921 0.968761
0.987928 0.0769527 0.968768
0.988897 0.0745724 0.968657
0.988843 0.0723134 0.968664
0.988789 0.0700544 0.968671
0.988735 0.0677954 0.968678
0.988681 0.0655364 0.968685
0.988627 0.0632774 0.968692
0.988573 0.0610184 0.968699
0.988519 0.0587594 0.968706
0.988465 0.0565005 0.968713
0.988411 0.0542415 0.96872
0.988357 0.0519825 0.968727
0.988303 0.0497235 0.968734
0.988249 0.0474645 0.968741
0.988195 0.0452055 0.968748
0.988141 0.0429465 0.968755
0.987065 0.0408369 0.96888
0.987011 0.0385797 0.968887
0.986957 0.0363224 0.968894
0.985881 0.0342199 0.969019
0.985827 0.0319644 0.969026
0.985773 0.0297089 0.969033
0.984697 0.0276133 0.969158
0.984643 0.0253596 0.969165
0.984589 0.0231059 0.969172
0.984535 0.0208521 0.969179
0.98346 0.0187654 0.969304
0.983406 0.0165134 0.969311
0.983352 0.0142614 0.969318
0.981255 0.0123538 0.969561
0.981201 0.0101054 0.969567
0.981147 0.00785689 0.969574
0.979051 0.00596335 0.969817
0.978997 0.0037184 0.969824
0.978943 0.00147343 0.969831
0.977868 -0.000588794 0.969956
0.977815 -0.002832 0.969963
0.977761 -0.00507521 0.96997
0.976686 -0.00713044 0.970095
0.976632 -0.00937189 0.970101
0.976579 -0.0116133 0.970108
0.976525 -0.0138548 0.970115
0.974429 -0.0157062 0.970358
0.974376 -0.0179442 0.970365
0.974322 -0.0201821 0.970372
0.972227 -0.0220195 0.970614
0.972173 -0.024254 0.970621
0.97212 -0.0264884 0.970628
0.970025 -0.0283118 0.970871
0.969971 -0.0305427 0.970878
0.969918 -0.0327737 0.970885
0.967823 -0.034583 0.971127
0.96777 -0.0368104 0.971134
0.967717 -0.0390379 0.971141
0.964602 -0.0406171 0.971501
0.964549 -0.0428393 0.971508
0.964495 -0.0450614 0.971515
0.964442 -0.0472836 0.971522
0.961328 -0.0488366 0.971882
0.961275 -0.0510535 0.971888
0.961222 -0.0532704 0.971895
0.958108 -0.0548023 0.972255
0.958055 -0.0570139 0.972262
0.958002 -0.0592255 0.972269
0.954889 -0.0607364 0.972629
0.954836 -0.0629428 0.972636
0.954783 -0.0651492 0.972643
0.95167 -0.066639 0.973002
0.951618 -0.0688401 0.973009
0.951565 -0.0710412 0.973016
0.947433 -0.0722659 0.973494
0.94738 -0.07446 0.9735
0.947328 -0.0766541 0.973507
0.944216 -0.0781 0.973867
0.944164 -0.0802889 0.973874
0.944111 -0.0824777 0.97388
0.944059 -0.0846666 0.973887
0.939928 -0.0858298 0.974365
0.939876 -0.0880116 0.974371
0.939824 -0.0901935 0.974378
0.935693 -0.0913287 0.974855
0.935641 -0.0935035 0.974862
0.935589 -0.0956783 0.974869
0.93146 -0.0967854 0.975346
0.931408 -0.0989532 0.975352
0.931356 -0.101121 0.975359
0.928247 -0.102472 0.975719
0.928195 -0.104635 0.975725
0.928143 -0.106797 0.975732
0.924015 -0.10785 0.976209
0.923963 -0.110006 0.976216
0.923912 -0.112161 0.976222
0.92386 -0.114317 0.976229
0.920752 -0.115619 0.976588
0.9207 -0.117769 0.976595
0.920649 -0.119919 0.976602
0.917541 -0.1212 0.976961
0.91749 -0.123345 0.976967
0.917439 -0.12549 0.976974
0.914331 -0.12675 0.977333
0.91428 -0.12889 0.97734
0.914229 -0.13103 0.977346
0.911122 -0.132269 0.977706
0.911071 -0.134403 0.977712
0.91102 -0.136538 0.977719
0.906895 -0.13745 0.978195
0.906844 -0.139578 0.978202
0.906793 -0.141705 0.978208
0.906742 -0.143833 0.978215
0.903636 -0.145023 0.978574
0.903586 -0.147145 0.978581
0.903535 -0.149267 0.978587
0.90043 -0.150436 0.978946
0.900379 -0.152553 0.978953
0.900328 -0.15467 0.978959
0.897224 -0.155818 0.979318
0.897173 -0.157929 0.979324
0.897123 -0.160041 0.979331
0.894018 -0.161168 0.97969
0.893968 -0.163274 0.979696
0.893918 -0.16538 0.979703
0.890814 -0.166486 0.980061
0.890764 -0.168587 0.980068
0.890713 -0.170688 0.980074
0.890663 -0.17279 0.980081
0.886542 -0.173528 0.980557
0.886492 -0.175623 0.980563
0.886442 -0.177717 0.98057
0.88334 -0.178773 0.980928
0.88329 -0.180862 0.980935
0.88324 -0.182951 0.980941
0.880138 -0.183987 0.9813
0.880088 -0.18607 0.981306
0.880038 -0.188154 0.981313
0.876937 -0.189168 0.981671
0.906935 0.367664 0.975963
0.906884 0.365556 0.975969
0.909917 0.363773 0.975615
0.909867 0.36166 0.975621
0.909816 0.359546 0.975628
0.912848 0.357742 0.975273
0.912798 0.355623 0.97528
0.912747 0.353505 0.975287
0.915779 0.35168 0.974932
0.915728 0.349556 0.974939
0.915677 0.347432 0.974945
0.917681 0.345493 0.974711
0.91763 0.343366 0.974718
0.91758 0.341238 0.974724
0.92061 0.339373 0.97437
0.920559 0.33724 0.974377
0.920508 0.335108 0.974383
0.923539 0.333221 0.974029
0.923488 0.331083 0.974035
0.923436 0.328945 0.974042
0.923385 0.326807 0.974049
0.925388 0.32482 0.973815
0.925337 0.322678 0.973821
0.925286 0.320537 0.973828
0.928315 0.318605 0.973474
0.928264 0.316458 0.973481
0.928212 0.314311 0.973487
0.931241 0.312358 0.973133
0.93119 0.310206 0.97314
0.931138 0.308054 0.973146
0.934166 0.30608 0.972792
0.934115 0.303923 0.972799
0.934063 0.301766 0.972806
0.938117 0.299824 0.972332
0.938066 0.29766 0.972338
0.938014 0.295496 0.972345
0.941041 0.293478 0.971991
0.940989 0.291308 0.971998
0.940937 0.289139 0.972005
0.943964 0.2871 0.971651
0.943912 0.284925 0.971657
0.94386 0.28275 0.971664
0.943808 0.280576 0.971671
0.946834 0.27851 0.971317
0.946782 0.27633 0.971324
0.94673 0.27415 0.971331
0.949755 0.272064 0.970977
0.949703 0.269879 0.970984
0.949651 0.267693 0.970991
0.952676 0.265586 0.970637
0.952623 0.263395 0.970644
0.952571 0.261205 0.97065
0.955596 0.259076 0.970297
0.955543 0.25688 0.970304
0.955491 0.254685 0.970311
0.958515 0.252535 0.969957
0.958462 0.250334 0.969964
0.958409 0.248133 0.969971
0.961433 0.245962 0.969617
0.96138 0.243756 0.969624
0.961327 0.24155 0.969631
0.96435 0.239358 0.969278
0.964298 0.237146 0.969284
0.964245 0.234935 0.969291
0.964192 0.232723 0.969298
0.967214 0.230505 0.968945
0.967161 0.228288 0.968952
0.967108 0.226072 0.968959
0.97013 0.223833 0.968605
0.970077 0.22161 0.968612
0.970024 0.219388 0.968619
0.973045 0.217128 0.968266
0.972992 0.214901 0.968273
0.972939 0.212674 0.96828
0.97596 0.210393 0.967927
0.975906 0.20816 0.967934
0.975853 0.205927 0.967941
0.978873 0.203625 0.967588
0.97882 0.201387 0.967594
0.978766 0.199149 0.967601
0.980762 0.196855 0.967368
0.980708 0.194613 0.967375
0.980654 0.192372 0.967382
0.980601 0.19013 0.967389
0.982596 0.187818 0.967156
0.982542 0.185573 0.967163
0.982488 0.183328 0.96717
0.984483 0.181002 0.966937
0.984429 0.178753 0.966944
0.984375 0.176505 0.966951
0.984322 0.174256 0.966958
0.984268 0.172008 0.966965
0.984214 0.169759 0.966972
0.985184 0.16746 0.966859
0.985131 0.16521 0.966866
0.985077 0.162959 0.966873
0.985023 0.160709 0.96688
0.984969 0.158459 0.966887
0.984915 0.156209 0.966894
0.984862 0.153958 0.966901
0.984808 0.151708 0.966908
0.984754 0.149458 0.966915
0.9847 0.147208 0.966922
0.984646 0.144958 0.966929
0.984593 0.142707 0.966936
0.984539 0.140457 0.966943
0.984485 0.138207 0.96695
0.984431 0.135957 0.966957
0.984377 0.133706 0.966964
0.985347 0.131377 0.966851
0.985293 0.129125 0.966858
0.985239 0.126873 0.966865
0.985185 0.124621 0.966872
0.985131 0.122369 0.966879
0.985078 0.120117 0.966886
0.985024 0.117865 0.966893
0.98497 0.115613 0.9669
0.984916 0.113361 0.966907
0.985885 0.111014 0.966794
0.985831 0.10876 0.966801
0.985777 0.106507 0.966808
0.985723 0.104253 0.966815
0.985669 0.101999 0.966822
0.985616 0.0997455 0.966829
0.985562 0.0974917 0.966836
0.98653 0.0951307 0.966723
0.986476 0.0928752 0.96673
0.986423 0.0906197 0.966737
0.986369 0.0883642 0.966744
0.986315 0.0861088 0.966751
0.986261 0.0838533 0.966758
0.987229 0.08148 0.966646
0.987175 0.0792227 0.966653
0.987121 0.0769655 0.96666
0.988089 0.0745852 0.966547
0.988035 0.0723262 0.966554
0.987981 0.0700672 0.966561
0.987927 0.0678082 0.966568
0.987873 0.0655492 0.966575
0.987819 0.0632902 0.966582
0.987765 0.0610312 0.966589
0.987711 0.0587722 0.966596
0.987657 0.0565132 0.966603
0.987603 0.0542542 0.96661
0.987549 0.0519952 0.966617
0.987495 0.0497362 0.966624
0.987441 0.0474773 0.966631
0.987387 0.0452183 0.966638
0.987333 0.0429593 0.966645
0.986258 0.0408497 0.966772
0.986204 0.0385924 0.966779
0.98615 0.0363352 0.966786
0.985074 0.0342326 0.966912
0.98502 0.0319771 0.966919
0.984966 0.0297216 0.966926
0.983891 0.0276261 0.967053
0.983837 0.0253723 0.96706
0.983783 0.0231186 0.967067
0.983729 0.0208649 0.967074
0.982654 0.0187781 0.9672
0.982601 0.0165261 0.967207
0.982547 0.0142741 0.967214
0.980451 0.0123666 0.96746
0.980397 0.0101181 0.967467
0.980343 0.0078696 0.967474
0.978248 0.00597605 0.96772
0.978194 0.0037311 0.967727
0.97814 0.00148613 0.967734
0.977066 -0.000576107 0.96786
0.977012 -0.00281932 0.967867
0.976959 -0.00506253 0.967874
0.975884 -0.00711776 0.968001
0.975831 -0.00935921 0.968008
0.975777 -0.0116007 0.968015
0.975724 -0.0138421 0.968021
0.973629 -0.0156936 0.968267
0.973576 -0.0179315 0.968274
0.973522 -0.0201695 0.968281
0.971428 -0.0220069 0.968527
0.971374 -0.0242413 0.968534
0.971321 -0.0264758 0.968541
0.969227 -0.0282992 0.968787
0.969174 -0.0305301 0.968794
0.96912 -0.032761 0.9688
0.967027 -0.0345704 0.969046
0.966974 -0.0367978 0.969053
0.96692 -0.0390253 0.96906
0.963807 -0.0406046 0.969425
0.963754 -0.0428267 0.969432
0.963701 -0.0450489 0.969439
0.963648 -0.047271 0.969446
0.960535 -0.048824 0.969811
0.960482 -0.0510409 0.969817
0.960429 -0.0532578 0.969824
0.957317 -0.0547898 0.970189
0.957264 -0.0570014 0.970196
0.957211 -0.059213 0.970203
0.9541 -0.0607239 0.970568
0.954047 -0.0629303 0.970575
0.953994 -0.0651367 0.970581
0.950883 -0.0666265 0.970946
0.950831 -0.0688277 0.970953
0.950778 -0.0710288 0.97096
0.946648 -0.0722535 0.971444
0.946596 -0.0744476 0.971451
0.946543 -0.0766417 0.971457
0.943433 -0.0780877 0.971822
0.943381 -0.0802765 0.971829
0.943328 -0.0824653 0.971836
0.943276 -0.0846542 0.971842
0.939148 -0.0858175 0.972326
0.939095 -0.0879993 0.972333
0.939043 -0.0901811 0.97234
0.934916 -0.0913164 0.972824
0.934864 -0.0934912 0.97283
0.934812 -0.095666 0.972837
0.930685 -0.0967732 0.973321
0.930633 -0.098941 0.973327
0.930581 -0.101109 0.973334
0.927473 -0.10246 0.973698
0.927422 -0.104623 0.973705
0.92737 -0.106785 0.973712
0.923244 -0.107838 0.974195
0.923192 -0.109993 0.974202
0.923141 -0.112149 0.974209
0.923089 -0.114304 0.974215
0.919983 -0.115607 0.97458
0.919931 -0.117757 0.974586
0.91988 -0.119907 0.974593
0.916774 -0.121188 0.974957
0.916723 -0.123333 0.974964
0.916671 -0.125478 0.97497
0.913566 -0.126738 0.975334
0.913515 -0.128878 0.975341
0.913464 -0.131018 0.975348
0.910358 -0.132257 0.975712
0.910307 -0.134391 0.975718
0.910256 -0.136526 0.975725
0.907152 -0.137744 0.976089
0.907101 -0.139873 0.976095
0.90705 -0.142002 0.976102
0.906999 -0.144131 0.976109
0.903895 -0.145323 0.976472
0.903844 -0.147447 0.976479
0.903794 -0.149571 0.976486
0.90069 -0.150742 0.976849
0.900639 -0.15286 0.976856
0.900589 -0.154979 0.976863
0.897486 -0.156129 0.977226
0.897435 -0.158242 0.977233
0.897385 -0.160355 0.977239
0.894282 -0.161484 0.977603
0.894232 -0.163592 0.977609
0.894182 -0.1657 0.977616
0.89108 -0.166808 0.97798
0.891029 -0.168911 0.977986
0.890979 -0.171014 0.977993
0.890929 -0.173117 0.977999
0.887828 -0.174198 0.978363
0.887777 -0.176295 0.978369
0.887727 -0.178393 0.978376
0.884626 -0.179453 0.978739
0.884576 -0.181546 0.978746
0.884526 -0.183638 0.978752
0.881426 -0.184677 0.979115
0.881376 -0.186764 0.979122
0.881326 -0.188851 0.979128
0.878227 -0.189869 0.979492
0.906181 0.367676 0.973994
0.906131 0.365568 0.974
0.909161 0.363785 0.973641
0.909111 0.361671 0.973647
0.90906 0.359558 0.973654
0.912091 0.357754 0.973294
0.91204 0.355635 0.973301
0.911989 0.353517 0.973307
0.915019 0.351692 0.972948
0.914969 0.349568 0.972954
0.914918 0.347444 0.972961
0.916921 0.345505 0.972724
0.91687 0.343378 0.97273
0.916819 0.34125 0.972737
0.919848 0.339385 0.972378
0.919797 0.337252 0.972384
0.919746 0.33512 0.972391
0.922774 0.333233 0.972032
0.922723 0.331095 0.972038
0.922672 0.328957 0.972045
0.922621 0.326819 0.972051
0.924622 0.324832 0.971814
0.924571 0.32269 0.971821
0.92452 0.320549 0.971828
0.927547 0.318617 0.971468
0.927496 0.31647 0.971475
0.927445 0.314323 0.971482
0.930471 0.31237 0.971123
0.93042 0.310218 0.971129
0.930368 0.308066 0.971136
0.933395 0.306092 0.970777
0.933343 0.303935 0.970784
0.933292 0.301778 0.97079
0.937343 0.299837 0.97031
0.937292 0.297672 0.970316
0.93724 0.295508 0.970323
0.940265 0.29349 0.969964
0.940213 0.291321 0.969971
0.940161 0.289151 0.969978
0.943186 0.287112 0.969619
0.943134 0.284937 0.969626
0.943082 0.282763 0.969633
0.94303 0.280588 0.969639
0.946054 0.278523 0.969281
0.946002 0.276343 0.969287
0.94595 0.274162 0.969294
0.948974 0.272076 0.968936
0.948922 0.269891 0.968942
0.948869 0.267706 0.968949
0.951892 0.265598 0.968591
0.95184 0.263408 0.968597
0.951788 0.261217 0.968604
0.95481 0.259089 0.968246
0.954758 0.256893 0.968252
0.954705 0.254697 0.968259
0.957727 0.252548 0.967901
0.957675 0.250346 0.967908
0.957622 0.248145 0.967914
0.960644 0.245975 0.967556
0.960591 0.243768 0.967563
0.960538 0.241562 0.96757
0.963559 0.239371 0.967212
0.963507 0.237159 0.967218
0.963454 0.234947 0.967225
0.963401 0.232736 0.967232
0.966421 0.230518 0.966874
0.966368 0.228301 0.966881
0.966315 0.226084 0.966888
0.969335 0.223845 0.96653
0.969282 0.221623 0.966536
0.969229 0.219401 0.966543
0.972249 0.217141 0.966185
0.972195 0.214914 0.966192
0.972142 0.212686 0.966199
0.975161 0.210405 0.965841
0.975108 0.208172 0.965848
0.975054 0.20594 0.965855
0.978073 0.203638 0.965497
0.978019 0.2014 0.965504
0.977966 0.199162 0.965511
0.97996 0.196867 0.965275
0.979906 0.194626 0.965282
0.979853 0.192384 0.965288
0.979799 0.190143 0.965295
0.981793 0.187831 0.965059
0.981739 0.185586 0.965066
0.981686 0.183341 0.965073
0.983679 0.181014 0.964837
0.983625 0.178766 0.964844
0.983571 0.176518 0.964851
0.983518 0.174269 0.964858
0.983464 0.172021 0.964865
0.98341 0.169772 0.964872
0.98438 0.167472 0.964757
0.984326 0.165222 0.964764
0.984272 0.162972 0.964771
0.984218 0.160722 0.964778
0.984164 0.158472 0.964785
0.984111 0.156221 0.964792
0.984057 0.153971 0.964799
0.984003 0.151721 0.964806
0.983949 0.149471 0.964813
0.983895 0.14722 0.96482
0.983842 0.14497 0.964827
0.983788 0.14272 0.964834
0.983734 0.14047 0.964841
0.98368 0.13822 0.964848
0.983626 0.135969 0.964855
0.983573 0.133719 0.964862
0.984541 0.13139 0.964747
0.984488 0.129138 0.964754
0.984434 0.126886 0.964761
0.98438 0.124634 0.964768
0.984326 0.122382 0.964775
0.984272 0.12013 0.964782
0.984218 0.117878 0.964789
0.984165 0.115626 0.964796
0.984111 0.113374 0.964803
0.985079 0.111027 0.964689
0.985025 0.108773 0.964696
0.984971 0.106519 0.964703
0.984917 0.104266 0.96471
0.984863 0.102012 0.964717
0.98481 0.0997582 0.964724
0.984756 0.0975045 0.964731
0.985724 0.0951435 0.964616
0.98567 0.092888 0.964623
0.985616 0.0906325 0.96463
0.985562 0.088377 0.964637
0.985508 0.0861215 0.964644
0.985454 0.083866 0.964651
0.986422 0.0814927 0.964537
0.986368 0.0792355 0.964544
0.986314 0.0769783 0.964551
0.987282 0.0745979 0.964437
0.987228 0.0723389 0.964444
0.987173 0.07008 0.964451
0.987119 0.067821 0.964458
0.987065 0.065562 0.964465
0.987011 0.063303 0.964472
0.986957 0.061044 0.964479
0.986903 0.058785 0.964486
0.986849 0.056526 0.964493
0.986795 0.054267 0.9645
0.986741 0.052008 0.964507
0.986687 0.049749 0.964514
0.986633 0.04749 0.964521
0.986579 0.045231 0.964528
0.986525 0.042972 0.964535
0.98545 0.0408624 0.964663
0.985396 0.0386052 0.96467
0.985342 0.036348 0.964677
0.984268 0.0342454 0.964805
0.984214 0.0319899 0.964812
0.98416 0.0297344 0.964819
0.983085 0.0276388 0.964947
0.983031 0.0253851 0.964954
0.982977 0.0231314 0.964961
0.982923 0.0208776 0.964968
0.981849 0.0187908 0.965096
0.981795 0.0165388 0.965103
0.981741 0.0142869 0.96511
0.979647 0.0123793 0.96536
0.979593 0.0101308 0.965367
0.979539 0.00788232 0.965374
0.977445 0.00598875 0.965623
0.977391 0.00374379 0.96563
0.977338 0.00149883 0.965637
0.976264 -0.000563421 0.965765
0.97621 -0.00280663 0.965772
0.976156 -0.00504984 0.965779
0.975083 -0.00710508 0.965907
0.975029 -0.00934654 0.965914
0.974976 -0.011588 0.965921
0.974922 -0.0138294 0.965928
0.972829 -0.0156809 0.966177
0.972775 -0.0179189 0.966184
0.972722 -0.0201568 0.966191
0.970629 -0.0219943 0.96644
0.970575 -0.0242287 0.966447
0.970522 -0.0264631 0.966454
0.968429 -0.0282866 0.966703
0.968376 -0.0305175 0.966709
0.968322 -0.0327484 0.966716
0.96623 -0.0345578 0.966965
0.966177 -0.0367852 0.966972
0.966124 -0.0390127 0.966979
0.963012 -0.040592 0.967349
0.962959 -0.0428141 0.967356
0.962906 -0.0450363 0.967363
0.962853 -0.0472585 0.96737
0.959742 -0.0488115 0.96774
0.959689 -0.0510284 0.967747
0.959636 -0.0532453 0.967753
0.956526 -0.0547772 0.968123
0.956473 -0.0569889 0.96813
0.95642 -0.0592005 0.968137
0.953311 -0.0607115 0.968507
0.953258 -0.0629178 0.968514
0.953205 -0.0651242 0.96852
0.950096 -0.0666141 0.96889
0.950043 -0.0688152 0.968897
0.949991 -0.0710163 0.968904
0.945863 -0.0722411 0.969394
0.945811 -0.0744352 0.969401
0.945759 -0.0766293 0.969408
0.94265 -0.0780753 0.969777
0.942598 -0.0802641 0.969784
0.942546 -0.082453 0.969791
0.942493 -0.0846418 0.969798
0.938367 -0.0858051 0.970288
0.938315 -0.087987 0.970295
0.938263 -0.0901688 0.970302
0.934138 -0.0913041 0.970792
0.934086 -0.0934789 0.970799
0.934034 -0.0956537 0.970805
0.929909 -0.0967609 0.971296
0.929857 -0.0989287 0.971302
0.929806 -0.101097 0.971309
0.9267 -0.102448 0.971678
0.926648 -0.10461 0.971685
0.926596 -0.106773 0.971692
0.922473 -0.107826 0.972182
0.922422 -0.109981 0.972188
0.92237 -0.112137 0.972195
0.922319 -0.114292 0.972202
0.919214 -0.115594 0.972571
0.919162 -0.117745 0.972578
0.919111 -0.119895 0.972584
0.916007 -0.121176 0.972953
0.915956 -0.123321 0.97296
0.915904 -0.125466 0.972967
0.912801 -0.126726 0.973336
0.912749 -0.128866 0.973342
0.912698 -0.131006 0.973349
0.909595 -0.132245 0.973718
0.909544 -0.134379 0.973724
0.909493 -0.136514 0.973731
0.90639 -0.137732 0.9741
0.906339 -0.139861 0.974106
0.906289 -0.14199 0.974113
0.906238 -0.144119 0.97412
0.903136 -0.145311 0.974488
0.903085 -0.147435 0.974495
0.903034 -0.149559 0.974502
0.899932 -0.15073 0.97487
0.899882 -0.152848 0.974877
0.899831 -0.154967 0.974883
0.89673 -0.156117 0.975252
0.89668 -0.15823 0.975259
0.896629 -0.160343 0.975265
0.893529 -0.161472 0.975634
0.893478 -0.16358 0.97564
0.893428 -0.165688 0.975647
0.890328 -0.166796 0.976015
0.890277 -0.168899 0.976022
0.890227 -0.171002 0.976028
0.890177 -0.173105 0.976035
0.887077 -0.174186 0.976403
0.887027 -0.176283 0.97641
0.886977 -0.178381 0.976416
0.883878 -0.179441 0.976785
0.883828 -0.181534 0.976791
0.883778 -0.183626 0.976798
0.88068 -0.184665 0.977166
0.88063 -0.186752 0.977172
0.88058 -0.188839 0.977179
0.877482 -0.189858 0.977547
0.905427 0.367688 0.972024
0.905377 0.36558 0.972031
0.908406 0.363797 0.971666
0.908355 0.361683 0.971673
0.908305 0.35957 0.971679
0.911333 0.357766 0.971315
0.911282 0.355647 0.971322
0.911232 0.353529 0.971328
0.91426 0.351704 0.970964
0.914209 0.34958 0.97097
0.914158 0.347456 0.970977
0.91616 0.345517 0.970736
0.916109 0.34339 0.970743
0.916058 0.341262 0.970749
0.919085 0.339397 0.970385
0.919034 0.337264 0.970392
0.918983 0.335132 0.970399
0.92201 0.333245 0.970034
0.921958 0.331107 0.970041
0.921907 0.328969 0.970048
0.921856 0.326832 0.970054
0.924882 0.324919 0.96969
0.924831 0.322776 0.969697
0.92478 0.320632 0.969703
0.927805 0.318699 0.969339
0.927754 0.31655 0.969346
0.927702 0.314402 0.969353
0.930727 0.312447 0.968989
0.930676 0.310293 0.968996
0.930624 0.30814 0.969002
0.933649 0.306164 0.968638
0.933597 0.304005 0.968645
0.933545 0.301846 0.968652
0.936569 0.299849 0.968288
0.936518 0.297685 0.968295
0.936466 0.29552 0.968301
0.939489 0.293503 0.967938
0.939437 0.291333 0.967944
0.939386 0.289163 0.967951
0.942408 0.287125 0.967587
0.942356 0.28495 0.967594
0.942304 0.282775 0.967601
0.942252 0.2806 0.967608
0.945275 0.278535 0.967244
0.945223 0.276355 0.967251
0.94517 0.274175 0.967258
0.948192 0.272089 0.966894
0.94814 0.269903 0.966901
0.948088 0.267718 0.966908
0.951109 0.265611 0.966544
0.951057 0.26342 0.966551
0.951004 0.261229 0.966558
0.954025 0.259101 0.966194
0.953972 0.256905 0.966201
0.95392 0.254709 0.966208
0.95694 0.25256 0.965845
0.956888 0.250359 0.965851
0.956835 0.248158 0.965858
0.959855 0.245987 0.965495
0.959802 0.243781 0.965502
0.959749 0.241575 0.965509
0.962769 0.239383 0.965146
0.962716 0.237171 0.965152
0.962663 0.23496 0.965159
0.96261 0.232748 0.965166
0.965629 0.23053 0.964803
0.965576 0.228313 0.96481
0.965523 0.226097 0.964817
0.969564 0.22385 0.96433
0.969511 0.221627 0.964337
0.969458 0.219403 0.964344
0.972476 0.217141 0.963981
0.972422 0.214912 0.963988
0.972369 0.212683 0.963995
0.975386 0.2104 0.963632
0.975333 0.208166 0.963639
0.975279 0.205931 0.963646
0.978296 0.203627 0.963283
0.978242 0.201388 0.96329
0.978189 0.199148 0.963297
0.980182 0.196852 0.963057
0.980128 0.194608 0.963064
0.980074 0.192365 0.963071
0.980021 0.190122 0.963078
0.982013 0.187808 0.962839
0.981959 0.185561 0.962846
0.981906 0.183315 0.962853
0.983898 0.180987 0.962613
0.983844 0.178736 0.96262
0.98379 0.176486 0.962627
0.983736 0.174236 0.962634
0.983683 0.171986 0.962641
0.983629 0.169735 0.962648
0.984598 0.167434 0.962532
0.984544 0.165182 0.962539
0.98449 0.16293 0.962546
0.984436 0.160678 0.962553
0.984382 0.158426 0.96256
0.984328 0.156174 0.962567
0.984275 0.153922 0.962574
0.984221 0.15167 0.962581
0.984167 0.149418 0.962588
0.984113 0.147166 0.962595
0.984059 0.144914 0.962602
0.984005 0.142662 0.962609
0.983951 0.14041 0.962616
0.983898 0.138158 0.962623
0.983844 0.135906 0.96263
0.98379 0.133654 0.962637
0.984758 0.131323 0.962521
0.984704 0.129069 0.962528
0.98465 0.126816 0.962535
0.984596 0.124562 0.962542
0.984542 0.122308 0.962549
0.984489 0.120055 0.962556
0.984435 0.117801 0.962563
0.984381 0.115547 0.962569
0.984327 0.113293 0.962576
0.985295 0.110945 0.96246
0.985241 0.108689 0.962467
0.985187 0.106434 0.962474
0.985133 0.104178 0.962481
0.9861 0.101821 0.962365
0.986046 0.0995634 0.962372
0.985992 0.0973062 0.962379
0.98696 0.0949417 0.962263
0.986906 0.0926827 0.96227
0.986852 0.0904237 0.962277
0.986798 0.0881647 0.962284
0.986744 0.0859057 0.962291
0.98669 0.0836467 0.962298
0.987657 0.0812699 0.962182
0.987603 0.0790091 0.962189
0.987549 0.0767484 0.962196
0.988516 0.0743646 0.96208
0.988461 0.0721021 0.962088
0.988407 0.0698396 0.962095
0.988353 0.0675771 0.962102
0.988299 0.0653146 0.962109
0.988245 0.0630521 0.962116
0.988191 0.0607896 0.962123
0.988137 0.0585271 0.96213
0.988083 0.0562646 0.962137
0.988029 0.0540021 0.962144
0.987975 0.0517396 0.962151
0.98792 0.0494771 0.962158
0.987866 0.0472146 0.962165
0.987812 0.0449521 0.962172
0.987758 0.0426896 0.962179
0.986684 0.0405764 0.962309
0.98663 0.0383157 0.962316
0.986576 0.036055 0.962323
0.985501 0.0339489 0.962452
0.985447 0.0316899 0.962459
0.985393 0.0294309 0.962466
0.984319 0.0273318 0.962596
0.984265 0.0250745 0.962603
0.984211 0.0228173 0.96261
0.984157 0.0205601 0.962617
0.983084 0.0184697 0.962747
0.98303 0.0162143 0.962754
0.982976 0.0139588 0.962761
0.980882 0.0120476 0.963014
0.980828 0.00979566 0.963021
0.980775 0.00754367 0.963028
0.978681 0.00564657 0.96328
0.978628 0.0033981 0.963287
0.978574 0.00114963 0.963294
0.976481 -0.000733444 0.963547
0.976427 -0.0029784 0.963553
0.976374 -0.00522336 0.96356
0.975301 -0.00728036 0.96369
0.975247 -0.00952357 0.963697
0.975193 -0.0117668 0.963704
0.97514 -0.01401 0.963711
0.973048 -0.0158632 0.963963
0.972994 -0.0181029 0.96397
0.97294 -0.0203426 0.963977
0.970849 -0.0221819 0.96423
0.970795 -0.0244181 0.964237
0.970742 -0.0266542 0.964244
0.96865 -0.0284795 0.964496
0.968597 -0.0307121 0.964503
0.968544 -0.0329448 0.96451
0.966453 -0.034756 0.964762
0.966399 -0.0369852 0.964769
0.966346 -0.0392143 0.964776
0.962218 -0.0405794 0.965273
0.962165 -0.0428016 0.96528
0.962111 -0.0450237 0.965287
0.960021 -0.0468033 0.965539
0.95895 -0.048799 0.965669
0.958897 -0.0510158 0.965676
0.958844 -0.0532328 0.965682
0.955735 -0.0547647 0.966057
0.955682 -0.0569764 0.966064
0.955629 -0.059188 0.966071
0.952522 -0.060699 0.966446
0.952469 -0.0629053 0.966452
0.952416 -0.0651117 0.966459
0.949309 -0.0666016 0.966834
0.949256 -0.0688028 0.966841
0.949204 -0.0710039 0.966848
0.945079 -0.0722287 0.967345
0.945026 -0.0744228 0.967351
0.944974 -0.0766169 0.967358
0.941868 -0.0780629 0.967733
0.941815 -0.0802517 0.967739
0.941763 -0.0824406 0.967746
0.941711 -0.0846294 0.967753
0.937587 -0.0857928 0.96825
0.937535 -0.0879746 0.968257
0.937483 -0.0901564 0.968264
0.93336 -0.0912918 0.96876
0.933308 -0.0934666 0.968767
0.933256 -0.0956414 0.968774
0.929134 -0.0967487 0.969271
0.929082 -0.0989165 0.969277
0.92903 -0.101084 0.969284
0.925927 -0.102436 0.969658
0.925875 -0.104598 0.969665
0.925823 -0.106761 0.969672
0.921702 -0.107814 0.970168
0.921651 -0.109969 0.970175
0.921599 -0.112125 0.970181
0.921548 -0.11428 0.970188
0.918445 -0.115582 0.970562
0.918393 -0.117733 0.970569
0.918342 -0.119883 0.970576
0.91524 -0.121164 0.970949
0.915189 -0.123309 0.970956
0.915137 -0.125454 0.970963
0.912035 -0.126714 0.971337
0.911984 -0.128854 0.971343
0.911933 -0.130994 0.97135
0.908832 -0.132233 0.971724
0.908781 -0.134367 0.97173
0.90873 -0.136502 0.971737
0.905629 -0.13772 0.972111
0.905578 -0.139849 0.972117
0.905527 -0.141978 0.972124
0.905476 -0.144107 0.972131
0.902376 -0.145299 0.972504
0.902325 -0.147423 0.972511
0.902274 -0.149547 0.972517
0.899175 -0.150718 0.972891
0.899124 -0.152836 0.972898
0.899073 -0.154955 0.972904
0.895974 -0.156105 0.973278
0.895924 -0.158218 0.973284
0.895873 -0.160332 0.973291
0.892775 -0.16146 0.973664
0.892724 -0.163568 0.973671
0.892674 -0.165676 0.973677
0.889576 -0.166784 0.974051
0.889525 -0.168887 0.974057
0.889475 -0.17099 0.974064
0.889425 -0.173093 0.97407
0.886327 -0.174174 0.974444
0.886277 -0.176272 0.97445
0.886227 -0.178369 0.974457
0.88313 -0.179429 0.97483
0.88308 -0.181522 0.974836
0.88303 -0.183614 0.974843
0.879933 -0.184653 0.975216
0.879884 -0.18674 0.975223
0.879834 -0.188828 0.975229
0.876738 -0.189846 0.975602
0.904673 0.3677 0.970055
0.904623 0.365592 0.970061
0.90765 0.363809 0.969692
0.907599 0.361695 0.969699
0.907549 0.359582 0.969705
0.910575 0.357778 0.969336
0.910525 0.355659 0.969342
0.910474 0.353541 0.969349
0.9135 0.351716 0.96898
0.913449 0.349592 0.968986
0.913399 0.347468 0.968993
0.915399 0.345529 0.968749
0.915348 0.343402 0.968755
0.915297 0.341274 0.968762
0.918322 0.339409 0.968393
0.918271 0.337277 0.9684
0.91822 0.335144 0.968406
0.921245 0.333258 0.968037
0.921194 0.33112 0.968044
0.921143 0.328982 0.96805
0.921092 0.326844 0.968057
0.924116 0.324931 0.967688
0.924064 0.322788 0.967695
0.924013 0.320645 0.967701
0.927037 0.318711 0.967332
0.926985 0.316562 0.967339
0.926934 0.314414 0.967346
0.929957 0.312459 0.966977
0.929906 0.310305 0.966984
0.929854 0.308152 0.96699
0.932877 0.306176 0.966622
0.932825 0.304017 0.966628
0.932773 0.301858 0.966635
0.935795 0.299861 0.966266
0.935744 0.297697 0.966273
0.935692 0.295533 0.96628
0.938713 0.293515 0.965911
0.938662 0.291345 0.965918
0.93861 0.289176 0.965924
0.941631 0.287137 0.965556
0.941579 0.284962 0.965563
0.941527 0.282787 0.965569
0.941475 0.280612 0.965576
0.944495 0.278547 0.965208
0.944443 0.276367 0.965214
0.944391 0.274187 0.965221
0.947411 0.272101 0.964853
0.947359 0.269916 0.964859
0.947306 0.26773 0.964866
0.950326 0.265623 0.964498
0.950273 0.263432 0.964505
0.950221 0.261242 0.964511
0.95324 0.259113 0.964143
0.953187 0.256918 0.96415
0.953135 0.254722 0.964157
0.956153 0.252572 0.963788
0.956101 0.250371 0.963795
0.956048 0.24817 0.963802
0.959066 0.246 0.963434
0.959013 0.243793 0.963441
0.95896 0.241587 0.963448
0.961978 0.239396 0.963079
0.961925 0.237184 0.963086
0.961872 0.234972 0.963093
0.961819 0.232761 0.9631
0.964836 0.230543 0.962732
0.964783 0.228326 0.962739
0.96473 0.226109 0.962746
0.968769 0.223863 0.962253
0.968716 0.221639 0.96226
0.968663 0.219415 0.962267
0.971678 0.217154 0.961899
0.971625 0.214924 0.961906
0.971572 0.212695 0.961913
0.974587 0.210413 0.961545
0.974534 0.208178 0.961552
0.97448 0.205944 0.961559
0.977495 0.20364 0.961191
0.977441 0.2014 0.961198
0.977388 0.199161 0.961205
0.979379 0.196864 0.960962
0.979326 0.194621 0.960969
0.979272 0.192378 0.960976
0.979218 0.190135 0.960983
0.98121 0.187821 0.96074
0.981156 0.185574 0.960747
0.981102 0.183327 0.960754
0.983093 0.180999 0.960511
0.983039 0.178749 0.960518
0.982985 0.176499 0.960525
0.982932 0.174249 0.960532
0.982878 0.171998 0.960539
0.982824 0.169748 0.960546
0.983792 0.167447 0.960428
0.983738 0.165195 0.960435
0.983685 0.162943 0.960442
0.983631 0.160691 0.960449
0.983577 0.158439 0.960456
0.983523 0.156187 0.960463
0.983469 0.153935 0.96047
0.983415 0.151683 0.960477
0.983362 0.149431 0.960484
0.983308 0.147179 0.960491
0.983254 0.144927 0.960498
0.9832 0.142675 0.960505
0.983146 0.140423 0.960512
0.983092 0.138171 0.960519
0.983038 0.135919 0.960526
0.982985 0.133667 0.960533
0.983952 0.131336 0.960415
0.983898 0.129082 0.960422
0.983844 0.126828 0.960429
0.98379 0.124575 0.960436
0.983737 0.122321 0.960443
0.983683 0.120067 0.96045
0.983629 0.117814 0.960457
0.983575 0.11556 0.960464
0.983521 0.113306 0.960471
0.984488 0.110957 0.960353
0.984434 0.108702 0.96036
0.98438 0.106446 0.960367
0.984326 0.104191 0.960374
0.985293 0.101833 0.960257
0.985239 0.0995762 0.960264
0.985185 0.0973189 0.960271
0.986152 0.0949544 0.960153
0.986098 0.0926954 0.96016
0.986044 0.0904364 0.960167
0.98599 0.0881774 0.960174
0.985936 0.0859185 0.960181
0.985882 0.0836595 0.960188
0.986848 0.0812827 0.96007
0.986794 0.0790219 0.960078
0.98674 0.0767612 0.960085
0.987706 0.0743774 0.959967
0.987652 0.0721149 0.959974
0.987598 0.0698524 0.959981
0.987544 0.0675899 0.959988
0.98749 0.0653274 0.959995
0.987436 0.0630649 0.960002
0.987382 0.0608024 0.960009
0.987328 0.0585399 0.960016
0.987274 0.0562774 0.960023
0.98722 0.0540149 0.96003
0.987165 0.0517524 0.960037
0.987111 0.0494899 0.960044
0.987057 0.0472274 0.960051
0.987003 0.0449649 0.960058
0.986949 0.0427024 0.960065
0.985875 0.0405892 0.960197
0.985821 0.0383285 0.960204
0.985767 0.0360677 0.960211
0.984694 0.0339616 0.960342
0.98464 0.0317026 0.960349
0.984586 0.0294436 0.960356
0.983512 0.0273445 0.960488
0.983458 0.0250873 0.960495
0.983404 0.0228301 0.960502
0.98335 0.0205728 0.960509
0.982277 0.0184825 0.96064
0.982223 0.016227 0.960647
0.982169 0.0139715 0.960654
0.980077 0.0120604 0.96091
0.980023 0.00980839 0.960917
0.979969 0.00755641 0.960924
0.977877 0.00565928 0.96118
0.977823 0.00341082 0.961187
0.97777 0.00116235 0.961194
0.975678 -0.000720748 0.961449
0.975624 -0.0029657 0.961456
0.975571 -0.00521067 0.961463
0.974498 -0.00726768 0.961595
0.974445 -0.00951089 0.961602
0.974391 -0.0117541 0.961609
0.974338 -0.0139973 0.961615
0.972247 -0.0158506 0.961871
0.972193 -0.0180903 0.961878
0.972139 -0.02033 0.961885
0.970049 -0.0221692 0.962141
0.969996 -0.0244054 0.962148
0.969942 -0.0266416 0.962155
0.967852 -0.0284668 0.96241
0.967799 -0.0306995 0.962417
0.967745 -0.0329322 0.962424
0.965655 -0.0347434 0.96268
0.965602 -0.0369725 0.962686
0.965549 -0.0392017 0.962693
0.962441 -0.0407829 0.963073
0.962388 -0.0430068 0.96308
0.962335 -0.0452307 0.963087
0.959228 -0.0467908 0.963467
0.959175 -0.0490094 0.963474
0.959122 -0.0512281 0.96348
0.959069 -0.0534468 0.963487
0.955962 -0.0549805 0.963867
0.955909 -0.0571939 0.963874
0.955856 -0.0594073 0.963881
0.95275 -0.06092 0.96426
0.952697 -0.0631282 0.964267
0.952645 -0.0653363 0.964274
0.949539 -0.066828 0.964653
0.949487 -0.0690309 0.96466
0.949434 -0.0712337 0.964667
0.945312 -0.0724603 0.965171
0.945259 -0.0746562 0.965178
0.945206 -0.076852 0.965184
0.942102 -0.0782999 0.965564
0.94205 -0.0804904 0.965571
0.941997 -0.0826811 0.965577
0.941945 -0.0848716 0.965584
0.937824 -0.0860368 0.966088
0.937772 -0.0882204 0.966094
0.93772 -0.090404 0.966101
0.933599 -0.0915411 0.966605
0.933547 -0.0937176 0.966611
0.933495 -0.0958942 0.966618
0.929376 -0.0970033 0.967121
0.929324 -0.0991728 0.967128
0.929272 -0.101342 0.967135
0.92617 -0.102696 0.967514
0.926118 -0.10486 0.967521
0.926066 -0.107024 0.967527
0.921948 -0.108079 0.96803
0.921897 -0.110236 0.968037
0.921845 -0.112393 0.968044
0.921793 -0.114551 0.96805
0.918692 -0.115855 0.968429
0.918641 -0.118007 0.968436
0.91859 -0.120159 0.968443
0.915489 -0.121442 0.968822
0.915438 -0.123588 0.968828
0.915386 -0.125735 0.968835
0.912286 -0.126997 0.969214
0.912235 -0.129138 0.96922
0.912184 -0.13128 0.969227
0.909085 -0.132521 0.969606
0.909034 -0.134657 0.969612
0.908982 -0.136793 0.969619
0.905883 -0.138013 0.969998
0.905833 -0.140144 0.970004
0.905782 -0.142275 0.970011
0.905731 -0.144406 0.970018
0.902632 -0.1456 0.970396
0.902581 -0.147725 0.970403
0.902531 -0.149851 0.970409
0.899433 -0.151023 0.970788
0.899382 -0.153144 0.970794
0.899331 -0.155264 0.970801
0.896234 -0.156416 0.971179
0.896183 -0.158531 0.971186
0.896133 -0.160646 0.971193
0.893036 -0.161777 0.971571
0.892986 -0.163886 0.971578
0.892935 -0.165996 0.971584
0.889839 -0.167106 0.971962
0.889789 -0.16921 0.971969
0.889738 -0.171315 0.971975
0.889688 -0.17342 0.971982
0.886592 -0.174503 0.97236
0.886542 -0.176602 0.972367
0.886492 -0.178701 0.972373
