ply
format ascii 1.0
comment Created by Open3D
element vertex 1741
property double x
property double y
property double z
end_header
0.968613 -0.141612 0.8886
0.968593 -0.143897 0.888602
0.968573 -0.146183 0.888604
0.968554 -0.148469 0.888607
0.968534 -0.150754 0.888609
0.968514 -0.15304 0.88861
0.968495 -0.155326 0.888612
0.968475 -0.157611 0.888614
0.968455 -0.159897 0.888616
0.968435 -0.162183 0.888618
0.968416 -0.164468 0.88862
0.968396 -0.166753 0.888621
0.968376 -0.169039 0.888623
0.968356 -0.171325 0.888625
0.968337 -0.17361 0.888627
0.968317 -0.175896 0.88863
0.968297 -0.178182 0.888632
0.968278 -0.180467 0.888633
0.968258 -0.182753 0.888635
0.968238 -0.185039 0.888637
0.968219 -0.187324 0.888639
0.968199 -0.189609 0.888641
0.968179 -0.191896 0.888643
0.968159 -0.194181 0.888645
0.96814 -0.196466 0.888646
0.96812 -0.198752 0.888648
0.9681 -0.201038 0.88865
0.968073 -0.203649 0.888623
0.968054 -0.205937 0.888625
0.968034 -0.208224 0.888626
0.968014 -0.210511 0.888628
0.967994 -0.212799 0.88863
0.967975 -0.215086 0.888632
0.967955 -0.217374 0.888634
0.967935 -0.219661 0.888636
0.967915 -0.221949 0.888638
0.967896 -0.224236 0.888639
0.967876 -0.226523 0.888641
0.967856 -0.228811 0.888644
0.967837 -0.231098 0.888646
0.967817 -0.233385 0.888648
0.972283 0.314581 0.886424
0.97226 0.312389 0.886394
0.97224 0.310125 0.886396
0.97222 0.30786 0.886398
0.972201 0.305596 0.8864
0.972181 0.303331 0.886402
0.972162 0.301066 0.886404
0.972142 0.298802 0.886405
0.972119 0.296596 0.886376
0.972099 0.294329 0.886378
0.97208 0.292063 0.88638
0.972056 0.28985 0.88635
0.972036 0.287581 0.886352
0.972017 0.285313 0.886353
0.971997 0.283045 0.886355
0.971977 0.280777 0.886357
0.971958 0.278509 0.886359
0.971938 0.276241 0.886361
0.971919 0.273972 0.886363
0.971899 0.271705 0.886365
0.971875 0.269474 0.886334
0.971856 0.267203 0.886336
0.971836 0.264934 0.886338
0.971816 0.262664 0.88634
0.971792 0.260424 0.886311
0.971773 0.258153 0.886313
0.971753 0.255881 0.886314
0.971729 0.253634 0.886284
0.971709 0.251361 0.886286
0.97169 0.249088 0.886288
0.97167 0.246814 0.88629
0.971651 0.244541 0.886292
0.971631 0.242268 0.886293
0.971607 0.240008 0.886264
0.971587 0.237733 0.886266
0.971568 0.235458 0.886268
0.971548 0.233183 0.88627
0.971528 0.230908 0.886271
0.971509 0.228633 0.886273
0.971484 0.226361 0.886243
0.971465 0.224085 0.886245
0.971445 0.221807 0.886247
0.971426 0.219531 0.88625
0.971401 0.217251 0.886219
0.971381 0.214972 0.886221
0.971362 0.212693 0.886223
0.971342 0.210415 0.886225
0.971322 0.208136 0.886227
0.971303 0.205857 0.886228
0.971283 0.203579 0.88623
0.971263 0.201301 0.886232
0.971244 0.199022 0.886234
0.971224 0.196743 0.886236
0.971205 0.194465 0.886239
0.971185 0.192186 0.886241
0.971165 0.189907 0.886242
0.971146 0.187629 0.886244
0.971126 0.18535 0.886246
0.971106 0.183072 0.886248
0.971087 0.180793 0.88625
0.971067 0.178514 0.886252
0.971047 0.176236 0.886253
0.971023 0.173921 0.886224
0.971003 0.17164 0.886226
0.970983 0.16936 0.886228
0.970964 0.16708 0.88623
0.970944 0.164799 0.886231
0.970924 0.162519 0.886233
0.970899 0.160192 0.886203
0.97088 0.157909 0.886206
0.97086 0.155627 0.886207
0.97084 0.153345 0.886209
0.970821 0.151062 0.886211
0.970801 0.148781 0.886213
0.970781 0.146499 0.886215
0.970762 0.144217 0.886217
0.970742 0.141934 0.886219
0.970722 0.139653 0.88622
0.970703 0.137371 0.886222
0.970683 0.135088 0.886224
0.970663 0.132806 0.886226
0.970644 0.130524 0.886228
0.970624 0.128242 0.886231
0.97061 0.126033 0.886264
0.97059 0.123753 0.886266
0.97057 0.121473 0.886268
0.970556 0.119272 0.886302
0.970536 0.116992 0.886304
0.970517 0.114714 0.886305
0.970502 0.11252 0.886339
0.970483 0.110243 0.886341
0.970463 0.107966 0.886343
0.970449 0.105778 0.886377
0.970429 0.103503 0.886379
0.97041 0.101229 0.886381
0.97039 0.0989531 0.886382
0.970376 0.0967744 0.886416
0.970356 0.0945011 0.886418
0.970337 0.0922278 0.88642
0.970317 0.0899545 0.886421
0.970298 0.0876812 0.886423
0.970278 0.0854078 0.886425
0.970258 0.0831345 0.886428
0.970239 0.0808612 0.88643
0.970219 0.0785879 0.886432
0.9702 0.0763145 0.886434
0.97018 0.0740412 0.886435
0.97016 0.0717679 0.886437
0.970141 0.0694946 0.886439
0.970115 0.0671021 0.88641
0.970096 0.064827 0.886411
0.970076 0.0625519 0.886413
0.970045 0.0600278 0.886351
0.970025 0.0577493 0.886353
0.970006 0.0554707 0.886355
0.969986 0.0531921 0.886357
0.96996 0.050782 0.886327
0.969941 0.0485017 0.886329
0.969921 0.0462214 0.886331
0.969895 0.0438043 0.886301
0.969876 0.0415222 0.886303
0.969856 0.0392401 0.886305
0.96983 0.036816 0.886275
0.969811 0.0345322 0.886277
0.969791 0.0322483 0.886279
0.969765 0.0298172 0.886249
0.969746 0.0275316 0.886251
0.969726 0.025246 0.886252
0.969706 0.0229604 0.886254
0.969687 0.0206748 0.886257
0.969667 0.0183892 0.886259
0.969641 0.0159458 0.886229
0.969621 0.0136584 0.886231
0.969602 0.0113711 0.886233
0.969582 0.00908369 0.886235
0.969562 0.00679632 0.886237
0.969542 0.00450896 0.886238
0.969523 0.00222161 0.88624
0.969503 -6.57489e-05 0.886242
0.969483 -0.00235312 0.886244
0.969463 -0.00464048 0.886246
0.969444 -0.00692784 0.886248
0.969424 -0.0092152 0.88625
0.969404 -0.0115026 0.886252
0.969385 -0.0137899 0.886254
0.969365 -0.0160773 0.886256
0.969345 -0.0183646 0.886258
0.969325 -0.020652 0.88626
0.969306 -0.0229393 0.886261
0.969286 -0.0252267 0.886263
0.969266 -0.027514 0.886265
0.969246 -0.0298014 0.886267
0.969227 -0.0320888 0.886269
0.969207 -0.0343761 0.886272
0.969187 -0.0366636 0.886273
0.969168 -0.0389509 0.886275
0.969148 -0.0412383 0.886277
0.969128 -0.0435256 0.886279
0.969108 -0.045813 0.886281
0.969089 -0.0481003 0.886282
0.969069 -0.0503877 0.886284
0.969049 -0.0526751 0.886286
0.969029 -0.0549624 0.886288
0.96901 -0.0572498 0.88629
0.96899 -0.0595371 0.886292
0.968977 -0.0616071 0.886326
0.968957 -0.0638927 0.886328
0.968937 -0.0661783 0.88633
0.968918 -0.0684639 0.886332
0.968891 -0.0709739 0.886302
0.968872 -0.0732613 0.886304
0.968852 -0.0755487 0.886305
0.968839 -0.0776063 0.886339
0.968819 -0.0798919 0.886341
0.968799 -0.0821775 0.886343
0.96878 -0.0844632 0.886345
0.96876 -0.0867488 0.886347
0.96874 -0.0890344 0.886349
0.968721 -0.09132 0.886351
0.968701 -0.0936056 0.886353
0.968681 -0.0958912 0.886355
0.968661 -0.0981768 0.886357
0.968642 -0.100463 0.886359
0.968622 -0.102748 0.88636
0.968602 -0.105033 0.886362
0.968582 -0.10732 0.886364
0.968563 -0.109605 0.886366
0.968543 -0.11189 0.886368
0.968523 -0.114176 0.88637
0.968504 -0.116462 0.886372
0.968484 -0.118747 0.886374
0.968464 -0.121032 0.886376
0.968444 -0.123319 0.886378
0.968425 -0.125604 0.88638
0.968405 -0.127889 0.886382
0.968385 -0.130176 0.886383
0.968366 -0.132461 0.886385
0.968346 -0.134746 0.886387
0.968326 -0.137032 0.886389
0.968306 -0.139318 0.886391
0.968287 -0.141603 0.886393
0.968267 -0.143888 0.886395
0.968247 -0.146175 0.886397
0.968228 -0.14846 0.886399
0.968208 -0.150745 0.886401
0.968188 -0.153032 0.886403
0.968168 -0.155317 0.886405
0.968149 -0.157602 0.886407
0.968129 -0.159889 0.886408
0.968109 -0.162174 0.88641
0.96809 -0.164459 0.886412
0.96807 -0.166745 0.886414
0.96805 -0.169031 0.886416
0.96803 -0.171316 0.886419
0.968011 -0.173601 0.88642
0.967991 -0.175888 0.886422
0.967971 -0.178173 0.886424
0.967952 -0.180458 0.886426
0.967932 -0.182745 0.886428
0.967912 -0.18503 0.88643
0.967892 -0.187315 0.886431
0.967873 -0.189601 0.886433
0.967853 -0.191887 0.886435
0.967833 -0.194172 0.886437
0.967813 -0.196457 0.886439
0.967794 -0.198744 0.886442
0.967774 -0.201029 0.886443
0.967747 -0.203641 0.886413
0.967727 -0.205928 0.886415
0.967707 -0.208215 0.886417
0.967688 -0.210502 0.886419
0.967668 -0.21279 0.886421
0.967648 -0.215078 0.886423
0.967629 -0.217365 0.886425
0.967609 -0.219653 0.886427
0.967589 -0.22194 0.886429
0.967569 -0.224227 0.886431
0.96755 -0.226515 0.886433
0.96753 -0.228802 0.886434
0.96751 -0.231089 0.886436
0.96749 -0.233377 0.886438
0.97196 0.31459 0.884239
0.971936 0.312398 0.884207
0.971917 0.310133 0.884209
0.971897 0.307869 0.884211
0.971878 0.305604 0.884213
0.971858 0.303339 0.884215
0.971839 0.301075 0.884217
0.971819 0.298811 0.884218
0.971795 0.296604 0.884187
0.971776 0.294338 0.884189
0.971756 0.292072 0.884191
0.971732 0.289857 0.884159
0.971712 0.28759 0.884161
0.971693 0.285322 0.884162
0.971673 0.283053 0.884164
0.971654 0.280785 0.884166
0.971634 0.278518 0.884169
0.971615 0.276249 0.884171
0.971595 0.273981 0.884173
0.971576 0.271713 0.884175
0.971551 0.269482 0.884142
0.971532 0.267212 0.884144
0.971512 0.264943 0.884146
0.971493 0.262672 0.884148
0.971468 0.260433 0.884117
0.971449 0.258162 0.884118
0.971429 0.255889 0.88412
0.971405 0.253643 0.884089
0.971385 0.25137 0.884091
0.971366 0.249096 0.884093
0.971346 0.246823 0.884095
0.971326 0.24455 0.884096
0.971307 0.242276 0.884098
0.971282 0.240017 0.884067
0.971263 0.237742 0.884069
0.971243 0.235466 0.88407
0.971223 0.233192 0.884072
0.971204 0.230917 0.884074
0.971184 0.228641 0.884076
0.97116 0.22637 0.884045
0.97114 0.224093 0.884046
0.97112 0.221816 0.884048
0.971101 0.21954 0.88405
0.971076 0.217259 0.884019
0.971056 0.214981 0.884021
0.971037 0.212702 0.884022
0.971017 0.210423 0.884024
0.970997 0.208145 0.884026
0.970978 0.205866 0.884028
0.970958 0.203588 0.88403
0.970938 0.201309 0.884032
0.970919 0.199031 0.884034
0.970899 0.196752 0.884035
0.970879 0.194473 0.884037
0.97086 0.192195 0.884039
0.97084 0.189916 0.884041
0.97082 0.187637 0.884043
0.970801 0.185359 0.884046
0.970781 0.183081 0.884048
0.970762 0.180802 0.884049
0.970742 0.178523 0.884051
0.970722 0.176245 0.884053
0.970697 0.173929 0.884022
0.970678 0.171649 0.884023
0.970658 0.169369 0.884025
0.970638 0.167088 0.884027
0.970619 0.164808 0.884029
0.970599 0.162528 0.884031
0.970574 0.1602 0.883999
0.970554 0.157918 0.884001
0.970534 0.155636 0.884003
0.970515 0.153353 0.884005
0.970495 0.151071 0.884007
0.970475 0.14879 0.884008
0.970456 0.146508 0.88401
0.970436 0.144225 0.884012
0.970416 0.141943 0.884015
0.970397 0.139661 0.884017
0.970377 0.137379 0.884019
0.970357 0.135097 0.884021
0.970338 0.132815 0.884022
0.970318 0.130532 0.884024
0.970298 0.12825 0.884026
0.970284 0.126042 0.884061
0.970264 0.123762 0.884063
0.970245 0.121481 0.884065
0.970231 0.11928 0.884101
0.970211 0.117001 0.884102
0.970191 0.114723 0.884104
0.970178 0.112529 0.884141
0.970158 0.110251 0.884142
0.970138 0.107975 0.884144
0.970124 0.105787 0.88418
0.970105 0.103512 0.884181
0.970085 0.101237 0.884183
0.970065 0.0989618 0.884185
0.970052 0.0967831 0.884221
0.970032 0.0945098 0.884222
0.970012 0.0922365 0.884224
0.969993 0.089963 0.884226
0.969973 0.0876897 0.884228
0.969954 0.0854164 0.88423
0.969934 0.0831431 0.884232
0.969914 0.0808697 0.884234
0.969895 0.0785964 0.884236
0.969875 0.0763231 0.884237
0.969855 0.0740498 0.884239
0.969836 0.0717764 0.884241
0.969816 0.0695031 0.884243
0.969791 0.0671106 0.884212
0.969771 0.0648355 0.884214
0.969751 0.0625605 0.884216
0.96972 0.0600365 0.884151
0.9697 0.0577579 0.884153
0.96968 0.0554793 0.884154
0.969661 0.0532007 0.884156
0.969635 0.0507906 0.884124
0.969615 0.0485103 0.884126
0.969596 0.04623 0.884128
0.96957 0.0438129 0.884097
0.96955 0.0415308 0.884099
0.969531 0.0392487 0.884101
0.969505 0.0368247 0.884069
0.969485 0.0345408 0.884071
0.969465 0.0322569 0.884073
0.969439 0.0298258 0.884041
0.96942 0.0275402 0.884043
0.9694 0.0252546 0.884046
0.96938 0.022969 0.884048
0.96936 0.0206834 0.88405
0.969341 0.0183978 0.884051
0.969315 0.0159544 0.88402
0.969295 0.0136671 0.884021
0.969275 0.0113797 0.884023
0.969255 0.00909232 0.884025
0.969236 0.00680496 0.884027
0.969216 0.0045176 0.88403
0.969196 0.00223025 0.884032
0.969177 -5.71167e-05 0.884033
0.969157 -0.00234449 0.884035
0.969137 -0.00463184 0.884037
0.969117 -0.0069192 0.884039
0.969098 -0.00920656 0.884041
0.969078 -0.0114939 0.884043
0.969058 -0.0137813 0.884044
0.969038 -0.0160686 0.884046
0.969019 -0.018356 0.884048
0.968999 -0.0206434 0.884051
0.968979 -0.0229307 0.884053
0.96896 -0.0252181 0.884054
0.96894 -0.0275054 0.884056
0.96892 -0.0297928 0.884058
0.9689 -0.0320801 0.88406
0.968881 -0.0343675 0.884062
0.968861 -0.0366549 0.884064
0.968841 -0.0389423 0.884066
0.968821 -0.0412296 0.884067
0.968802 -0.043517 0.884069
0.968782 -0.0458043 0.884071
0.968762 -0.0480917 0.884074
0.968743 -0.0503791 0.884076
0.968723 -0.0526664 0.884078
0.968703 -0.0549538 0.884079
0.968683 -0.0572411 0.884081
0.968664 -0.0595285 0.884083
0.968651 -0.0615984 0.884119
0.968631 -0.063884 0.884121
0.968611 -0.0661697 0.884122
0.968592 -0.0684552 0.884124
0.968565 -0.0709652 0.884092
0.968545 -0.0732527 0.884095
0.968525 -0.0755401 0.884097
0.968513 -0.0775976 0.884132
0.968493 -0.0798832 0.884133
0.968473 -0.0821689 0.884135
0.968454 -0.0844546 0.884138
0.968434 -0.0867402 0.88414
0.968414 -0.0890257 0.884142
0.968394 -0.0913114 0.884144
0.968375 -0.093597 0.884145
0.968355 -0.0958826 0.884147
0.968335 -0.0981681 0.884149
0.968315 -0.100454 0.884151
0.968296 -0.102739 0.884153
0.968276 -0.105025 0.884155
0.968249 -0.107563 0.884124
0.968229 -0.10985 0.884125
0.96821 -0.112138 0.884127
0.96819 -0.114425 0.884129
0.96817 -0.116712 0.884131
0.96815 -0.119 0.884133
0.968131 -0.121287 0.884135
0.968111 -0.123574 0.884136
0.968091 -0.125861 0.884139
0.968072 -0.12815 0.884141
0.968052 -0.130437 0.884143
0.968032 -0.132724 0.884145
0.968012 -0.135012 0.884147
0.967985 -0.137574 0.884115
0.967966 -0.139864 0.884117
0.967946 -0.142152 0.884119
0.967926 -0.144441 0.884121
0.967906 -0.14673 0.884123
0.967887 -0.14902 0.884125
0.967867 -0.151309 0.884126
0.967847 -0.153597 0.884128
0.967827 -0.155887 0.88413
0.967808 -0.158176 0.884132
0.967788 -0.160465 0.884135
0.967768 -0.162755 0.884137
0.967748 -0.165043 0.884138
0.967729 -0.167332 0.88414
0.967709 -0.169622 0.884142
0.967689 -0.171911 0.884144
0.967669 -0.1742 0.884146
0.96765 -0.176489 0.884148
0.96763 -0.178778 0.884149
0.96761 -0.181067 0.884151
0.96759 -0.183356 0.884154
0.967571 -0.185646 0.884156
0.967551 -0.187935 0.884158
0.967531 -0.190223 0.88416
0.967519 -0.192195 0.884194
0.967499 -0.194483 0.884196
0.96748 -0.19677 0.884198
0.96746 -0.199057 0.8842
0.96744 -0.201345 0.884203
0.967413 -0.203958 0.884171
0.967393 -0.206247 0.884172
0.967373 -0.208537 0.884175
0.967353 -0.210826 0.884177
0.967334 -0.213114 0.884179
0.967314 -0.215404 0.884181
0.967294 -0.217693 0.884183
0.967274 -0.219982 0.884184
0.967255 -0.222272 0.884186
0.967235 -0.224561 0.884188
0.967215 -0.226849 0.88419
0.967195 -0.229138 0.884192
0.967176 -0.231428 0.884193
0.967156 -0.233717 0.884196
0.971637 0.314599 0.882054
0.971613 0.312406 0.88202
0.971594 0.310142 0.882022
0.971574 0.307878 0.882024
0.971555 0.305613 0.882026
0.971535 0.303348 0.882028
0.971516 0.301084 0.88203
0.971496 0.298819 0.882032
0.971472 0.296612 0.881998
0.971452 0.294346 0.882
0.971433 0.29208 0.882002
0.971408 0.289866 0.881969
0.971389 0.287599 0.88197
0.971369 0.28533 0.881972
0.97135 0.283062 0.881974
0.97133 0.280794 0.881976
0.971311 0.278526 0.881978
0.971291 0.276258 0.88198
0.971271 0.27399 0.881982
0.971252 0.271722 0.881984
0.971227 0.269491 0.88195
0.971208 0.267221 0.881952
0.971188 0.264951 0.881954
0.971169 0.262681 0.881956
0.971144 0.260442 0.881922
0.971124 0.258169 0.881924
0.971105 0.255898 0.881926
0.97108 0.253652 0.881893
0.971061 0.251378 0.881895
0.971041 0.249105 0.881896
0.971022 0.246832 0.881899
0.971002 0.244558 0.881901
0.970982 0.242285 0.881903
0.970958 0.240026 0.88187
0.970938 0.23775 0.881871
0.970918 0.235475 0.881873
0.970899 0.233201 0.881875
0.970879 0.230925 0.881877
0.970859 0.22865 0.881879
0.970835 0.226379 0.881845
0.970815 0.224101 0.881847
0.970795 0.221825 0.881849
0.970776 0.219548 0.881851
0.970751 0.217268 0.881817
0.970731 0.214989 0.881819
0.970711 0.21271 0.881821
0.970692 0.210432 0.881824
0.970672 0.208154 0.881826
0.970653 0.205875 0.881828
0.970633 0.203596 0.881829
0.970613 0.201318 0.881831
0.970594 0.199039 0.881833
0.970574 0.19676 0.881835
0.970554 0.194482 0.881837
0.970535 0.192204 0.881839
0.970515 0.189924 0.881841
0.970495 0.187646 0.881842
0.970476 0.185368 0.881844
0.970456 0.183089 0.881846
0.970436 0.18081 0.881848
0.970417 0.178532 0.88185
0.970397 0.176254 0.881852
0.970372 0.173938 0.881819
0.970352 0.171658 0.881821
0.970333 0.169377 0.881823
0.970313 0.167097 0.881825
0.970293 0.164817 0.881827
0.970273 0.162537 0.881828
0.970254 0.160256 0.88183
0.970234 0.157975 0.881832
0.970214 0.155695 0.881834
0.970195 0.153414 0.881836
0.970175 0.151134 0.881838
0.970155 0.148854 0.881839
0.970136 0.146573 0.881842
0.970116 0.144293 0.881844
0.970097 0.142013 0.881846
0.970077 0.139733 0.881848
0.970057 0.137452 0.88185
0.970037 0.135172 0.881852
0.970018 0.132892 0.881853
0.969998 0.130611 0.881855
0.969978 0.128331 0.881857
0.969959 0.126051 0.881859
0.969939 0.12377 0.881861
0.969919 0.12149 0.881863
0.969906 0.119288 0.8819
0.969886 0.11701 0.881902
0.969866 0.114731 0.881904
0.969853 0.112536 0.881941
0.969833 0.11026 0.881943
0.969813 0.107983 0.881945
0.9698 0.105796 0.881982
0.96978 0.10352 0.881984
0.96976 0.101245 0.881986
0.969741 0.0989704 0.881988
0.969727 0.0967917 0.882025
0.969708 0.0945183 0.882027
0.969688 0.092245 0.882029
0.969668 0.0899717 0.882031
0.969649 0.0876984 0.882033
0.969629 0.085425 0.882035
0.96961 0.0831517 0.882037
0.96959 0.0808784 0.882038
0.96957 0.0786051 0.88204
0.969551 0.0763316 0.882042
0.969531 0.0740583 0.882044
0.969512 0.071785 0.882046
0.969492 0.0695117 0.882048
0.969466 0.0671192 0.882015
0.969446 0.0648441 0.882017
0.969427 0.062569 0.882019
0.969395 0.0600451 0.88195
0.969375 0.0577665 0.881952
0.969355 0.0554879 0.881954
0.969336 0.0532094 0.881956
0.96931 0.0507992 0.881922
0.96929 0.0485189 0.881924
0.96927 0.0462385 0.881926
0.969244 0.0438215 0.881893
0.969225 0.0415394 0.881895
0.969205 0.0392573 0.881897
0.969179 0.0368333 0.881864
0.969159 0.0345494 0.881866
0.969139 0.0322656 0.881867
0.969113 0.0298344 0.881835
0.969093 0.0275488 0.881836
0.969074 0.0252632 0.881838
0.969054 0.0229776 0.88184
0.969034 0.020692 0.881842
0.969015 0.0184064 0.881844
0.968988 0.0159631 0.881811
0.968969 0.0136757 0.881813
0.968949 0.0113884 0.881815
0.968929 0.00910096 0.881816
0.968909 0.00681358 0.881818
0.96889 0.00452622 0.88182
0.96887 0.00223887 0.881822
0.96885 -4.84834e-05 0.881824
0.96883 -0.00233586 0.881826
0.968811 -0.00462321 0.881827
0.968791 -0.00691057 0.88183
0.968771 -0.00919793 0.881832
0.968752 -0.0114853 0.881834
0.968732 -0.0137727 0.881836
0.968712 -0.01606 0.881838
0.968692 -0.0183474 0.881839
0.968673 -0.0206347 0.881841
0.968653 -0.0229221 0.881843
0.968633 -0.0252094 0.881845
0.968613 -0.0274968 0.881847
0.968594 -0.0297841 0.881849
0.968574 -0.0320715 0.88185
0.968554 -0.0343589 0.881853
0.968534 -0.0366463 0.881855
0.968515 -0.0389337 0.881857
0.968495 -0.041221 0.881859
0.968475 -0.0435084 0.881861
0.968456 -0.0457957 0.881862
0.968436 -0.0480831 0.881864
0.968416 -0.0503704 0.881866
0.968396 -0.0526578 0.881868
0.968377 -0.0549451 0.88187
0.968357 -0.0572325 0.881872
0.968337 -0.0595198 0.881874
0.968325 -0.0615898 0.881911
0.968305 -0.0638754 0.881913
0.968285 -0.066161 0.881915
0.968265 -0.0684466 0.881917
0.968238 -0.0709566 0.881884
0.968219 -0.0732441 0.881885
0.968199 -0.0755314 0.881887
0.968186 -0.077589 0.881924
0.968167 -0.0798746 0.881927
0.968147 -0.0821602 0.881929
0.968127 -0.0844458 0.881931
0.968108 -0.0867315 0.881932
0.968088 -0.0890171 0.881934
0.968068 -0.0913027 0.881936
0.968048 -0.0935883 0.881938
0.968029 -0.0958739 0.88194
0.968009 -0.0981595 0.881942
0.967989 -0.100445 0.881943
0.96797 -0.10273 0.881945
0.96795 -0.105017 0.881947
0.967923 -0.107554 0.881914
0.967903 -0.109842 0.881916
0.967883 -0.112129 0.881919
0.967864 -0.114416 0.88192
0.967844 -0.116704 0.881922
0.967824 -0.118991 0.881924
0.967804 -0.121278 0.881926
0.967785 -0.123565 0.881928
0.967765 -0.125854 0.88193
0.967745 -0.128141 0.881931
0.967725 -0.130428 0.881933
0.967706 -0.132716 0.881935
0.967686 -0.135003 0.881937
0.967659 -0.137566 0.881905
0.967639 -0.139855 0.881907
0.967619 -0.142143 0.881908
0.967599 -0.144432 0.88191
0.96758 -0.146722 0.881912
0.96756 -0.149011 0.881914
0.96754 -0.1513 0.881916
0.96752 -0.15359 0.881918
0.967501 -0.155878 0.881919
0.967481 -0.158167 0.881921
0.967461 -0.160457 0.881923
0.967442 -0.162746 0.881926
0.967422 -0.165035 0.881928
0.967402 -0.167324 0.88193
0.967382 -0.169613 0.881931
0.967363 -0.171902 0.881933
0.967343 -0.174191 0.881935
0.967323 -0.176481 0.881937
0.967303 -0.178769 0.881939
0.967283 -0.181058 0.881941
0.967264 -0.183348 0.881942
0.967244 -0.185637 0.881944
0.967224 -0.187926 0.881947
0.967205 -0.190215 0.881949
0.967193 -0.192187 0.881986
0.967173 -0.194474 0.881988
0.967153 -0.196761 0.881989
0.967134 -0.199049 0.881991
0.967114 -0.201336 0.881993
0.967086 -0.203949 0.88196
0.967066 -0.206239 0.881962
0.967046 -0.208528 0.881963
0.967027 -0.210817 0.881966
0.967007 -0.213107 0.881968
0.966987 -0.215395 0.88197
0.966968 -0.217684 0.881972
0.966948 -0.219974 0.881974
0.966928 -0.222263 0.881976
0.966908 -0.224552 0.881977
0.966889 -0.22684 0.881979
0.966869 -0.22913 0.881981
0.966849 -0.231419 0.881983
0.966829 -0.233708 0.881985
0.97131 0.314679 0.879832
0.971285 0.312485 0.879796
0.971266 0.310219 0.879798
0.971246 0.307952 0.8798
0.971227 0.305686 0.879802
0.971202 0.303484 0.879766
0.971183 0.301215 0.879768
0.971163 0.298947 0.87977
0.971139 0.296737 0.879736
0.971119 0.294467 0.879738
0.971099 0.292198 0.879739
0.971075 0.28998 0.879704
0.971055 0.287709 0.879706
0.971036 0.285437 0.879708
0.971016 0.283165 0.87971
0.970996 0.280894 0.879711
0.970977 0.278623 0.879713
0.970957 0.276351 0.879715
0.970938 0.274079 0.879717
0.970918 0.271808 0.879719
0.970893 0.269573 0.879684
0.970874 0.2673 0.879686
0.970854 0.265027 0.879688
0.970834 0.262753 0.87969
0.97081 0.26051 0.879655
0.97079 0.258235 0.879656
0.97077 0.255959 0.879658
0.970751 0.253684 0.87966
0.970731 0.25141 0.879662
0.970711 0.249134 0.879664
0.970692 0.246859 0.879666
0.970672 0.244584 0.879669
0.970653 0.24231 0.87967
0.970628 0.240048 0.879635
0.970608 0.237772 0.879637
0.970588 0.235494 0.879639
0.970569 0.233217 0.87964
0.970549 0.230941 0.879642
0.970529 0.228664 0.879644
0.970504 0.226391 0.87961
0.970485 0.224112 0.879611
0.970465 0.221833 0.879613
0.970445 0.219555 0.879615
0.970426 0.217277 0.879617
0.970406 0.214998 0.879619
0.970386 0.212719 0.879621
0.970367 0.210441 0.879623
0.970347 0.208162 0.879625
0.970327 0.205883 0.879626
0.970308 0.203605 0.879628
0.970288 0.201327 0.879631
0.970269 0.199047 0.879633
0.970249 0.196769 0.879635
0.970229 0.194491 0.879637
0.97021 0.192211 0.879638
0.97019 0.189933 0.87964
0.97017 0.187655 0.879642
0.970151 0.185377 0.879644
0.970131 0.183097 0.879646
0.970111 0.180819 0.879648
0.970092 0.178541 0.879649
0.970072 0.176261 0.879651
0.970046 0.173947 0.879617
0.970027 0.171667 0.879619
0.970007 0.169386 0.87962
0.969987 0.167106 0.879622
0.969968 0.164825 0.879624
0.969948 0.162544 0.879626
0.969928 0.160264 0.879628
0.969909 0.157984 0.87963
0.969889 0.155703 0.879632
0.969869 0.153423 0.879633
0.96985 0.151143 0.879635
0.96983 0.148862 0.879638
0.96981 0.146582 0.87964
0.969791 0.144302 0.879642
0.969771 0.142022 0.879644
0.969751 0.139741 0.879646
0.969732 0.137461 0.879647
0.969712 0.135181 0.879649
0.969692 0.1329 0.879651
0.969673 0.13062 0.879653
0.969653 0.12834 0.879655
0.969633 0.126059 0.879657
0.969614 0.123779 0.879658
0.969594 0.121499 0.87966
0.969581 0.119297 0.8797
0.969561 0.117018 0.879702
0.969541 0.11474 0.879703
0.969528 0.112545 0.879742
0.969508 0.110269 0.879744
0.969488 0.107991 0.879746
0.969475 0.105804 0.879785
0.969455 0.103529 0.879787
0.969436 0.101254 0.879789
0.969416 0.0989789 0.879791
0.969397 0.0967039 0.879793
0.969377 0.0944288 0.879794
0.969357 0.0921537 0.879796
0.969338 0.0898786 0.879798
0.969318 0.0876036 0.8798
0.969298 0.0853285 0.879802
0.969279 0.0830534 0.879804
0.969259 0.0807783 0.879806
0.96924 0.0785032 0.879807
0.96922 0.0762282 0.879809
0.9692 0.073953 0.879811
0.969181 0.0716779 0.879813
0.969161 0.0694028 0.879815
0.969135 0.0670086 0.87978
0.969115 0.0647318 0.879782
0.969096 0.0624549 0.879784
0.969063 0.0599293 0.879712
0.969043 0.0576489 0.879714
0.969024 0.0553686 0.879716
0.969004 0.0530883 0.879718
0.968971 0.050545 0.879646
0.968951 0.0482611 0.879648
0.968932 0.0459773 0.87965
0.968905 0.0435567 0.879615
0.968886 0.0412711 0.879617
0.968866 0.0389855 0.879619
0.968839 0.0365579 0.879584
0.96882 0.0342705 0.879586
0.9688 0.0319832 0.879588
0.96878 0.0296958 0.87959
0.968761 0.0274085 0.879592
0.968741 0.0251211 0.879594
0.968721 0.0228338 0.879596
0.968701 0.0205464 0.879598
0.968682 0.0182591 0.879599
0.968655 0.015814 0.879564
0.968635 0.0135248 0.879566
0.968616 0.0112356 0.879568
0.968603 0.00910959 0.879607
0.968583 0.00682222 0.879609
0.968563 0.00453487 0.879611
0.968544 0.00224751 0.879613
0.968524 -3.98513e-05 0.879615
0.968504 -0.00232722 0.879617
0.968484 -0.00461457 0.879619
0.968465 -0.00690193 0.879621
0.968445 -0.00918929 0.879622
0.968425 -0.0114767 0.879624
0.968405 -0.013764 0.879626
0.968386 -0.0160514 0.879628
0.968366 -0.0183387 0.87963
0.968346 -0.0206261 0.879633
0.968326 -0.0229134 0.879634
0.968307 -0.0252008 0.879636
0.968287 -0.0274881 0.879638
0.968267 -0.0297755 0.87964
0.968248 -0.0320629 0.879642
0.968228 -0.0343503 0.879644
0.968208 -0.0366377 0.879645
0.968188 -0.038925 0.879647
0.968169 -0.0412124 0.879649
0.968149 -0.0434997 0.879651
0.968129 -0.0457871 0.879654
0.968109 -0.0480744 0.879656
0.96809 -0.0503618 0.879657
0.96807 -0.0526492 0.879659
0.96805 -0.0549365 0.879661
0.96803 -0.0572239 0.879663
0.968011 -0.0595112 0.879665
0.967998 -0.0615812 0.879704
0.967979 -0.0638668 0.879705
0.967959 -0.0661524 0.879707
0.967939 -0.068438 0.879709
0.967912 -0.070948 0.879675
0.967892 -0.0732355 0.879677
0.967873 -0.0755228 0.879679
0.96786 -0.0775804 0.879717
0.967841 -0.079866 0.879719
0.967821 -0.0821516 0.879721
0.967801 -0.0844372 0.879723
0.967781 -0.0867229 0.879725
0.967762 -0.0890085 0.879727
0.967742 -0.0912941 0.879728
0.967722 -0.0935797 0.87973
0.967703 -0.0958653 0.879732
0.967683 -0.0981509 0.879734
0.967663 -0.100436 0.879736
0.967644 -0.102722 0.879739
0.967624 -0.105008 0.87974
0.967596 -0.107546 0.879705
0.967577 -0.109833 0.879707
0.967557 -0.11212 0.879709
0.967537 -0.114408 0.879711
0.967517 -0.116695 0.879713
0.967498 -0.118982 0.879715
0.967478 -0.121269 0.879716
0.967458 -0.123558 0.879719
0.967439 -0.125845 0.879721
0.967419 -0.128132 0.879723
0.967399 -0.13042 0.879725
0.967379 -0.132707 0.879726
0.96736 -0.134994 0.879728
0.967332 -0.137557 0.879693
0.967312 -0.139846 0.879695
0.967293 -0.142135 0.879698
0.967273 -0.144424 0.8797
0.967253 -0.146713 0.879701
0.967233 -0.149002 0.879703
0.967214 -0.151292 0.879705
0.967194 -0.153581 0.879707
0.967174 -0.155869 0.879709
0.967154 -0.158159 0.879711
0.967135 -0.160448 0.879712
0.967115 -0.162737 0.879714
0.967095 -0.165027 0.879717
0.967075 -0.167315 0.879719
0.967056 -0.169604 0.879721
0.967036 -0.171893 0.879722
0.967016 -0.174183 0.879724
0.966996 -0.176472 0.879726
0.966977 -0.17876 0.879728
0.966957 -0.18105 0.87973
0.966937 -0.183339 0.879732
0.966917 -0.185628 0.879734
0.966898 -0.187918 0.879735
0.966878 -0.190207 0.879738
0.966866 -0.192178 0.879776
0.966847 -0.194465 0.879778
0.966827 -0.196753 0.87978
0.966807 -0.19904 0.879782
0.966787 -0.201327 0.879785
0.966759 -0.203941 0.879749
0.96674 -0.20623 0.879751
0.96672 -0.208519 0.879753
0.9667 -0.210809 0.879755
0.96668 -0.213098 0.879756
0.966661 -0.215386 0.879759
0.966641 -0.217676 0.879761
0.966621 -0.219965 0.879763
0.966601 -0.222254 0.879765
0.966582 -0.224543 0.879767
0.966562 -0.226832 0.879768
0.966542 -0.229121 0.87977
0.966522 -0.23141 0.879772
0.966503 -0.2337 0.879774
0.970987 0.314688 0.877645
0.970962 0.312494 0.877607
0.970942 0.310227 0.877609
0.970923 0.307961 0.877611
0.970903 0.305695 0.877613
0.970879 0.303492 0.877576
0.970859 0.301224 0.877578
0.970839 0.298956 0.87758
0.970815 0.296745 0.877544
0.970795 0.294476 0.877545
0.970775 0.292206 0.877547
0.970751 0.289989 0.87751
0.970731 0.287718 0.877512
0.970711 0.285445 0.877513
0.970692 0.283174 0.877515
0.970672 0.280903 0.877517
0.970653 0.278631 0.877519
0.970633 0.276359 0.877522
0.970613 0.274088 0.877524
0.970594 0.271817 0.877526
0.970569 0.269582 0.877488
0.970549 0.267309 0.87749
0.97053 0.265036 0.877492
0.97051 0.262761 0.877494
0.970485 0.260519 0.877457
0.970465 0.258243 0.877459
0.970446 0.255968 0.877461
0.970426 0.253693 0.877463
0.970406 0.251418 0.877465
0.970387 0.249143 0.877467
0.970367 0.246868 0.877469
0.970348 0.244593 0.877471
0.970328 0.242317 0.877473
0.970303 0.240057 0.877436
0.970283 0.237779 0.877438
0.970263 0.235503 0.87744
0.970244 0.233226 0.877442
0.970224 0.23095 0.877444
0.970205 0.228672 0.877446
0.970179 0.2264 0.877409
0.97016 0.22412 0.877411
0.97014 0.221842 0.877413
0.97012 0.219564 0.877415
0.970101 0.217285 0.877417
0.970081 0.215006 0.877418
0.970061 0.212728 0.87742
0.970042 0.21045 0.877422
0.970022 0.20817 0.877424
0.970002 0.205892 0.877426
0.969983 0.203614 0.877428
0.969963 0.201334 0.87743
0.969943 0.199056 0.877432
0.969924 0.196778 0.877433
0.969904 0.194499 0.877435
0.969884 0.19222 0.877437
0.969865 0.189942 0.87744
0.969845 0.187664 0.877442
0.969825 0.185384 0.877444
0.969806 0.183106 0.877446
0.969786 0.180828 0.877447
0.969766 0.178549 0.877449
0.969747 0.17627 0.877451
0.969721 0.173956 0.877414
0.969701 0.171674 0.877416
0.969682 0.169394 0.877418
0.969662 0.167114 0.87742
0.969642 0.164833 0.877422
0.969623 0.162553 0.877424
0.969603 0.160273 0.877425
0.969583 0.157992 0.877427
0.969564 0.155712 0.877429
0.969544 0.153432 0.877431
0.969524 0.151151 0.877434
0.969505 0.148871 0.877436
0.969485 0.146591 0.877438
0.969465 0.144311 0.877439
0.969446 0.14203 0.877441
0.969426 0.13975 0.877443
0.969406 0.13747 0.877445
0.969387 0.135189 0.877447
0.969367 0.132909 0.877449
0.969347 0.130629 0.87745
0.969328 0.128348 0.877452
0.969308 0.126068 0.877454
0.969288 0.123788 0.877456
0.969269 0.121508 0.877458
0.969255 0.119305 0.877498
0.969236 0.117027 0.8775
0.969216 0.114749 0.877503
0.969203 0.112554 0.877544
0.969183 0.110277 0.877545
0.969164 0.108 0.877547
0.96915 0.105813 0.877588
0.969131 0.103538 0.87759
0.969111 0.101262 0.877592
0.969092 0.0989875 0.877593
0.969072 0.0967124 0.877595
0.969052 0.0944374 0.877597
0.969033 0.0921623 0.877599
0.969013 0.0898872 0.877601
0.968993 0.0876121 0.877603
0.968974 0.085337 0.877605
0.968954 0.083062 0.877606
0.968935 0.0807869 0.877608
0.968915 0.0785118 0.87761
0.968895 0.0762367 0.877612
0.968876 0.0739616 0.877614
0.968856 0.0716866 0.877616
0.968836 0.0694115 0.877618
0.96881 0.0670172 0.877582
0.96879 0.0647403 0.877584
0.968771 0.0624635 0.877585
0.968737 0.0599379 0.87751
0.968718 0.0576575 0.877512
0.968698 0.0553772 0.877514
0.968678 0.0530969 0.877515
0.968645 0.0505536 0.877441
0.968625 0.0482697 0.877443
0.968606 0.0459859 0.877444
0.968579 0.0435654 0.877407
0.968559 0.0412798 0.877409
0.96854 0.0389942 0.877412
0.968513 0.0365665 0.877375
0.968493 0.0342792 0.877377
0.968474 0.0319918 0.877379
0.968454 0.0297045 0.877381
0.968434 0.0274171 0.877383
0.968414 0.0251297 0.877384
0.968395 0.0228424 0.877386
0.968375 0.020555 0.877388
0.968355 0.0182677 0.877391
0.968328 0.0158225 0.877354
0.968309 0.0135334 0.877356
0.968289 0.0112443 0.877357
0.968269 0.00895521 0.877359
0.968249 0.0066661 0.877361
0.96823 0.00437698 0.877363
0.96821 0.00208786 0.877366
0.96819 -0.000201257 0.877368
0.96817 -0.00249037 0.877369
0.968151 -0.00477949 0.877371
0.968131 -0.00706859 0.877373
0.968111 -0.00935771 0.877375
0.968091 -0.0116468 0.877377
0.968072 -0.0139359 0.877379
0.968052 -0.016225 0.87738
0.968032 -0.0185141 0.877382
0.968012 -0.0208032 0.877384
0.967993 -0.0230924 0.877387
0.96798 -0.0251922 0.877427
0.967961 -0.0274795 0.877428
0.967941 -0.0297669 0.87743
0.967921 -0.0320542 0.877433
0.967901 -0.0343417 0.877435
0.967882 -0.036629 0.877437
0.967862 -0.0389164 0.877439
0.967842 -0.0412037 0.87744
0.967822 -0.0434911 0.877442
0.967803 -0.0457784 0.877444
0.967783 -0.0480658 0.877446
0.967763 -0.0503531 0.877448
0.967744 -0.0526405 0.87745
0.967724 -0.0549279 0.877452
0.967697 -0.0574291 0.877415
0.967677 -0.0597183 0.877417
0.967665 -0.0617899 0.877458
0.967645 -0.0640773 0.87746
0.967625 -0.0663646 0.877462
0.967605 -0.068652 0.877464
0.967586 -0.0709393 0.877465
0.967566 -0.0732268 0.877467
0.967546 -0.0755142 0.877469
0.967526 -0.0778015 0.877471
0.967507 -0.0800889 0.877473
0.967487 -0.0823762 0.877475
0.967467 -0.0846636 0.877477
0.967448 -0.0869509 0.877479
0.967428 -0.0892383 0.877481
0.967408 -0.0915257 0.877483
0.967388 -0.093813 0.877485
0.967369 -0.0961004 0.877487
0.967349 -0.0983877 0.877488
0.967329 -0.100675 0.87749
0.967309 -0.102962 0.877492
0.96729 -0.10525 0.877494
0.967262 -0.107789 0.877458
0.967242 -0.110078 0.877459
0.967223 -0.112368 0.877461
0.967203 -0.114657 0.877463
0.967183 -0.116946 0.877465
0.967163 -0.119235 0.877468
0.967144 -0.121524 0.87747
0.967124 -0.123813 0.877471
0.967104 -0.126103 0.877473
0.967084 -0.128392 0.877475
0.967057 -0.13095 0.877439
0.967037 -0.133242 0.877441
0.967017 -0.135532 0.877442
0.966989 -0.138099 0.877406
0.966969 -0.140391 0.877408
0.96695 -0.142684 0.87741
0.96693 -0.144977 0.877412
0.96691 -0.147269 0.877414
0.96689 -0.149562 0.877415
0.966871 -0.151854 0.877417
0.966851 -0.154147 0.877419
0.966831 -0.15644 0.877421
0.966811 -0.158732 0.877423
0.966792 -0.161025 0.877425
0.966772 -0.163318 0.877427
0.966752 -0.16561 0.877429
0.966732 -0.167903 0.877431
0.966712 -0.170195 0.877433
0.966693 -0.172488 0.877435
0.966673 -0.174781 0.877436
0.966653 -0.177073 0.877438
0.966633 -0.179366 0.87744
0.966614 -0.181658 0.877443
0.966594 -0.183951 0.877445
0.966582 -0.185932 0.877485
0.966563 -0.188222 0.877487
0.966543 -0.190513 0.877488
0.966532 -0.192487 0.877529
0.966512 -0.194776 0.877531
0.966492 -0.197065 0.877533
0.966472 -0.199354 0.877535
0.966453 -0.201644 0.877537
0.966424 -0.204258 0.8775
0.966404 -0.20655 0.877502
0.966385 -0.20884 0.877504
0.966365 -0.211131 0.877506
0.966345 -0.213423 0.877508
0.966325 -0.215713 0.877509
0.966306 -0.218004 0.877511
0.966286 -0.220294 0.877513
0.966266 -0.222586 0.877516
0.966246 -0.224876 0.877518
0.966227 -0.227167 0.877519
0.966207 -0.229459 0.877521
0.966187 -0.231749 0.877523
0.966167 -0.23404 0.877525
0.970663 0.314697 0.875457
0.970638 0.312502 0.875418
0.970619 0.310236 0.87542
0.970599 0.30797 0.875422
0.97058 0.305704 0.875424
0.970555 0.3035 0.875385
0.970535 0.301233 0.875387
0.970516 0.298964 0.875389
0.970491 0.296754 0.875351
0.970471 0.294485 0.875352
0.970451 0.292214 0.875354
0.970427 0.289998 0.875317
0.970407 0.287726 0.875319
0.970387 0.285454 0.87532
0.970368 0.283183 0.875322
0.970348 0.280912 0.875324
0.970328 0.278639 0.875326
0.970309 0.276368 0.875328
0.970289 0.274097 0.87533
0.97027 0.271825 0.875332
0.970244 0.26959 0.875293
0.970225 0.267317 0.875295
0.970205 0.265043 0.875297
0.970186 0.26277 0.875299
0.97016 0.260526 0.87526
0.970141 0.258252 0.875262
0.970121 0.255977 0.875264
0.970101 0.253702 0.875266
0.970082 0.251426 0.875268
0.970062 0.249152 0.875269
0.970042 0.246877 0.875271
0.970023 0.244601 0.875274
0.970003 0.242326 0.875276
0.969978 0.240065 0.875237
0.969958 0.237788 0.875239
0.969939 0.235512 0.875241
0.969919 0.233235 0.875243
0.969899 0.230958 0.875245
0.96988 0.228681 0.875247
0.969854 0.226407 0.875208
0.969834 0.224129 0.87521
0.969815 0.221851 0.875212
0.969795 0.219573 0.875214
0.969775 0.217293 0.875215
0.969756 0.215015 0.875218
0.969736 0.212737 0.87522
0.969716 0.210457 0.875222
0.969697 0.208179 0.875224
0.969677 0.205901 0.875226
0.969657 0.203622 0.875227
0.969638 0.201343 0.875229
0.969618 0.199065 0.875231
0.969599 0.196787 0.875233
0.969579 0.194507 0.875235
0.969559 0.192229 0.875237
0.96954 0.189951 0.875239
0.96952 0.187672 0.87524
0.9695 0.185393 0.875242
0.969481 0.183115 0.875244
0.969461 0.180836 0.875246
0.969441 0.178557 0.875249
0.969422 0.176279 0.875251
0.969402 0.174 0.875253
0.969382 0.171722 0.875254
0.969363 0.169443 0.875256
0.969343 0.167165 0.875258
0.969323 0.164886 0.87526
0.969304 0.162607 0.875262
0.969284 0.160329 0.875264
0.969264 0.15805 0.875266
0.969245 0.155772 0.875267
0.969225 0.153493 0.875269
0.969205 0.151214 0.875271
0.969186 0.148936 0.875273
0.969166 0.146658 0.875275
0.969146 0.144378 0.875277
0.969127 0.1421 0.875279
0.969107 0.139822 0.875281
0.969088 0.137543 0.875283
0.969068 0.135264 0.875285
0.969048 0.132986 0.875287
0.969029 0.130708 0.875289
0.969009 0.128428 0.875291
0.968989 0.12615 0.875292
0.96897 0.123872 0.875294
0.96895 0.121592 0.875296
0.96893 0.119314 0.875298
0.968911 0.117036 0.8753
0.968891 0.114758 0.875302
0.968878 0.112562 0.875344
0.968858 0.110286 0.875346
0.968839 0.108009 0.875348
0.968826 0.105822 0.875391
0.968806 0.103546 0.875393
0.968787 0.101271 0.875394
0.968767 0.0989961 0.875396
0.968747 0.096721 0.875398
0.968728 0.0944459 0.8754
0.968708 0.0921708 0.875402
0.968688 0.0898958 0.875404
0.968669 0.0876207 0.875406
0.968649 0.0853456 0.875407
0.968629 0.0830705 0.875409
0.96861 0.0807954 0.875411
0.96859 0.0785204 0.875413
0.968571 0.0762453 0.875415
0.968551 0.0739702 0.875417
0.968531 0.0716951 0.875419
0.968512 0.0694201 0.875421
0.968485 0.0670259 0.875383
0.968465 0.064749 0.875384
0.968446 0.0624721 0.875386
0.968412 0.0599465 0.875307
0.968392 0.0576661 0.875309
0.968373 0.0553858 0.875311
0.968353 0.0531055 0.875314
0.968319 0.0505622 0.875235
0.9683 0.0482783 0.875237
0.96828 0.0459945 0.875239
0.968253 0.043574 0.875201
0.968233 0.0412884 0.875203
0.968214 0.0390028 0.875205
0.968187 0.0365751 0.875165
0.968167 0.0342878 0.875167
0.968147 0.0320004 0.87517
0.968128 0.0297131 0.875172
0.968108 0.0274257 0.875174
0.968088 0.0251384 0.875176
0.968068 0.022851 0.875177
0.968049 0.0205637 0.875179
0.968029 0.0182763 0.875181
0.968002 0.0158311 0.875143
0.967982 0.013542 0.875145
0.967962 0.0112529 0.875147
0.967943 0.00896385 0.875149
0.967923 0.00667473 0.87515
0.967903 0.00438561 0.875152
0.967883 0.00209651 0.875154
0.967864 -0.000192612 0.875157
0.967844 -0.00248173 0.875159
0.967824 -0.00477085 0.87516
0.967804 -0.00705995 0.875162
0.967785 -0.00934907 0.875164
0.967765 -0.0116382 0.875166
0.967745 -0.0139273 0.875168
0.967725 -0.0162164 0.87517
0.967706 -0.0185055 0.875172
0.967686 -0.0207947 0.875173
0.967666 -0.0230838 0.875175
0.967654 -0.0251835 0.875218
0.967634 -0.0274709 0.87522
0.967614 -0.0297582 0.875222
0.967595 -0.0320456 0.875224
0.967575 -0.034333 0.875225
0.967555 -0.0366204 0.875227
0.967535 -0.0389078 0.875229
0.967516 -0.0411951 0.875231
0.967496 -0.0434825 0.875233
0.967476 -0.0457698 0.875236
0.967457 -0.0480572 0.875237
0.967437 -0.0503445 0.875239
0.967417 -0.0526319 0.875241
0.967397 -0.0549192 0.875243
0.96737 -0.0574204 0.875205
0.96735 -0.0597096 0.875206
0.967338 -0.0617813 0.875248
0.967318 -0.0640686 0.87525
0.967299 -0.066356 0.875252
0.967279 -0.0686434 0.875254
0.967259 -0.0709307 0.875257
0.96724 -0.0732181 0.875259
0.96722 -0.0755055 0.87526
0.9672 -0.0777929 0.875262
0.96718 -0.0800802 0.875264
0.967161 -0.0823676 0.875266
0.967141 -0.0846549 0.875268
0.967121 -0.0869423 0.875269
0.967101 -0.0892296 0.875271
0.967082 -0.091517 0.875273
0.967062 -0.0938044 0.875275
0.967042 -0.0960917 0.875278
0.967023 -0.0983791 0.87528
0.967003 -0.100666 0.875281
0.966983 -0.102954 0.875283
0.966963 -0.105241 0.875285
0.966935 -0.107781 0.875247
0.966916 -0.11007 0.875249
0.966896 -0.112359 0.875251
0.966876 -0.114648 0.875252
0.966856 -0.116938 0.875254
0.966837 -0.119227 0.875256
0.966817 -0.121515 0.875258
0.966797 -0.123805 0.875261
0.966778 -0.126094 0.875263
0.966758 -0.128383 0.875264
0.96673 -0.130942 0.875226
0.96671 -0.133233 0.875228
0.96669 -0.135523 0.87523
0.966662 -0.13809 0.875191
0.966642 -0.140382 0.875193
0.966622 -0.142676 0.875195
0.966603 -0.144968 0.875197
0.966583 -0.14726 0.8752
0.966563 -0.149553 0.875201
0.966543 -0.151846 0.875203
0.966524 -0.154138 0.875205
0.966504 -0.156431 0.875207
0.966484 -0.158724 0.875209
0.966464 -0.161016 0.875211
0.966444 -0.163309 0.875212
0.966425 -0.165602 0.875214
0.966405 -0.167894 0.875217
0.966385 -0.170186 0.875219
0.966365 -0.17248 0.875221
0.966346 -0.174772 0.875222
0.966326 -0.177064 0.875224
0.966306 -0.179357 0.875226
0.966286 -0.18165 0.875228
0.966266 -0.183942 0.87523
0.966255 -0.185923 0.875272
0.966236 -0.188213 0.875274
0.966216 -0.190505 0.875276
0.966205 -0.192478 0.875318
0.966185 -0.194767 0.87532
0.966165 -0.197056 0.875322
0.966146 -0.199346 0.875324
0.966126 -0.201635 0.875326
0.966097 -0.20425 0.875288
0.966078 -0.206541 0.875289
0.966058 -0.208831 0.875291
0.966038 -0.211123 0.875293
0.966018 -0.213414 0.875295
0.965999 -0.215704 0.875298
0.965979 -0.217995 0.875299
0.965959 -0.220286 0.875301
0.965939 -0.222577 0.875303
0.965919 -0.224867 0.875305
0.9659 -0.227159 0.875307
0.96588 -0.22945 0.875309
0.96586 -0.23174 0.87531
0.96584 -0.234032 0.875312
0.970304 0.312652 0.873145
0.970284 0.310381 0.873147
0.970265 0.308112 0.873149
0.970245 0.305842 0.873151
0.97022 0.303635 0.873111
0.9702 0.301364 0.873113
0.970181 0.299093 0.873115
0.970155 0.296879 0.873074
0.970136 0.294606 0.873076
0.970116 0.292333 0.873078
0.970091 0.290111 0.873039
0.970071 0.287837 0.87304
0.970052 0.285562 0.873042
0.970032 0.283286 0.873044
0.970012 0.281011 0.873046
0.969993 0.278737 0.873048
0.969973 0.276461 0.87305
0.969953 0.274186 0.873052
0.969934 0.271911 0.873053
0.969908 0.269673 0.873013
0.969889 0.267396 0.873015
0.969869 0.26512 0.873018
0.969849 0.262842 0.873019
0.96983 0.260565 0.873021
0.96981 0.258289 0.873023
0.96979 0.256011 0.873025
0.969771 0.253735 0.873027
0.969751 0.251458 0.873029
0.969731 0.249181 0.87303
0.969712 0.246904 0.873032
0.969692 0.244628 0.873034
0.969673 0.242351 0.873036
0.969647 0.240088 0.872996
0.969627 0.23781 0.872998
0.969608 0.235531 0.873
0.969588 0.233252 0.873002
0.969568 0.230974 0.873004
0.969549 0.228695 0.873006
0.969529 0.226416 0.873008
0.969509 0.224138 0.873009
0.96949 0.22186 0.873011
0.96947 0.219581 0.873013
0.96945 0.217302 0.873015
0.969431 0.215024 0.873017
0.969411 0.212745 0.873019
0.969391 0.210466 0.873021
0.969372 0.208188 0.873022
0.969352 0.205909 0.873025
0.969332 0.203631 0.873027
0.969313 0.201352 0.873029
0.969293 0.199074 0.873031
0.969273 0.196795 0.873033
0.969254 0.194516 0.873035
0.969234 0.192238 0.873036
0.969214 0.189959 0.873038
0.969195 0.187681 0.87304
0.969175 0.185402 0.873042
0.969155 0.183123 0.873044
0.969136 0.180845 0.873046
0.969116 0.178566 0.873047
0.969096 0.176287 0.873049
0.969077 0.174009 0.873051
0.969057 0.171731 0.873053
0.969037 0.169452 0.873055
0.969018 0.167173 0.873058
0.968998 0.164895 0.87306
0.968979 0.162616 0.873061
0.968959 0.160337 0.873063
0.968939 0.158059 0.873065
0.96892 0.155781 0.873067
0.9689 0.153501 0.873069
0.96888 0.151223 0.873071
0.968861 0.148945 0.873073
0.968841 0.146666 0.873075
0.968821 0.144387 0.873076
0.968802 0.142109 0.873078
0.968782 0.139831 0.87308
0.968762 0.137551 0.873082
0.968743 0.135273 0.873084
0.968723 0.132995 0.873086
0.968703 0.130715 0.873088
0.968684 0.128437 0.87309
0.968664 0.126159 0.873092
0.968644 0.12388 0.873094
0.968625 0.121601 0.873096
0.968605 0.119323 0.873098
0.968585 0.117045 0.873099
0.968566 0.114765 0.873101
0.968553 0.112571 0.873145
0.968533 0.110294 0.873147
0.968514 0.108018 0.873149
0.968501 0.105829 0.873193
0.968482 0.103555 0.873195
0.968462 0.10128 0.873197
0.968442 0.0990047 0.873199
0.968423 0.0967297 0.873201
0.968403 0.0944546 0.873203
0.968383 0.0921795 0.873205
0.968364 0.0899044 0.873207
0.968344 0.0876292 0.873208
0.968324 0.0853542 0.87321
0.968305 0.0830791 0.873212
0.968285 0.080804 0.873214
0.968266 0.0785289 0.873216
0.968246 0.0762539 0.873218
0.968226 0.0739788 0.87322
0.968207 0.0717037 0.873221
0.968187 0.0694286 0.873223
0.96816 0.0670344 0.873183
0.968141 0.0647576 0.873185
0.968121 0.0624808 0.873187
0.968087 0.0599551 0.873105
0.968067 0.0576747 0.873107
0.968047 0.0553944 0.87311
0.968028 0.053114 0.873112
0.967993 0.0505708 0.873029
0.967974 0.048287 0.873031
0.967954 0.0460031 0.873033
0.967927 0.0435826 0.872993
0.967907 0.041297 0.872995
0.967887 0.0390114 0.872997
0.96786 0.0365838 0.872957
0.967841 0.0342964 0.872959
0.967821 0.0320091 0.87296
0.967801 0.0297217 0.872962
0.967781 0.0274344 0.872964
0.967762 0.025147 0.872966
0.967742 0.0228597 0.872968
0.967722 0.0205723 0.872971
0.967702 0.018285 0.872973
0.967675 0.0158398 0.872932
0.967655 0.0135507 0.872934
0.967636 0.0112616 0.872936
0.967616 0.00897249 0.872938
0.967596 0.00668338 0.87294
0.967576 0.00439426 0.872942
0.967557 0.00210514 0.872943
0.967537 -0.000183975 0.872945
0.967517 -0.00247309 0.872947
0.967497 -0.0047622 0.87295
0.967478 -0.00705132 0.872952
0.967458 -0.00934043 0.872953
0.967438 -0.0116295 0.872955
0.967418 -0.0139186 0.872957
0.967399 -0.0162077 0.872959
0.967379 -0.0184968 0.872961
0.967359 -0.020786 0.872963
0.967339 -0.0230752 0.872964
0.967327 -0.0251749 0.873008
0.967308 -0.0274622 0.87301
0.967288 -0.0297496 0.873012
0.967268 -0.032037 0.873015
0.967249 -0.0343244 0.873017
0.967229 -0.0366118 0.873019
0.967209 -0.0388991 0.87302
0.967189 -0.0411865 0.873022
0.96717 -0.0434738 0.873024
0.96715 -0.0457612 0.873026
0.96713 -0.0480485 0.873028
0.96711 -0.0503359 0.873029
0.967091 -0.0526233 0.873031
0.967071 -0.0549106 0.873033
0.967043 -0.0574119 0.872994
0.967023 -0.059701 0.872996
0.967012 -0.0617727 0.87304
0.966992 -0.06406 0.873041
0.966972 -0.0663474 0.873043
0.966953 -0.0686347 0.873045
0.966933 -0.0709222 0.873047
0.966913 -0.0732095 0.873049
0.966893 -0.0754969 0.873051
0.966874 -0.0777842 0.873053
0.966854 -0.0800716 0.873054
0.966834 -0.082359 0.873056
0.966815 -0.0846463 0.873059
0.966795 -0.0869337 0.873061
0.966775 -0.089221 0.873063
0.966755 -0.0915084 0.873065
0.966736 -0.0937957 0.873066
0.966716 -0.0960831 0.873068
0.966696 -0.0983704 0.87307
0.966676 -0.100658 0.873072
0.966657 -0.102945 0.873074
0.966637 -0.105232 0.873076
0.966609 -0.107773 0.873036
0.966589 -0.110061 0.873038
0.966569 -0.11235 0.87304
0.96655 -0.11464 0.873042
0.96653 -0.116929 0.873044
0.96651 -0.119218 0.873045
0.96649 -0.121507 0.873047
0.966471 -0.123796 0.873049
0.966451 -0.126085 0.873052
0.966431 -0.128375 0.873054
0.966403 -0.130933 0.873013
0.966383 -0.133224 0.873015
0.966363 -0.135516 0.873017
0.966335 -0.138081 0.872978
0.966315 -0.140374 0.872979
0.966295 -0.142667 0.872981
0.966276 -0.144959 0.872983
0.966256 -0.147251 0.872985
0.966236 -0.149545 0.872987
0.966216 -0.151837 0.872989
0.966196 -0.154129 0.87299
0.966177 -0.156423 0.872993
0.966157 -0.158715 0.872995
0.966137 -0.161007 0.872997
0.966117 -0.163301 0.872999
0.966098 -0.165593 0.873
0.966078 -0.167885 0.873002
0.966058 -0.170179 0.873004
0.966038 -0.172471 0.873006
0.966018 -0.174763 0.873008
0.965999 -0.177055 0.873011
0.965979 -0.179349 0.873012
0.965959 -0.181641 0.873014
0.965939 -0.183933 0.873016
0.965928 -0.185914 0.873059
0.965909 -0.188205 0.873062
0.965889 -0.190496 0.873064
0.965878 -0.192469 0.873107
0.965858 -0.194758 0.873109
0.965839 -0.197048 0.873111
0.965819 -0.199337 0.873113
0.965799 -0.201626 0.873115
0.96577 -0.204241 0.873075
0.965751 -0.206532 0.873077
0.965731 -0.208824 0.873078
0.965711 -0.211114 0.873081
0.965691 -0.213405 0.873083
0.965672 -0.215695 0.873085
0.965652 -0.217987 0.873087
0.965632 -0.220277 0.873088
0.965612 -0.222568 0.87309
0.965593 -0.224859 0.873092
0.965573 -0.22715 0.873094
0.965553 -0.229441 0.873096
0.965533 -0.231732 0.873098
0.96998 0.312661 0.870953
0.96996 0.31039 0.870955
0.969941 0.308121 0.870957
0.969921 0.305851 0.870959
0.969896 0.303644 0.870917
0.969876 0.301373 0.870919
0.969857 0.2991 0.870921
0.969831 0.296887 0.870879
0.969811 0.294614 0.870881
0.969792 0.29234 0.870883
0.969766 0.29012 0.87084
0.969747 0.287846 0.870843
0.969727 0.28557 0.870845
0.969707 0.283295 0.870847
0.969688 0.28102 0.870849
