5.872910000000000075e-01	3.971149999999999958e-01	9.351479999999999793e-01
5.872089999999999810e-01	4.064420000000000255e-01	9.351479999999999793e-01
5.871870000000000145e-01	4.113919999999999799e-01	9.351479999999999793e-01
5.872910000000000075e-01	4.113919999999999799e-01	9.348990000000000355e-01
5.872910000000000075e-01	4.163419999999999899e-01	9.305870000000000530e-01
5.860739999999999839e-01	4.163419999999999899e-01	9.351479999999999793e-01
5.858400000000000274e-01	4.212919999999999998e-01	9.351479999999999793e-01
5.859339999999999549e-01	4.262420000000000098e-01	9.351479999999999793e-01
5.856230000000000047e-01	4.311920000000000197e-01	9.351479999999999793e-01
5.874840000000000062e-01	3.965420000000000056e-01	9.351479999999999793e-01
5.851750000000000007e-01	4.361419999999999741e-01	9.351479999999999793e-01
5.848619999999999930e-01	4.410919999999999841e-01	9.351479999999999793e-01
5.849140000000000450e-01	4.460419999999999940e-01	9.351479999999999793e-01
5.849290000000000322e-01	4.509920000000000040e-01	9.351479999999999793e-01
5.773909999999999876e-01	2.474750000000000005e-01	9.400979999999999892e-01
5.773909999999999876e-01	2.480420000000000125e-01	9.383350000000000302e-01
5.773669999999999636e-01	2.480420000000000125e-01	9.400979999999999892e-01
5.772110000000000296e-01	2.529919999999999947e-01	9.400979999999999892e-01
5.774730000000000141e-01	2.430920000000000025e-01	9.400979999999999892e-01
5.762620000000000520e-01	2.579420000000000046e-01	9.400979999999999892e-01
5.767060000000000519e-01	2.628920000000000146e-01	9.400979999999999892e-01
5.762800000000000145e-01	2.678420000000000245e-01	9.400979999999999892e-01
5.766449999999999632e-01	2.727919999999999789e-01	9.400979999999999892e-01
5.837959999999999816e-01	3.717920000000000114e-01	9.351479999999999793e-01
5.840919999999999446e-01	3.767420000000000213e-01	9.351479999999999793e-01
5.861499999999999488e-01	3.767420000000000213e-01	9.400979999999999892e-01
5.860940000000000039e-01	3.717920000000000114e-01	9.400979999999999892e-01
5.868959999999999733e-01	3.816919999999999757e-01	9.400979999999999892e-01
5.865019999999999678e-01	3.866419999999999857e-01	9.400979999999999892e-01
5.865190000000000126e-01	3.915919999999999956e-01	9.400979999999999892e-01
5.862119999999999553e-01	3.965420000000000056e-01	9.400979999999999892e-01
5.872910000000000075e-01	3.965420000000000056e-01	9.399950000000000250e-01
5.866630000000000456e-01	4.014920000000000155e-01	9.400979999999999892e-01
5.857670000000000377e-01	4.064420000000000255e-01	9.400979999999999892e-01
5.851899999999999880e-01	4.113919999999999799e-01	9.400979999999999892e-01
5.850579999999999670e-01	4.163419999999999899e-01	9.400979999999999892e-01
5.851119999999999655e-01	4.212919999999999998e-01	9.400979999999999892e-01
5.862399999999999833e-01	4.262420000000000098e-01	9.400979999999999892e-01
5.860260000000000469e-01	4.311920000000000197e-01	9.400979999999999892e-01
5.860990000000000366e-01	4.361419999999999741e-01	9.400979999999999892e-01
5.860269999999999646e-01	4.410919999999999841e-01	9.400979999999999892e-01
5.866639999999999633e-01	4.460419999999999940e-01	9.400979999999999892e-01
5.869429999999999925e-01	4.509920000000000040e-01	9.400979999999999892e-01
5.765419999999999989e-01	2.480420000000000125e-01	9.450479999999999992e-01
5.771450000000000191e-01	2.430920000000000025e-01	9.450479999999999992e-01
5.773909999999999876e-01	2.430920000000000025e-01	9.403899999999999482e-01
5.757910000000000528e-01	2.529919999999999947e-01	9.450479999999999992e-01
5.760220000000000340e-01	2.579420000000000046e-01	9.450479999999999992e-01
5.759929999999999772e-01	2.628920000000000146e-01	9.450479999999999992e-01
5.769400000000000084e-01	2.678420000000000245e-01	9.450479999999999992e-01
5.773909999999999876e-01	2.702910000000000035e-01	9.450479999999999992e-01
5.773909999999999876e-01	2.727919999999999789e-01	9.429640000000000244e-01
5.778640000000000443e-01	2.727919999999999789e-01	9.450479999999999992e-01
5.864239999999999453e-01	3.717920000000000114e-01	9.450479999999999992e-01
5.868459999999999788e-01	3.767420000000000213e-01	9.450479999999999992e-01
5.870490000000000430e-01	3.816919999999999757e-01	9.450479999999999992e-01
5.872110000000000385e-01	3.866419999999999857e-01	9.450479999999999992e-01
5.872910000000000075e-01	3.914850000000000274e-01	9.450479999999999992e-01
5.872910000000000075e-01	3.915919999999999956e-01	9.446550000000000225e-01
5.872950000000000115e-01	3.915919999999999956e-01	9.450479999999999992e-01
5.860330000000000261e-01	3.965420000000000056e-01	9.450479999999999992e-01
5.872910000000000075e-01	3.916180000000000216e-01	9.450479999999999992e-01
5.850819999999999910e-01	4.014920000000000155e-01	9.450479999999999992e-01
5.847170000000000423e-01	4.064420000000000255e-01	9.450479999999999992e-01
5.844819999999999460e-01	4.113919999999999799e-01	9.450479999999999992e-01
5.845399999999999485e-01	4.163419999999999899e-01	9.450479999999999992e-01
5.849860000000000060e-01	4.212919999999999998e-01	9.450479999999999992e-01
5.854759999999999964e-01	4.262420000000000098e-01	9.450479999999999992e-01
5.861389999999999656e-01	4.311920000000000197e-01	9.450479999999999992e-01
5.866569999999999840e-01	4.361419999999999741e-01	9.450479999999999992e-01
5.872910000000000075e-01	4.396680000000000033e-01	9.450479999999999992e-01
5.872910000000000075e-01	4.410919999999999841e-01	9.440760000000000263e-01
5.872910000000000075e-01	4.460419999999999940e-01	9.419229999999999547e-01
5.872910000000000075e-01	4.509920000000000040e-01	9.407400000000000206e-01
5.876259999999999817e-01	4.410919999999999841e-01	9.450479999999999992e-01
5.882910000000000084e-01	4.460419999999999940e-01	9.450479999999999992e-01
5.890659999999999785e-01	4.509920000000000040e-01	9.450479999999999992e-01
5.772850000000000481e-01	2.480420000000000125e-01	9.598980000000000290e-01
5.773909999999999876e-01	2.468629999999999991e-01	9.598980000000000290e-01
5.767240000000000144e-01	2.480420000000000125e-01	9.549480000000000190e-01
5.773909999999999876e-01	2.430920000000000025e-01	9.572739999999999583e-01
5.773249999999999771e-01	2.430920000000000025e-01	9.549480000000000190e-01
5.759689999999999532e-01	2.529919999999999947e-01	9.549480000000000190e-01
5.760509999999999797e-01	2.529919999999999947e-01	9.598980000000000290e-01
5.775299999999999878e-01	2.430920000000000025e-01	9.598980000000000290e-01
5.759830000000000227e-01	2.579420000000000046e-01	9.549480000000000190e-01
5.758410000000000473e-01	2.579420000000000046e-01	9.598980000000000290e-01
5.765339999999999909e-01	2.628920000000000146e-01	9.549480000000000190e-01
5.764880000000000004e-01	2.628920000000000146e-01	9.598980000000000290e-01
5.773909999999999876e-01	2.672260000000000191e-01	9.549480000000000190e-01
5.773909999999999876e-01	2.668209999999999749e-01	9.598980000000000290e-01
5.775329999999999631e-01	2.678420000000000245e-01	9.549480000000000190e-01
5.776160000000000183e-01	2.678420000000000245e-01	9.598980000000000290e-01
5.789180000000000437e-01	2.727919999999999789e-01	9.549480000000000190e-01
5.784420000000000117e-01	2.727919999999999789e-01	9.598980000000000290e-01
5.792699999999999516e-01	2.826919999999999988e-01	9.598980000000000290e-01
5.786170000000000480e-01	2.876420000000000088e-01	9.549480000000000190e-01
5.780849999999999600e-01	2.876420000000000088e-01	9.598980000000000290e-01
5.792340000000000266e-01	2.826919999999999988e-01	9.549480000000000190e-01
5.777910000000000545e-01	2.925920000000000187e-01	9.549480000000000190e-01
5.774249999999999661e-01	2.925920000000000187e-01	9.598980000000000290e-01
5.773909999999999876e-01	2.929510000000000169e-01	9.598980000000000290e-01
5.763439999999999674e-01	2.975419999999999732e-01	9.549480000000000190e-01
5.769180000000000419e-01	2.975419999999999732e-01	9.598980000000000290e-01
5.773909999999999876e-01	2.937980000000000036e-01	9.549480000000000190e-01
5.758269999999999778e-01	3.024919999999999831e-01	9.549480000000000190e-01
5.760849999999999582e-01	3.024919999999999831e-01	9.598980000000000290e-01
5.758830000000000338e-01	3.074419999999999931e-01	9.549480000000000190e-01
5.757020000000000470e-01	3.074419999999999931e-01	9.598980000000000290e-01
5.757900000000000240e-01	3.123920000000000030e-01	9.549480000000000190e-01
5.761049999999999782e-01	3.123920000000000030e-01	9.598980000000000290e-01
5.760480000000000045e-01	3.173420000000000130e-01	9.549480000000000190e-01
5.760499999999999510e-01	3.173420000000000130e-01	9.598980000000000290e-01
5.761290000000000022e-01	3.222920000000000229e-01	9.549480000000000190e-01
5.762209999999999832e-01	3.222920000000000229e-01	9.598980000000000290e-01
5.762509999999999577e-01	3.272419999999999773e-01	9.549480000000000190e-01
5.763570000000000082e-01	3.272419999999999773e-01	9.598980000000000290e-01
5.764740000000000419e-01	3.321919999999999873e-01	9.549480000000000190e-01
5.762620000000000520e-01	3.321919999999999873e-01	9.598980000000000290e-01
5.773909999999999876e-01	3.361069999999999891e-01	9.549480000000000190e-01
5.773909999999999876e-01	3.365850000000000231e-01	9.598980000000000290e-01
5.777120000000000033e-01	3.371419999999999972e-01	9.549480000000000190e-01
5.775770000000000071e-01	3.371419999999999972e-01	9.598980000000000290e-01
5.789769999999999639e-01	3.420920000000000072e-01	9.549480000000000190e-01
5.784650000000000070e-01	3.420920000000000072e-01	9.598980000000000290e-01
5.832429999999999559e-01	3.717920000000000114e-01	9.598980000000000290e-01
5.854510000000000547e-01	3.767420000000000213e-01	9.549480000000000190e-01
5.841309999999999558e-01	3.767420000000000213e-01	9.598980000000000290e-01
5.851150000000000517e-01	3.717920000000000114e-01	9.549480000000000190e-01
5.857670000000000377e-01	3.816919999999999757e-01	9.549480000000000190e-01
5.841849999999999543e-01	3.816919999999999757e-01	9.598980000000000290e-01
5.858539999999999859e-01	3.866419999999999857e-01	9.549480000000000190e-01
5.850600000000000245e-01	3.866419999999999857e-01	9.598980000000000290e-01
5.854719999999999924e-01	3.915919999999999956e-01	9.549480000000000190e-01
5.853690000000000282e-01	3.915919999999999956e-01	9.598980000000000290e-01
5.850659999999999750e-01	4.212919999999999998e-01	9.598980000000000290e-01
5.852640000000000065e-01	4.262420000000000098e-01	9.549480000000000190e-01
5.862460000000000448e-01	4.262420000000000098e-01	9.598980000000000290e-01
5.848520000000000385e-01	4.212919999999999998e-01	9.549480000000000190e-01
5.862530000000000241e-01	4.311920000000000197e-01	9.549480000000000190e-01
5.861150000000000526e-01	4.311920000000000197e-01	9.598980000000000290e-01
5.869360000000000133e-01	4.361419999999999741e-01	9.598980000000000290e-01
5.872910000000000075e-01	4.361419999999999741e-01	9.554610000000000047e-01
5.872910000000000075e-01	4.360649999999999804e-01	9.549480000000000190e-01
5.872910000000000075e-01	4.380479999999999929e-01	9.598980000000000290e-01
5.873049999999999660e-01	4.361419999999999741e-01	9.549480000000000190e-01
5.878459999999999797e-01	4.410919999999999841e-01	9.598980000000000290e-01
5.879149999999999654e-01	4.410919999999999841e-01	9.549480000000000190e-01
5.887959999999999861e-01	4.460419999999999940e-01	9.549480000000000190e-01
5.888250000000000428e-01	4.460419999999999940e-01	9.598980000000000290e-01
5.902370000000000116e-01	4.509920000000000040e-01	9.549480000000000190e-01
5.896740000000000315e-01	4.509920000000000040e-01	9.598980000000000290e-01
5.767989999999999506e-01	2.480420000000000125e-01	9.648480000000000389e-01
5.773909999999999876e-01	2.430920000000000025e-01	9.619079999999999853e-01
5.770070000000000476e-01	2.430920000000000025e-01	9.648480000000000389e-01
5.759600000000000275e-01	2.529919999999999947e-01	9.648480000000000389e-01
5.757560000000000455e-01	2.579420000000000046e-01	9.648480000000000389e-01
5.764010000000000522e-01	2.628920000000000146e-01	9.648480000000000389e-01
5.773909999999999876e-01	2.665859999999999896e-01	9.648480000000000389e-01
5.776390000000000136e-01	2.678420000000000245e-01	9.648480000000000389e-01
5.779530000000000500e-01	2.727919999999999789e-01	9.648480000000000389e-01
5.773909999999999876e-01	2.884510000000000129e-01	9.648480000000000389e-01
5.773909999999999876e-01	2.925920000000000187e-01	9.600509999999999877e-01
5.766459999999999919e-01	2.925920000000000187e-01	9.648480000000000389e-01
5.775439999999999463e-01	2.876420000000000088e-01	9.648480000000000389e-01
5.781659999999999577e-01	2.826919999999999988e-01	9.648480000000000389e-01
5.760199999999999765e-01	2.975419999999999732e-01	9.648480000000000389e-01
5.756790000000000518e-01	3.024919999999999831e-01	9.648480000000000389e-01
5.755390000000000228e-01	3.074419999999999931e-01	9.648480000000000389e-01
5.760450000000000292e-01	3.123920000000000030e-01	9.648480000000000389e-01
5.763369999999999882e-01	3.173420000000000130e-01	9.648480000000000389e-01
5.766250000000000542e-01	3.222920000000000229e-01	9.648480000000000389e-01
5.760840000000000405e-01	3.272419999999999773e-01	9.648480000000000389e-01
5.773909999999999876e-01	3.316649999999999876e-01	9.648480000000000389e-01
5.773909999999999876e-01	3.321919999999999873e-01	9.628929999999999989e-01
5.775660000000000238e-01	3.321919999999999873e-01	9.648480000000000389e-01
5.773030000000000106e-01	3.371419999999999972e-01	9.648480000000000389e-01
5.773909999999999876e-01	3.348430000000000017e-01	9.648480000000000389e-01
5.773909999999999876e-01	3.371419999999999972e-01	9.637459999999999916e-01
5.773909999999999876e-01	3.386399999999999966e-01	9.648480000000000389e-01
5.779520000000000213e-01	3.420920000000000072e-01	9.648480000000000389e-01
5.832100000000000062e-01	3.767420000000000213e-01	9.648480000000000389e-01
5.826580000000000092e-01	3.717920000000000114e-01	9.648480000000000389e-01
5.837599999999999456e-01	3.816919999999999757e-01	9.648480000000000389e-01
5.844970000000000443e-01	3.866419999999999857e-01	9.648480000000000389e-01
5.856780000000000319e-01	3.915919999999999956e-01	9.648480000000000389e-01
5.850790000000000157e-01	4.262420000000000098e-01	9.648480000000000389e-01
5.851669999999999927e-01	4.212919999999999998e-01	9.648480000000000389e-01
5.850410000000000332e-01	4.311920000000000197e-01	9.648480000000000389e-01
5.853209999999999802e-01	4.361419999999999741e-01	9.648480000000000389e-01
5.858360000000000234e-01	4.410919999999999841e-01	9.648480000000000389e-01
5.872910000000000075e-01	4.410919999999999841e-01	9.614169999999999661e-01
5.872910000000000075e-01	4.449810000000000154e-01	9.648480000000000389e-01
5.877269999999999994e-01	4.460419999999999940e-01	9.648480000000000389e-01
5.890670000000000073e-01	4.509920000000000040e-01	9.648480000000000389e-01
5.764409999999999812e-01	2.480420000000000125e-01	9.697980000000000489e-01
5.763960000000000194e-01	2.430920000000000025e-01	9.697980000000000489e-01
5.763549999999999507e-01	2.529919999999999947e-01	9.697980000000000489e-01
5.754789999999999628e-01	2.579420000000000046e-01	9.697980000000000489e-01
5.753329999999999833e-01	2.628920000000000146e-01	9.697980000000000489e-01
5.763500000000000290e-01	2.678420000000000245e-01	9.697980000000000489e-01
5.773909999999999876e-01	2.678420000000000245e-01	9.663869999999999960e-01
5.773909999999999876e-01	2.727919999999999789e-01	9.667930000000000135e-01
5.762950000000000017e-01	2.727919999999999789e-01	9.697980000000000489e-01
5.773909999999999876e-01	2.851770000000000138e-01	9.697980000000000489e-01
5.773909999999999876e-01	2.876420000000000088e-01	9.658740000000000103e-01
5.767579999999999929e-01	2.876420000000000088e-01	9.697980000000000489e-01
5.768459999999999699e-01	2.925920000000000187e-01	9.697980000000000489e-01
5.776580000000000048e-01	2.826919999999999988e-01	9.697980000000000489e-01
5.765900000000000469e-01	2.975419999999999732e-01	9.697980000000000489e-01
5.756919999999999815e-01	3.024919999999999831e-01	9.697980000000000489e-01
5.752720000000000056e-01	3.074419999999999931e-01	9.697980000000000489e-01
5.752850000000000463e-01	3.123920000000000030e-01	9.697980000000000489e-01
5.757430000000000048e-01	3.173420000000000130e-01	9.697980000000000489e-01
5.756379999999999830e-01	3.222920000000000229e-01	9.697980000000000489e-01
5.755369999999999653e-01	3.272419999999999773e-01	9.697980000000000489e-01
5.759900000000000020e-01	3.321919999999999873e-01	9.697980000000000489e-01
5.773909999999999876e-01	3.321919999999999873e-01	9.667120000000000157e-01
5.763890000000000402e-01	3.371419999999999972e-01	9.697980000000000489e-01
5.769739999999999869e-01	3.420920000000000072e-01	9.697980000000000489e-01
5.773909999999999876e-01	3.420920000000000072e-01	9.679189999999999738e-01
5.872910000000000075e-01	3.964960000000000151e-01	9.697980000000000489e-01
5.857630000000000337e-01	3.915919999999999956e-01	9.697980000000000489e-01
5.872910000000000075e-01	3.965420000000000056e-01	9.696820000000000439e-01
5.864770000000000261e-01	3.965420000000000056e-01	9.648480000000000389e-01
5.871520000000000072e-01	4.014920000000000155e-01	9.648480000000000389e-01
5.872910000000000075e-01	4.014920000000000155e-01	9.652830000000000021e-01
5.872910000000000075e-01	4.064420000000000255e-01	9.664770000000000305e-01
5.869079999999999853e-01	4.064420000000000255e-01	9.648480000000000389e-01
5.867539999999999978e-01	4.113919999999999799e-01	9.697980000000000489e-01
5.872910000000000075e-01	4.090840000000000032e-01	9.697980000000000489e-01
5.862889999999999491e-01	4.113919999999999799e-01	9.648480000000000389e-01
5.847919999999999785e-01	4.212919999999999998e-01	9.697980000000000489e-01
5.842739999999999601e-01	4.262420000000000098e-01	9.697980000000000489e-01
5.839499999999999691e-01	4.311920000000000197e-01	9.697980000000000489e-01
5.873030000000000195e-01	3.965420000000000056e-01	9.697980000000000489e-01
5.880429999999999824e-01	4.014920000000000155e-01	9.697980000000000489e-01
5.877099999999999547e-01	4.064420000000000255e-01	9.697980000000000489e-01
5.842319999999999736e-01	4.361419999999999741e-01	9.697980000000000489e-01
5.850520000000000165e-01	4.410919999999999841e-01	9.697980000000000489e-01
5.866460000000000008e-01	4.460419999999999940e-01	9.697980000000000489e-01
5.872910000000000075e-01	4.460419999999999940e-01	9.671389999999999709e-01
5.872910000000000075e-01	4.490199999999999747e-01	9.697980000000000489e-01
5.876670000000000504e-01	4.509920000000000040e-01	9.697980000000000489e-01
5.757189999999999808e-01	2.430920000000000025e-01	9.747479999999999478e-01
5.755120000000000235e-01	2.480420000000000125e-01	9.747479999999999478e-01
5.751859999999999751e-01	2.529919999999999947e-01	9.747479999999999478e-01
5.750039999999999596e-01	2.579420000000000046e-01	9.747479999999999478e-01
5.745689999999999964e-01	2.628920000000000146e-01	9.747479999999999478e-01
5.746900000000000341e-01	2.678420000000000245e-01	9.747479999999999478e-01
5.748119999999999896e-01	2.727919999999999789e-01	9.747479999999999478e-01
5.759459999999999580e-01	2.876420000000000088e-01	9.747479999999999478e-01
5.758060000000000400e-01	2.826919999999999988e-01	9.747479999999999478e-01
5.773909999999999876e-01	2.826919999999999988e-01	9.706270000000000175e-01
5.758199999999999985e-01	2.925920000000000187e-01	9.747479999999999478e-01
5.759900000000000020e-01	2.975419999999999732e-01	9.747479999999999478e-01
5.755489999999999773e-01	3.024919999999999831e-01	9.747479999999999478e-01
5.749980000000000091e-01	3.074419999999999931e-01	9.747479999999999478e-01
5.747170000000000334e-01	3.123920000000000030e-01	9.747479999999999478e-01
5.746529999999999694e-01	3.173420000000000130e-01	9.747479999999999478e-01
5.746430000000000149e-01	3.222920000000000229e-01	9.747479999999999478e-01
5.747389999999999999e-01	3.272419999999999773e-01	9.747479999999999478e-01
5.748189999999999689e-01	3.321919999999999873e-01	9.747479999999999478e-01
5.754420000000000091e-01	3.371419999999999972e-01	9.747479999999999478e-01
5.759429999999999827e-01	3.420920000000000072e-01	9.747479999999999478e-01
5.872680000000000122e-01	3.965420000000000056e-01	9.747479999999999478e-01
5.856109999999999927e-01	3.915919999999999956e-01	9.747479999999999478e-01
5.872910000000000075e-01	3.965420000000000056e-01	9.710879999999999512e-01
5.872910000000000075e-01	3.966890000000000138e-01	9.747479999999999478e-01
5.872560000000000002e-01	4.113919999999999799e-01	9.747479999999999478e-01
5.872910000000000075e-01	4.109030000000000182e-01	9.747479999999999478e-01
5.836109999999999909e-01	4.262420000000000098e-01	9.747479999999999478e-01
5.840769999999999573e-01	4.212919999999999998e-01	9.747479999999999478e-01
5.830210000000000115e-01	4.311920000000000197e-01	9.747479999999999478e-01
5.876580000000000137e-01	4.014920000000000155e-01	9.747479999999999478e-01
5.874540000000000317e-01	4.064420000000000255e-01	9.747479999999999478e-01
5.831460000000000532e-01	4.361419999999999741e-01	9.747479999999999478e-01
5.838809999999999834e-01	4.410919999999999841e-01	9.747479999999999478e-01
5.848649999999999682e-01	4.460419999999999940e-01	9.747479999999999478e-01
5.861340000000000439e-01	4.509920000000000040e-01	9.747479999999999478e-01
5.872910000000000075e-01	4.509920000000000040e-01	9.708470000000000155e-01
5.748450000000000504e-01	2.430920000000000025e-01	9.796979999999999578e-01
5.751249999999999973e-01	2.480420000000000125e-01	9.796979999999999578e-01
5.756080000000000085e-01	2.529919999999999947e-01	9.796979999999999578e-01
5.743549999999999489e-01	2.579420000000000046e-01	9.796979999999999578e-01
5.739039999999999697e-01	2.628920000000000146e-01	9.796979999999999578e-01
5.747630000000000239e-01	2.826919999999999988e-01	9.796979999999999578e-01
5.751979999999999871e-01	2.876420000000000088e-01	9.796979999999999578e-01
5.755820000000000380e-01	2.925920000000000187e-01	9.796979999999999578e-01
5.767069999999999697e-01	2.975419999999999732e-01	9.796979999999999578e-01
5.753829999999999778e-01	3.024919999999999831e-01	9.796979999999999578e-01
5.747809999999999864e-01	3.074419999999999931e-01	9.796979999999999578e-01
5.740049999999999875e-01	3.123920000000000030e-01	9.796979999999999578e-01
5.742190000000000349e-01	3.173420000000000130e-01	9.796979999999999578e-01
5.736520000000000508e-01	3.222920000000000229e-01	9.796979999999999578e-01
5.742110000000000269e-01	3.272419999999999773e-01	9.796979999999999578e-01
5.741290000000000004e-01	3.321919999999999873e-01	9.796979999999999578e-01
5.748910000000000409e-01	3.371419999999999972e-01	9.796979999999999578e-01
5.753570000000000073e-01	3.420920000000000072e-01	9.796979999999999578e-01
5.770729999999999471e-01	3.470420000000000171e-01	9.747479999999999478e-01
5.761659999999999560e-01	3.470420000000000171e-01	9.796979999999999578e-01
5.773909999999999876e-01	3.487250000000000072e-01	9.747479999999999478e-01
5.773909999999999876e-01	3.509990000000000054e-01	9.796979999999999578e-01
5.780750000000000055e-01	3.519920000000000271e-01	9.747479999999999478e-01
5.777910000000000545e-01	3.519920000000000271e-01	9.796979999999999578e-01
5.872910000000000075e-01	3.958929999999999949e-01	9.796979999999999578e-01
5.852800000000000225e-01	3.915919999999999956e-01	9.796979999999999578e-01
5.872910000000000075e-01	3.965420000000000056e-01	9.766160000000000396e-01
5.872910000000000075e-01	4.082999999999999963e-01	9.796979999999999578e-01
5.858379999999999699e-01	4.113919999999999799e-01	9.796979999999999578e-01
5.874829999999999774e-01	3.965420000000000056e-01	9.796979999999999578e-01
5.878440000000000332e-01	4.014920000000000155e-01	9.796979999999999578e-01
5.877850000000000019e-01	4.064420000000000255e-01	9.796979999999999578e-01
5.813220000000000054e-01	4.311920000000000197e-01	9.796979999999999578e-01
5.823409999999999975e-01	4.361419999999999741e-01	9.774530000000000163e-01
5.817809999999999926e-01	4.361419999999999741e-01	9.796979999999999578e-01
5.823409999999999975e-01	4.311920000000000197e-01	9.766390000000000349e-01
5.823409999999999975e-01	4.404569999999999874e-01	9.796979999999999578e-01
5.824529999999999985e-01	4.410919999999999841e-01	9.796979999999999578e-01
5.839900000000000091e-01	4.460419999999999940e-01	9.796979999999999578e-01
5.852929999999999522e-01	4.509920000000000040e-01	9.796979999999999578e-01
5.748379999999999601e-01	2.430920000000000025e-01	9.846479999999999677e-01
5.743869999999999809e-01	2.480420000000000125e-01	9.846479999999999677e-01
5.740480000000000027e-01	2.529919999999999947e-01	9.846479999999999677e-01
5.736350000000000060e-01	2.579420000000000046e-01	9.846479999999999677e-01
5.732540000000000413e-01	2.628920000000000146e-01	9.846479999999999677e-01
5.742829999999999879e-01	2.826919999999999988e-01	9.846479999999999677e-01
5.747849999999999904e-01	2.876420000000000088e-01	9.846479999999999677e-01
5.751140000000000141e-01	2.925920000000000187e-01	9.846479999999999677e-01
5.754280000000000506e-01	2.975419999999999732e-01	9.846479999999999677e-01
5.751760000000000206e-01	3.024919999999999831e-01	9.846479999999999677e-01
5.750189999999999468e-01	3.074419999999999931e-01	9.846479999999999677e-01
5.745879999999999876e-01	3.123920000000000030e-01	9.846479999999999677e-01
5.744829999999999659e-01	3.173420000000000130e-01	9.846479999999999677e-01
5.740199999999999747e-01	3.222920000000000229e-01	9.846479999999999677e-01
5.742099999999999982e-01	3.272419999999999773e-01	9.846479999999999677e-01
5.742260000000000142e-01	3.321919999999999873e-01	9.846479999999999677e-01
5.748010000000000064e-01	3.371419999999999972e-01	9.846479999999999677e-01
5.754700000000000371e-01	3.420920000000000072e-01	9.846479999999999677e-01
5.767729999999999801e-01	3.470420000000000171e-01	9.846479999999999677e-01
5.769119999999999804e-01	3.519920000000000271e-01	9.846479999999999677e-01
5.773909999999999876e-01	3.519920000000000271e-01	9.807879999999999932e-01
5.847660000000000080e-01	3.965420000000000056e-01	9.846479999999999677e-01
5.872910000000000075e-01	3.965420000000000056e-01	9.803180000000000227e-01
5.838900000000000201e-01	3.915919999999999956e-01	9.846479999999999677e-01
5.872910000000000075e-01	4.014920000000000155e-01	9.817059999999999675e-01
5.857269999999999976e-01	4.014920000000000155e-01	9.846479999999999677e-01
5.872910000000000075e-01	4.064420000000000255e-01	9.811800000000000521e-01
5.850689999999999502e-01	4.064420000000000255e-01	9.846479999999999677e-01
5.843340000000000201e-01	4.113919999999999799e-01	9.846479999999999677e-01
5.807889999999999997e-01	4.311920000000000197e-01	9.846479999999999677e-01
5.815409999999999746e-01	4.361419999999999741e-01	9.846479999999999677e-01
5.822749999999999870e-01	4.410919999999999841e-01	9.846479999999999677e-01
5.823409999999999975e-01	4.410919999999999841e-01	9.820330000000000448e-01
5.823409999999999975e-01	4.415410000000000168e-01	9.846479999999999677e-01
5.831279999999999797e-01	4.460419999999999940e-01	9.846479999999999677e-01
5.843930000000000513e-01	4.509920000000000040e-01	9.846479999999999677e-01
5.736599999999999477e-01	2.826919999999999988e-01	9.895979999999999777e-01
5.746310000000000029e-01	2.876420000000000088e-01	9.895979999999999777e-01
5.754000000000000226e-01	2.925920000000000187e-01	9.895979999999999777e-01
5.757229999999999848e-01	2.975419999999999732e-01	9.895979999999999777e-01
5.756529999999999703e-01	3.024919999999999831e-01	9.895979999999999777e-01
5.757280000000000175e-01	3.074419999999999931e-01	9.895979999999999777e-01
5.754559999999999675e-01	3.123920000000000030e-01	9.895979999999999777e-01
5.755390000000000228e-01	3.173420000000000130e-01	9.895979999999999777e-01
5.750549999999999828e-01	3.222920000000000229e-01	9.895979999999999777e-01
5.745430000000000259e-01	3.272419999999999773e-01	9.895979999999999777e-01
5.745620000000000172e-01	3.321919999999999873e-01	9.895979999999999777e-01
5.749140000000000361e-01	3.371419999999999972e-01	9.895979999999999777e-01
5.760579999999999590e-01	3.420920000000000072e-01	9.895979999999999777e-01
5.770779999999999799e-01	3.470420000000000171e-01	9.895979999999999777e-01
5.773909999999999876e-01	3.492500000000000049e-01	9.895979999999999777e-01
5.773909999999999876e-01	3.519920000000000271e-01	9.884889999999999510e-01
5.776679999999999593e-01	3.519920000000000271e-01	9.895979999999999777e-01
5.773909999999999876e-01	3.543609999999999816e-01	9.846479999999999677e-01
5.780459999999999487e-01	3.569419999999999815e-01	9.895979999999999777e-01
5.781060000000000088e-01	3.569419999999999815e-01	9.846479999999999677e-01
5.790769999999999529e-01	3.618919999999999915e-01	9.846479999999999677e-01
5.788609999999999589e-01	3.618919999999999915e-01	9.895979999999999777e-01
5.823409999999999975e-01	4.113919999999999799e-01	9.893309999999999604e-01
5.823409999999999975e-01	4.163419999999999899e-01	9.859379999999999811e-01
5.810499999999999554e-01	4.163419999999999899e-01	9.895979999999999777e-01
5.822399999999999798e-01	4.113919999999999799e-01	9.895979999999999777e-01
5.828039999999999887e-01	4.163419999999999899e-01	9.846479999999999677e-01
5.796850000000000058e-01	4.212919999999999998e-01	9.895979999999999777e-01
5.823409999999999975e-01	4.181250000000000244e-01	9.846479999999999677e-01
5.816170000000000506e-01	4.212919999999999998e-01	9.846479999999999677e-01
5.807240000000000180e-01	4.262420000000000098e-01	9.846479999999999677e-01
5.789239999999999942e-01	4.262420000000000098e-01	9.895979999999999777e-01
5.790220000000000367e-01	4.311920000000000197e-01	9.895979999999999777e-01
5.750399999999999956e-01	2.876420000000000088e-01	9.945479999999999876e-01
5.742329999999999934e-01	2.826919999999999988e-01	9.945479999999999876e-01
5.756200000000000205e-01	2.925920000000000187e-01	9.945479999999999876e-01
5.760939999999999950e-01	2.975419999999999732e-01	9.945479999999999876e-01
5.770429999999999726e-01	3.024919999999999831e-01	9.945479999999999876e-01
5.763669999999999627e-01	3.074419999999999931e-01	9.945479999999999876e-01
5.771880000000000344e-01	3.123920000000000030e-01	9.945479999999999876e-01
5.765219999999999789e-01	3.173420000000000130e-01	9.945479999999999876e-01
5.761030000000000317e-01	3.222920000000000229e-01	9.945479999999999876e-01
5.750880000000000436e-01	3.272419999999999773e-01	9.945479999999999876e-01
5.749290000000000234e-01	3.321919999999999873e-01	9.945479999999999876e-01
5.751209999999999933e-01	3.371419999999999972e-01	9.945479999999999876e-01
5.755540000000000100e-01	3.420920000000000072e-01	9.945479999999999876e-01
5.762439999999999785e-01	3.470420000000000171e-01	9.945479999999999876e-01
5.767409999999999481e-01	3.519920000000000271e-01	9.945479999999999876e-01
5.773909999999999876e-01	3.519920000000000271e-01	9.919139999999999624e-01
5.773909999999999876e-01	3.548990000000000200e-01	9.945479999999999876e-01
5.778889999999999860e-01	3.569419999999999815e-01	9.945479999999999876e-01
5.786390000000000144e-01	3.618919999999999915e-01	9.945479999999999876e-01
5.809530000000000527e-01	4.113919999999999799e-01	9.945479999999999876e-01
5.796959999999999891e-01	4.163419999999999899e-01	9.945479999999999876e-01
5.780969999999999720e-01	4.212919999999999998e-01	9.945479999999999876e-01
5.773909999999999876e-01	4.228190000000000004e-01	9.945479999999999876e-01
5.773909999999999876e-01	4.262420000000000098e-01	9.922530000000000516e-01
5.764709999999999557e-01	4.262420000000000098e-01	9.945479999999999876e-01
5.773909999999999876e-01	4.311920000000000197e-01	9.924460000000000504e-01
5.766799999999999704e-01	4.311920000000000197e-01	9.945479999999999876e-01
5.740790000000000060e-01	2.727919999999999789e-01	9.945479999999999876e-01
5.742660000000000542e-01	2.777419999999999889e-01	9.945479999999999876e-01
5.748199999999999976e-01	2.777419999999999889e-01	9.994979999999999976e-01
5.748959999999999626e-01	2.727919999999999789e-01	9.994979999999999976e-01
5.752310000000000478e-01	2.826919999999999988e-01	9.994979999999999976e-01
5.757489999999999553e-01	2.876420000000000088e-01	9.994979999999999976e-01
5.764510000000000467e-01	2.925920000000000187e-01	9.994979999999999976e-01
5.764740000000000419e-01	2.975419999999999732e-01	9.994979999999999976e-01
5.773909999999999876e-01	3.008020000000000138e-01	9.994979999999999976e-01
5.773909999999999876e-01	3.024919999999999831e-01	9.965829999999999966e-01
5.777379999999999738e-01	3.024919999999999831e-01	9.994979999999999976e-01
5.769760000000000444e-01	3.074419999999999931e-01	9.994979999999999976e-01
5.773909999999999876e-01	3.026800000000000046e-01	9.994979999999999976e-01
5.772279999999999633e-01	3.123920000000000030e-01	9.994979999999999976e-01
5.768820000000000059e-01	3.173420000000000130e-01	9.994979999999999976e-01
5.764700000000000379e-01	3.222920000000000229e-01	9.994979999999999976e-01
5.757379999999999720e-01	3.272419999999999773e-01	9.994979999999999976e-01
5.753279999999999506e-01	3.321919999999999873e-01	9.994979999999999976e-01
5.753239999999999466e-01	3.371419999999999972e-01	9.994979999999999976e-01
5.757039999999999935e-01	3.420920000000000072e-01	9.994979999999999976e-01
5.760260000000000380e-01	3.470420000000000171e-01	9.994979999999999976e-01
5.767029999999999657e-01	3.519920000000000271e-01	9.994979999999999976e-01
5.773909999999999876e-01	3.547449999999999770e-01	9.994979999999999976e-01
5.779999999999999583e-01	3.569419999999999815e-01	9.994979999999999976e-01
5.791089999999999849e-01	3.618919999999999915e-01	9.994979999999999976e-01
5.788659999999999917e-01	4.163419999999999899e-01	9.994979999999999976e-01
5.800889999999999658e-01	4.113919999999999799e-01	9.994979999999999976e-01
5.775369999999999671e-01	4.212919999999999998e-01	9.994979999999999976e-01
5.773909999999999876e-01	4.217219999999999858e-01	9.994979999999999976e-01
5.763730000000000242e-01	4.262420000000000098e-01	9.994979999999999976e-01
5.763840000000000074e-01	4.311920000000000197e-01	9.994979999999999976e-01
5.773909999999999876e-01	4.332619999999999805e-01	9.945479999999999876e-01
5.773909999999999876e-01	4.343509999999999871e-01	9.994979999999999976e-01
5.789360000000000062e-01	4.361419999999999741e-01	9.945479999999999876e-01
5.783179999999999987e-01	4.361419999999999741e-01	9.994979999999999976e-01
5.813789999999999791e-01	4.410919999999999841e-01	9.945479999999999876e-01
5.809360000000000079e-01	4.410919999999999841e-01	9.994979999999999976e-01
5.753439999999999666e-01	2.727919999999999789e-01	1.004450000000000065e+00
5.752350000000000518e-01	2.777419999999999889e-01	1.004450000000000065e+00
5.763519999999999754e-01	2.826919999999999988e-01	1.004450000000000065e+00
5.765249999999999542e-01	2.876420000000000088e-01	1.004450000000000065e+00
5.773909999999999876e-01	2.918760000000000243e-01	1.004450000000000065e+00
5.773909999999999876e-01	2.925920000000000187e-01	1.003630000000000022e+00
5.775080000000000213e-01	2.925920000000000187e-01	1.004450000000000065e+00
5.773909999999999876e-01	2.975419999999999732e-01	1.004199999999999982e+00
5.774500000000000188e-01	2.975419999999999732e-01	1.004450000000000065e+00
5.783059999999999867e-01	3.024919999999999831e-01	1.004450000000000065e+00
5.773909999999999876e-01	3.074419999999999931e-01	1.001279999999999948e+00
5.773909999999999876e-01	3.123920000000000030e-01	1.000720000000000054e+00
5.781549999999999745e-01	3.074419999999999931e-01	1.004450000000000065e+00
5.780739999999999768e-01	3.123920000000000030e-01	1.004450000000000065e+00
5.773909999999999876e-01	3.173420000000000130e-01	1.003989999999999938e+00
5.773669999999999636e-01	3.222920000000000229e-01	1.004450000000000065e+00
5.773909999999999876e-01	3.209739999999999815e-01	1.004450000000000065e+00
5.774519999999999653e-01	3.173420000000000130e-01	1.004450000000000065e+00
5.766240000000000254e-01	3.272419999999999773e-01	1.004450000000000065e+00
5.762129999999999752e-01	3.321919999999999873e-01	1.004450000000000065e+00
5.755369999999999653e-01	3.371419999999999972e-01	1.004450000000000065e+00
5.759149999999999547e-01	3.420920000000000072e-01	1.004450000000000065e+00
5.764089999999999492e-01	3.470420000000000171e-01	1.004450000000000065e+00
5.773099999999999898e-01	3.519920000000000271e-01	1.004450000000000065e+00
5.773909999999999876e-01	3.523600000000000065e-01	1.004450000000000065e+00
5.784299999999999997e-01	3.569419999999999815e-01	1.004450000000000065e+00
5.795709999999999473e-01	3.618919999999999915e-01	1.004450000000000065e+00
5.773909999999999876e-01	4.202670000000000017e-01	1.004450000000000065e+00
5.773909999999999876e-01	4.212919999999999998e-01	1.000199999999999978e+00
5.770119999999999694e-01	4.212919999999999998e-01	1.004450000000000065e+00
5.804110000000000102e-01	4.113919999999999799e-01	1.004450000000000065e+00
5.790790000000000104e-01	4.163419999999999899e-01	1.004450000000000065e+00
5.761650000000000382e-01	4.262420000000000098e-01	1.004450000000000065e+00
5.768109999999999626e-01	4.311920000000000197e-01	1.004450000000000065e+00
5.773909999999999876e-01	4.334350000000000147e-01	1.004450000000000065e+00
5.783230000000000315e-01	4.361419999999999741e-01	1.004450000000000065e+00
5.804669999999999552e-01	4.410919999999999841e-01	1.004450000000000065e+00
5.755179999999999740e-01	2.727919999999999789e-01	1.009400000000000075e+00
5.752669999999999728e-01	2.777419999999999889e-01	1.009400000000000075e+00
5.760189999999999477e-01	2.826919999999999988e-01	1.009400000000000075e+00
5.760699999999999710e-01	2.876420000000000088e-01	1.009400000000000075e+00
5.773909999999999876e-01	2.923749999999999960e-01	1.009400000000000075e+00
5.774639999999999773e-01	2.925920000000000187e-01	1.009400000000000075e+00
5.779980000000000118e-01	2.975419999999999732e-01	1.009400000000000075e+00
5.789950000000000374e-01	3.024919999999999831e-01	1.009400000000000075e+00
5.786810000000000009e-01	3.074419999999999931e-01	1.009400000000000075e+00
5.789360000000000062e-01	3.123920000000000030e-01	1.009400000000000075e+00
5.773909999999999876e-01	3.222920000000000229e-01	1.005509999999999904e+00
5.780509999999999815e-01	3.173420000000000130e-01	1.009400000000000075e+00
5.774540000000000228e-01	3.222920000000000229e-01	1.009400000000000075e+00
5.760319999999999885e-01	3.272419999999999773e-01	1.009400000000000075e+00
5.773909999999999876e-01	3.224870000000000236e-01	1.009400000000000075e+00
5.756660000000000110e-01	3.321919999999999873e-01	1.009400000000000075e+00
5.758579999999999810e-01	3.371419999999999972e-01	1.009400000000000075e+00
5.759130000000000082e-01	3.420920000000000072e-01	1.009400000000000075e+00
5.760769999999999502e-01	3.470420000000000171e-01	1.009400000000000075e+00
5.772000000000000464e-01	3.519920000000000271e-01	1.009400000000000075e+00
5.773909999999999876e-01	3.525300000000000100e-01	1.009400000000000075e+00
5.790939999999999976e-01	3.569419999999999815e-01	1.009400000000000075e+00
5.805399999999999450e-01	3.618919999999999915e-01	1.009400000000000075e+00
5.773909999999999876e-01	4.212919999999999998e-01	1.008659999999999890e+00
5.818039999999999878e-01	4.113919999999999799e-01	1.009400000000000075e+00
5.802190000000000403e-01	4.163419999999999899e-01	1.009400000000000075e+00
5.775930000000000231e-01	4.212919999999999998e-01	1.009400000000000075e+00
5.773909999999999876e-01	4.262420000000000098e-01	1.009290000000000020e+00
5.773909999999999876e-01	4.311920000000000197e-01	1.009349999999999969e+00
5.774439999999999573e-01	4.262420000000000098e-01	1.009400000000000075e+00
5.774010000000000531e-01	4.311920000000000197e-01	1.009400000000000075e+00
5.785379999999999967e-01	4.361419999999999741e-01	1.009400000000000075e+00
5.806510000000000282e-01	4.410919999999999841e-01	1.009400000000000075e+00
5.755350000000000188e-01	2.727919999999999789e-01	1.014350000000000085e+00
5.749670000000000059e-01	2.777419999999999889e-01	1.014350000000000085e+00
5.745879999999999876e-01	2.826919999999999988e-01	1.014350000000000085e+00
5.752070000000000238e-01	2.876420000000000088e-01	1.014350000000000085e+00
5.763730000000000242e-01	2.925920000000000187e-01	1.014350000000000085e+00
5.773909999999999876e-01	2.925920000000000187e-01	1.009810000000000096e+00
5.773909999999999876e-01	2.969740000000000157e-01	1.014350000000000085e+00
5.775120000000000253e-01	2.975419999999999732e-01	1.014350000000000085e+00
5.785040000000000182e-01	3.024919999999999831e-01	1.014350000000000085e+00
5.786599999999999522e-01	3.074419999999999931e-01	1.014350000000000085e+00
5.789729999999999599e-01	3.123920000000000030e-01	1.014350000000000085e+00
5.783740000000000547e-01	3.173420000000000130e-01	1.014350000000000085e+00
5.778929999999999900e-01	3.222920000000000229e-01	1.014350000000000085e+00
5.770819999999999839e-01	3.272419999999999773e-01	1.014350000000000085e+00
5.773909999999999876e-01	3.254560000000000231e-01	1.014350000000000085e+00
5.764150000000000107e-01	3.321919999999999873e-01	1.014350000000000085e+00
5.767149999999999777e-01	3.371419999999999972e-01	1.014350000000000085e+00
5.764219999999999899e-01	3.420920000000000072e-01	1.014350000000000085e+00
5.773740000000000538e-01	3.470420000000000171e-01	1.014350000000000085e+00
5.773909999999999876e-01	3.471170000000000089e-01	1.014350000000000085e+00
5.773909999999999876e-01	3.519920000000000271e-01	1.010340000000000016e+00
5.788889999999999869e-01	3.519920000000000271e-01	1.014350000000000085e+00
5.802300000000000235e-01	3.569419999999999815e-01	1.014350000000000085e+00
5.814219999999999944e-01	3.618919999999999915e-01	1.014350000000000085e+00
5.816050000000000386e-01	4.163419999999999899e-01	1.014350000000000085e+00
5.823409999999999975e-01	4.136909999999999754e-01	1.014350000000000085e+00
5.823409999999999975e-01	4.113919999999999799e-01	1.011759999999999993e+00
5.828790000000000360e-01	4.113919999999999799e-01	1.014350000000000085e+00
5.804850000000000287e-01	4.212919999999999998e-01	1.014350000000000085e+00
5.799750000000000183e-01	4.262420000000000098e-01	1.014350000000000085e+00
5.794139999999999846e-01	4.311920000000000197e-01	1.014350000000000085e+00
5.800920000000000520e-01	4.361419999999999741e-01	1.014350000000000085e+00
5.808400000000000230e-01	4.410919999999999841e-01	1.014350000000000085e+00
5.751070000000000348e-01	2.727919999999999789e-01	1.019300000000000095e+00
5.745109999999999939e-01	2.777419999999999889e-01	1.019300000000000095e+00
5.733930000000000415e-01	2.826919999999999988e-01	1.019300000000000095e+00
5.746919999999999806e-01	2.876420000000000088e-01	1.019300000000000095e+00
5.758769999999999722e-01	2.925920000000000187e-01	1.019300000000000095e+00
5.773639999999999883e-01	2.975419999999999732e-01	1.019300000000000095e+00
5.773909999999999876e-01	2.975419999999999732e-01	1.018729999999999913e+00
5.773909999999999876e-01	2.976460000000000217e-01	1.019300000000000095e+00
5.781380000000000408e-01	3.024919999999999831e-01	1.019300000000000095e+00
5.782350000000000545e-01	3.074419999999999931e-01	1.019300000000000095e+00
5.788229999999999764e-01	3.123920000000000030e-01	1.019300000000000095e+00
5.785649999999999959e-01	3.173420000000000130e-01	1.019300000000000095e+00
5.782310000000000505e-01	3.222920000000000229e-01	1.019300000000000095e+00
5.773909999999999876e-01	3.272419999999999773e-01	1.015889999999999960e+00
5.773909999999999876e-01	3.321919999999999873e-01	1.017830000000000013e+00
5.780739999999999768e-01	3.272419999999999773e-01	1.019300000000000095e+00
5.778959999999999653e-01	3.321919999999999873e-01	1.019300000000000095e+00
5.773909999999999876e-01	3.371419999999999972e-01	1.017099999999999893e+00
5.773909999999999876e-01	3.420920000000000072e-01	1.017090000000000050e+00
5.780469999999999775e-01	3.371419999999999972e-01	1.019300000000000095e+00
5.784139999999999837e-01	3.420920000000000072e-01	1.019300000000000095e+00
5.773909999999999876e-01	3.470420000000000171e-01	1.014410000000000034e+00
5.789750000000000174e-01	3.470420000000000171e-01	1.019300000000000095e+00
5.800640000000000240e-01	3.519920000000000271e-01	1.019300000000000095e+00
5.832610000000000294e-01	3.915919999999999956e-01	1.014350000000000085e+00
5.836540000000000061e-01	3.965420000000000056e-01	1.014350000000000085e+00
5.845270000000000188e-01	3.965420000000000056e-01	1.019300000000000095e+00
5.843359999999999665e-01	3.915919999999999956e-01	1.019300000000000095e+00
5.837350000000000039e-01	4.014920000000000155e-01	1.014350000000000085e+00
5.852220000000000200e-01	4.014920000000000155e-01	1.019300000000000095e+00
5.834880000000000067e-01	4.064420000000000255e-01	1.014350000000000085e+00
5.847529999999999673e-01	4.064420000000000255e-01	1.019300000000000095e+00
5.845069999999999988e-01	4.113919999999999799e-01	1.019300000000000095e+00
5.823409999999999975e-01	4.163419999999999899e-01	1.016659999999999897e+00
5.830980000000000052e-01	4.163419999999999899e-01	1.019300000000000095e+00
5.816099999999999604e-01	4.212919999999999998e-01	1.019300000000000095e+00
5.823409999999999975e-01	4.185030000000000139e-01	1.019300000000000095e+00
5.746700000000000141e-01	2.727919999999999789e-01	1.024250000000000105e+00
5.740720000000000267e-01	2.777419999999999889e-01	1.024250000000000105e+00
5.735449999999999715e-01	2.826919999999999988e-01	1.024250000000000105e+00
5.739370000000000305e-01	2.876420000000000088e-01	1.024250000000000105e+00
5.746590000000000309e-01	2.925920000000000187e-01	1.024250000000000105e+00
5.754209999999999603e-01	2.975419999999999732e-01	1.024250000000000105e+00
5.765980000000000549e-01	3.024919999999999831e-01	1.024250000000000105e+00
5.773909999999999876e-01	3.024919999999999831e-01	1.022149999999999892e+00
5.773909999999999876e-01	3.074419999999999931e-01	1.024180000000000090e+00
5.773779999999999468e-01	3.074419999999999931e-01	1.024250000000000105e+00
5.773909999999999876e-01	3.074990000000000223e-01	1.024250000000000105e+00
5.783409999999999940e-01	3.123920000000000030e-01	1.024250000000000105e+00
5.784780000000000477e-01	3.173420000000000130e-01	1.024250000000000105e+00
5.789609999999999479e-01	3.222920000000000229e-01	1.024250000000000105e+00
5.792840000000000211e-01	3.272419999999999773e-01	1.024250000000000105e+00
5.796019999999999506e-01	3.321919999999999873e-01	1.024250000000000105e+00
5.799199999999999910e-01	3.371419999999999972e-01	1.024250000000000105e+00
5.802310000000000523e-01	3.420920000000000072e-01	1.024250000000000105e+00
5.806810000000000027e-01	3.470420000000000171e-01	1.024250000000000105e+00
5.805700000000000305e-01	3.519920000000000271e-01	1.024250000000000105e+00
5.837449999999999584e-01	3.915919999999999956e-01	1.024250000000000105e+00
5.843620000000000481e-01	3.965420000000000056e-01	1.024250000000000105e+00
5.862730000000000441e-01	4.014920000000000155e-01	1.024250000000000105e+00
5.860610000000000541e-01	4.064420000000000255e-01	1.024250000000000105e+00
5.865949999999999775e-01	4.113919999999999799e-01	1.024250000000000105e+00
5.836860000000000381e-01	4.163419999999999899e-01	1.024250000000000105e+00
5.823409999999999975e-01	4.212919999999999998e-01	1.022799999999999931e+00
5.825270000000000170e-01	4.212919999999999998e-01	1.024250000000000105e+00
5.729859999999999953e-01	2.925920000000000187e-01	1.029199999999999893e+00
5.743209999999999704e-01	2.975419999999999732e-01	1.029199999999999893e+00
5.749429999999999819e-01	3.024919999999999831e-01	1.029199999999999893e+00
5.761640000000000095e-01	3.074419999999999931e-01	1.029199999999999893e+00
5.773310000000000386e-01	3.123920000000000030e-01	1.029199999999999893e+00
5.773909999999999876e-01	3.123920000000000030e-01	1.028939999999999966e+00
5.773909999999999876e-01	3.126840000000000175e-01	1.029199999999999893e+00
5.782669999999999755e-01	3.173420000000000130e-01	1.029199999999999893e+00
5.792720000000000091e-01	3.222920000000000229e-01	1.029199999999999893e+00
5.821380000000000443e-01	3.519920000000000271e-01	1.029199999999999893e+00
5.809969999999999857e-01	3.569419999999999815e-01	1.024250000000000105e+00
5.811359999999999859e-01	3.569419999999999815e-01	1.029199999999999893e+00
5.811290000000000067e-01	3.618919999999999915e-01	1.024250000000000105e+00
5.814259999999999984e-01	3.618919999999999915e-01	1.029199999999999893e+00
5.813000000000000389e-01	3.668420000000000014e-01	1.024250000000000105e+00
5.805129999999999457e-01	3.668420000000000014e-01	1.029199999999999893e+00
5.813749999999999751e-01	3.717920000000000114e-01	1.024250000000000105e+00
5.804540000000000255e-01	3.717920000000000114e-01	1.029199999999999893e+00
