1.414809999999999901e+00	-1.201620000000000049e-01	9.333580000000000210e-01
1.414889999999999981e+00	-1.160349999999999993e-01	9.334350000000000147e-01
1.415030000000000010e+00	-1.103419999999999956e-01	9.331690000000000262e-01
1.415159999999999973e+00	-1.032109999999999972e-01	9.330730000000000413e-01
1.415280000000000094e+00	-9.589499999999999413e-02	9.334289999999999532e-01
1.415380000000000082e+00	-9.068199999999999872e-02	9.341000000000000414e-01
1.415529999999999955e+00	-8.709100000000000175e-02	9.320659999999999501e-01
1.415810000000000013e+00	-8.129899999999999627e-02	9.321979999999999711e-01
1.415950000000000042e+00	-7.566799999999999915e-02	9.342519999999999714e-01
1.416109999999999980e+00	-6.910399999999999876e-02	9.333620000000000250e-01
1.416179999999999994e+00	-6.366399999999999837e-02	9.331589999999999607e-01
1.416430000000000078e+00	-5.835300000000000209e-02	9.332000000000000295e-01
1.416919999999999957e+00	-5.249700000000000200e-02	9.342740000000000489e-01
1.417419999999999902e+00	-4.751799999999999774e-02	9.330119999999999525e-01
1.417829999999999924e+00	-4.375699999999999729e-02	9.345240000000000213e-01
1.417659999999999920e+00	-4.248600000000000293e-02	9.308640000000000247e-01
1.417929999999999913e+00	-4.122200000000000170e-02	9.340640000000000054e-01
1.417960000000000109e+00	-3.708199999999999691e-02	9.327539999999999720e-01
1.419180000000000108e+00	-8.177000000000000240e-03	9.331789999999999807e-01
1.418679999999999941e+00	-1.454899999999999943e-02	9.325980000000000381e-01
1.419829999999999925e+00	-2.585000000000000058e-03	9.333150000000000057e-01
1.420639999999999903e+00	2.895000000000000004e-03	9.330829999999999957e-01
1.422020000000000062e+00	9.922999999999999529e-03	9.330239999999999645e-01
1.422479999999999967e+00	1.380699999999999983e-02	9.352890000000000370e-01
1.422749999999999959e+00	1.293200000000000079e-02	9.330009999999999692e-01
1.422970000000000068e+00	1.404900000000000072e-02	9.329760000000000275e-01
1.422960000000000003e+00	1.942299999999999929e-02	9.330180000000000140e-01
1.423010000000000108e+00	1.537099999999999925e-02	9.329629999999999868e-01
1.422919999999999963e+00	2.556699999999999945e-02	9.345909999999999496e-01
1.423089999999999966e+00	3.067200000000000135e-02	9.323409999999999753e-01
1.423140000000000072e+00	3.769299999999999734e-02	9.335259999999999669e-01
1.423079999999999901e+00	3.726600000000000051e-02	9.373519999999999630e-01
1.423089999999999966e+00	4.213100000000000178e-02	9.352049999999999530e-01
1.423100000000000032e+00	4.640999999999999986e-02	9.345130000000000381e-01
1.423249999999999904e+00	5.237900000000000195e-02	9.328910000000000258e-01
1.423399999999999999e+00	5.785200000000000065e-02	9.331549999999999567e-01
1.423380000000000090e+00	5.926300000000000318e-02	9.364320000000000421e-01
1.423519999999999897e+00	6.564799999999999802e-02	9.361960000000000282e-01
1.423489999999999922e+00	6.170799999999999896e-02	9.342749999999999666e-01
1.423689999999999900e+00	6.448900000000000465e-02	9.320619999999999461e-01
1.423689999999999900e+00	7.056400000000000172e-02	9.367020000000000346e-01
1.423319999999999919e+00	6.742099999999999482e-02	9.401709999999999789e-01
1.423829999999999929e+00	6.853900000000000270e-02	9.322289999999999743e-01
1.423480000000000079e+00	7.162300000000000610e-02	9.410309999999999508e-01
1.423810000000000020e+00	7.479600000000000137e-02	9.381699999999999484e-01
1.424020000000000064e+00	7.528799999999999382e-02	9.324999999999999956e-01
1.424160000000000093e+00	8.065999999999999559e-02	9.331570000000000142e-01
1.423920000000000075e+00	8.082100000000000395e-02	9.383399999999999519e-01
1.424199999999999910e+00	8.467700000000000227e-02	9.331709999999999727e-01
1.424080000000000013e+00	8.699300000000000088e-02	9.371519999999999850e-01
1.424220000000000041e+00	9.013100000000000278e-02	9.331180000000000030e-01
1.423959999999999892e+00	9.236700000000000466e-02	9.393939999999999513e-01
1.424239999999999950e+00	9.622400000000000397e-02	9.331190000000000317e-01
1.424120000000000053e+00	9.946099999999999386e-02	9.384200000000000319e-01
1.424330000000000096e+00	1.035579999999999973e-01	9.330209999999999892e-01
1.424239999999999950e+00	1.038690000000000030e-01	9.381950000000000012e-01
1.424460000000000059e+00	1.087219999999999992e-01	9.328920000000000545e-01
1.424339999999999939e+00	1.088179999999999981e-01	9.380619999999999514e-01
1.424590000000000023e+00	1.136420000000000069e-01	9.323590000000000488e-01
1.424490000000000034e+00	1.157159999999999994e-01	9.382890000000000397e-01
1.424749999999999961e+00	1.190260000000000068e-01	9.340739999999999599e-01
1.424560000000000048e+00	1.216020000000000018e-01	9.384379999999999944e-01
1.418560000000000043e+00	-2.690000000000000117e-03	9.470849999999999547e-01
1.422889999999999988e+00	4.182799999999999713e-02	9.486029999999999740e-01
1.422960000000000003e+00	5.345500000000000251e-02	9.468900000000000095e-01
1.417780000000000040e+00	-6.443100000000000216e-02	9.636789999999999523e-01
1.418129999999999891e+00	-5.284599999999999714e-02	9.624179999999999957e-01
1.418430000000000080e+00	-4.644399999999999917e-02	9.620300000000000518e-01
1.419319999999999915e+00	-1.303600000000000071e-02	9.602209999999999912e-01
1.419689999999999896e+00	-6.231999999999999693e-03	9.606289999999999552e-01
1.419869999999999965e+00	-1.546000000000000065e-03	9.598830000000000418e-01
1.420420000000000016e+00	3.103999999999999988e-03	9.608879999999999644e-01
1.421040000000000081e+00	8.059999999999999457e-03	9.622389999999999555e-01
1.421359999999999957e+00	1.409799999999999942e-02	9.611969999999999681e-01
1.421950000000000047e+00	2.043700000000000030e-02	9.620600000000000263e-01
1.422379999999999978e+00	2.650599999999999831e-02	9.603880000000000194e-01
1.423130000000000006e+00	3.153799999999999659e-02	9.626639999999999642e-01
1.422800000000000065e+00	3.041400000000000006e-02	9.597790000000000488e-01
1.423040000000000083e+00	3.269999999999999990e-02	9.596320000000000405e-01
1.423329999999999984e+00	3.503599999999999770e-02	9.614230000000000276e-01
1.423419999999999908e+00	3.945499999999999702e-02	9.606999999999999984e-01
1.419540000000000024e+00	-3.665500000000000008e-02	9.709590000000000165e-01
1.418649999999999967e+00	-4.251800000000000024e-02	9.626949999999999674e-01
1.418639999999999901e+00	-3.734799999999999925e-02	9.609929999999999861e-01
1.419920000000000071e+00	-2.269200000000000036e-02	9.693049999999999722e-01
1.419000000000000039e+00	-3.041200000000000153e-02	9.621840000000000392e-01
1.419270000000000032e+00	-2.477700000000000041e-02	9.626740000000000297e-01
1.419310000000000072e+00	-2.001599999999999907e-02	9.620060000000000278e-01
1.420700000000000074e+00	-1.571300000000000127e-02	9.760849999999999804e-01
1.421210000000000084e+00	-8.618999999999999925e-03	9.788310000000000066e-01
1.421620000000000106e+00	-2.455999999999999850e-03	9.792990000000000306e-01
1.421850000000000058e+00	1.551999999999999994e-03	9.770670000000000188e-01
1.422460000000000058e+00	7.830999999999999420e-03	9.775390000000000468e-01
1.423079999999999901e+00	1.317499999999999921e-02	9.771079999999999766e-01
1.423329999999999984e+00	1.512999999999999935e-02	9.746299999999999963e-01
1.423380000000000090e+00	1.675000000000000100e-02	9.777190000000000047e-01
1.423499999999999988e+00	2.005099999999999938e-02	9.769229999999999858e-01
1.423319999999999919e+00	2.738399999999999862e-02	9.771539999999999671e-01
1.423410000000000064e+00	2.284600000000000172e-02	9.783939999999999859e-01
1.423359999999999959e+00	3.289299999999999863e-02	9.775089999999999613e-01
1.423429999999999973e+00	3.604199999999999765e-02	9.774040000000000505e-01
1.423610000000000042e+00	3.946399999999999908e-02	9.771600000000000286e-01
1.423759999999999915e+00	4.327099999999999697e-02	9.750170000000000226e-01
1.423810000000000020e+00	4.288499999999999951e-02	9.778999999999999915e-01
1.423689999999999900e+00	4.286299999999999832e-02	9.724030000000000173e-01
1.424060000000000104e+00	4.764999999999999791e-02	9.781090000000000062e-01
1.423869999999999969e+00	4.661099999999999965e-02	9.715589999999999504e-01
1.424169999999999936e+00	5.395300000000000096e-02	9.730459999999999665e-01
1.424309999999999965e+00	5.410399999999999932e-02	9.789780000000000149e-01
1.424290000000000056e+00	5.906399999999999845e-02	9.726390000000000313e-01
1.424420000000000019e+00	5.949299999999999727e-02	9.774150000000000338e-01
1.424379999999999979e+00	6.386899999999999522e-02	9.730349999999999833e-01
1.424549999999999983e+00	6.483300000000000174e-02	9.783910000000000107e-01
1.424369999999999914e+00	7.002999999999999503e-02	9.717580000000000107e-01
1.424549999999999983e+00	6.848300000000000221e-02	9.765369999999999884e-01
1.424290000000000056e+00	7.526800000000000157e-02	9.701229999999999576e-01
1.424600000000000088e+00	7.464999999999999414e-02	9.766369999999999774e-01
1.424339999999999939e+00	8.123400000000000065e-02	9.717710000000000514e-01
1.424830000000000041e+00	8.226400000000000379e-02	9.792159999999999753e-01
1.424600000000000088e+00	8.714500000000000024e-02	9.748010000000000286e-01
1.424900000000000055e+00	8.777500000000000580e-02	9.794140000000000068e-01
1.424560000000000048e+00	9.297099999999999809e-02	9.721849999999999659e-01
1.424840000000000106e+00	9.213100000000000456e-02	9.779609999999999692e-01
1.424709999999999921e+00	9.783400000000000429e-02	9.721849999999999659e-01
1.424860000000000015e+00	9.822400000000000575e-02	9.767909999999999648e-01
1.424930000000000030e+00	1.029700000000000060e-01	9.775979999999999670e-01
1.424970000000000070e+00	1.076140000000000013e-01	9.786780000000000479e-01
1.424940000000000095e+00	1.129249999999999976e-01	9.770419999999999661e-01
1.425079999999999902e+00	1.182919999999999944e-01	9.775120000000000475e-01
1.425570000000000004e+00	1.258340000000000014e-01	9.775220000000000020e-01
1.426180000000000003e+00	1.310030000000000083e-01	9.779630000000000267e-01
1.426889999999999992e+00	1.355260000000000076e-01	9.785329999999999862e-01
1.427950000000000053e+00	1.405170000000000030e-01	9.758580000000000032e-01
1.428479999999999972e+00	1.440520000000000134e-01	9.805289999999999839e-01
1.428639999999999910e+00	1.434120000000000117e-01	9.775139999999999940e-01
1.429200000000000026e+00	1.448230000000000073e-01	9.756289999999999685e-01
1.421890000000000098e+00	-1.737000000000000046e-03	9.855190000000000339e-01
1.421229999999999993e+00	-1.353900000000000069e-02	9.845829999999999860e-01
1.421599999999999975e+00	-5.420999999999999604e-03	9.832990000000000341e-01
1.421329999999999982e+00	-1.011500000000000073e-02	9.831290000000000306e-01
1.421070000000000055e+00	-1.405999999999999958e-02	9.815030000000000143e-01
1.422520000000000007e+00	8.999000000000000055e-03	9.852149999999999519e-01
1.422090000000000076e+00	2.576000000000000165e-03	9.824279999999999680e-01
1.422539999999999916e+00	8.448000000000000648e-03	9.828879999999999839e-01
1.423040000000000083e+00	2.148399999999999962e-02	9.861929999999999863e-01
1.422970000000000068e+00	1.446899999999999922e-02	9.821490000000000498e-01
1.423170000000000046e+00	1.994299999999999892e-02	9.838409999999999656e-01
1.423270000000000035e+00	2.457499999999999962e-02	9.827479999999999549e-01
1.409399999999999986e+00	-1.463820000000000121e-01	8.045109999999999761e-01
1.410190000000000055e+00	-1.324319999999999942e-01	8.027309999999999723e-01
1.410819999999999963e+00	-1.219549999999999940e-01	8.003789999999999516e-01
1.417149999999999910e+00	4.211999999999999772e-02	8.247740000000000071e-01
1.417839999999999989e+00	5.986299999999999955e-02	8.240110000000000490e-01
1.418209999999999971e+00	6.981700000000000406e-02	8.225749999999999451e-01
1.418600000000000083e+00	8.179899999999999671e-02	8.234939999999999483e-01
1.418949999999999934e+00	8.550399999999999667e-02	8.239400000000000057e-01
1.415149999999999908e+00	-1.320799999999999925e-02	8.483619999999999495e-01
1.415300000000000002e+00	-8.628999999999999518e-03	8.487580000000000124e-01
1.415499999999999980e+00	-4.648000000000000222e-03	8.492169999999999996e-01
1.415829999999999922e+00	2.481999999999999831e-03	8.495420000000000194e-01
1.416029999999999900e+00	8.220999999999999142e-03	8.492809999999999526e-01
1.416190000000000060e+00	1.327799999999999987e-02	8.488050000000000317e-01
1.416649999999999965e+00	1.862600000000000020e-02	8.506650000000000045e-01
1.417100000000000026e+00	2.369999999999999885e-02	8.502410000000000245e-01
1.417459999999999942e+00	2.850300000000000056e-02	8.485000000000000320e-01
1.417729999999999935e+00	3.266299999999999759e-02	8.472169999999999979e-01
1.417969999999999953e+00	3.645600000000000229e-02	8.466139999999999777e-01
1.419829999999999925e+00	5.718299999999999772e-02	8.499280000000000168e-01
1.419540000000000024e+00	5.099200000000000260e-02	8.511229999999999629e-01
1.420609999999999928e+00	6.448299999999999865e-02	8.495179999999999954e-01
1.421389999999999931e+00	7.106500000000000317e-02	8.484110000000000262e-01
1.422139999999999960e+00	7.745699999999999807e-02	8.491849999999999676e-01
1.422579999999999956e+00	8.249199999999999589e-02	8.492539999999999534e-01
1.422900000000000054e+00	8.647499999999999631e-02	8.486329999999999707e-01
1.423210000000000086e+00	8.992400000000000393e-02	8.501370000000000315e-01
1.423370000000000024e+00	9.340800000000000491e-02	8.474249999999999838e-01
1.423319999999999919e+00	9.761499999999999344e-02	8.466439999999999522e-01
1.423370000000000024e+00	1.102800000000000030e-01	8.465989999999999904e-01
1.423429999999999973e+00	1.152689999999999965e-01	8.460109999999999575e-01
1.419000000000000039e+00	4.556199999999999833e-02	8.498419999999999863e-01
1.416239999999999943e+00	-7.100000000000000408e-03	8.671240000000000059e-01
1.416509999999999936e+00	-2.226999999999999813e-03	8.666989999999999972e-01
1.416860000000000008e+00	3.210999999999999879e-03	8.667639999999999789e-01
1.417310000000000070e+00	8.611999999999999864e-03	8.674399999999999888e-01
1.417529999999999957e+00	1.179999999999999973e-02	8.664180000000000215e-01
1.417859999999999898e+00	1.482799999999999917e-02	8.681759999999999478e-01
1.418239999999999945e+00	2.024700000000000111e-02	8.680080000000000018e-01
1.420900000000000052e+00	4.557200000000000140e-02	8.661860000000000115e-01
1.420060000000000100e+00	3.855200000000000293e-02	8.661480000000000290e-01
1.421780000000000044e+00	5.338299999999999990e-02	8.664939999999999864e-01
1.422539999999999916e+00	5.832699999999999690e-02	8.688129999999999464e-01
1.422129999999999894e+00	5.822100000000000192e-02	8.655770000000000408e-01
1.422379999999999978e+00	6.245400000000000257e-02	8.663340000000000485e-01
1.423000000000000043e+00	7.173699999999999521e-02	8.698609999999999953e-01
1.422460000000000058e+00	6.894500000000000628e-02	8.651600000000000401e-01
1.422719999999999985e+00	7.431799999999999518e-02	8.661119999999999930e-01
1.423059999999999992e+00	7.668999999999999428e-02	8.688649999999999984e-01
1.422849999999999948e+00	8.020499999999999852e-02	8.645460000000000367e-01
1.423300000000000010e+00	8.235699999999999965e-02	8.695509999999999629e-01
1.423210000000000086e+00	8.671299999999999841e-02	8.655580000000000496e-01
1.423399999999999999e+00	8.806400000000000339e-02	8.684629999999999850e-01
1.423410000000000064e+00	9.195799999999999808e-02	8.662849999999999717e-01
1.423499999999999988e+00	9.199200000000000432e-02	8.694760000000000266e-01
1.423519999999999897e+00	9.736000000000000210e-02	8.681240000000000068e-01
1.423599999999999977e+00	1.030670000000000058e-01	8.690839999999999677e-01
1.423529999999999962e+00	1.025719999999999965e-01	8.645690000000000319e-01
1.423599999999999977e+00	1.066539999999999988e-01	8.670600000000000529e-01
1.419529999999999959e+00	3.039800000000000141e-02	8.731170000000000320e-01
1.420160000000000089e+00	3.155800000000000272e-02	8.830660000000000176e-01
1.419519999999999893e+00	2.482200000000000031e-02	8.835699999999999665e-01
1.420770000000000088e+00	3.727500000000000258e-02	8.822860000000000147e-01
1.424439999999999928e+00	1.246509999999999979e-01	8.836549999999999683e-01
1.424530000000000074e+00	1.318979999999999875e-01	8.819390000000000285e-01
1.424639999999999906e+00	1.383820000000000050e-01	8.825899999999999856e-01
1.424709999999999921e+00	1.418250000000000066e-01	8.830569999999999808e-01
1.424809999999999910e+00	1.434340000000000059e-01	8.831029999999999713e-01
1.417620000000000102e+00	-2.317000000000000049e-03	8.859740000000000393e-01
1.417920000000000069e+00	-6.649000000000000396e-03	9.019810000000000327e-01
1.422390000000000043e+00	2.532399999999999929e-02	9.019260000000000055e-01
1.422840000000000105e+00	4.055199999999999777e-02	9.034680000000000488e-01
1.423699999999999966e+00	6.944300000000000472e-02	9.019970000000000487e-01
1.424039999999999973e+00	8.671199999999999741e-02	9.017230000000000523e-01
1.424630000000000063e+00	1.017750000000000044e-01	9.053170000000000384e-01
1.424639999999999906e+00	1.074299999999999977e-01	9.050550000000000539e-01
1.424590000000000023e+00	1.128890000000000032e-01	9.052519999999999456e-01
1.419210000000000083e+00	-7.654000000000000213e-03	9.254250000000000531e-01
1.422770000000000090e+00	1.397400000000000031e-02	9.308110000000000550e-01
1.423249999999999904e+00	2.503700000000000023e-02	9.303080000000000238e-01
1.423270000000000035e+00	4.316600000000000298e-02	9.308520000000000127e-01
1.423310000000000075e+00	4.778400000000000009e-02	9.304259999999999753e-01
1.424879999999999924e+00	1.241280000000000022e-01	9.332470000000000487e-01
1.424690000000000012e+00	1.274200000000000055e-01	9.382160000000000499e-01
1.425130000000000008e+00	1.299440000000000039e-01	9.330969999999999542e-01
1.425079999999999902e+00	1.330830000000000068e-01	9.379720000000000280e-01
1.425710000000000033e+00	1.360300000000000120e-01	9.323420000000000041e-01
1.425929999999999920e+00	1.384360000000000035e-01	9.384529999999999816e-01
1.426749999999999963e+00	1.419259999999999966e-01	9.336659999999999959e-01
1.427259999999999973e+00	1.429439999999999877e-01	9.397590000000000110e-01
1.428230000000000111e+00	1.452219999999999900e-01	9.405750000000000499e-01
1.427829999999999933e+00	1.447749999999999870e-01	9.374139999999999695e-01
1.427240000000000064e+00	1.442849999999999966e-01	9.327940000000000120e-01
1.428649999999999975e+00	1.459340000000000082e-01	9.416240000000000165e-01
1.423079999999999901e+00	3.543999999999999928e-02	9.579509999999999970e-01
1.423359999999999959e+00	4.212599999999999678e-02	9.575660000000000283e-01
1.423480000000000079e+00	5.437199999999999672e-02	9.580849999999999644e-01
1.423610000000000042e+00	5.924100000000000199e-02	9.586649999999999894e-01
1.423470000000000013e+00	6.268700000000000661e-02	9.573760000000000048e-01
1.423470000000000013e+00	6.759800000000000531e-02	9.579210000000000225e-01
1.423480000000000079e+00	7.498900000000000010e-02	9.583249999999999824e-01
1.418009999999999993e+00	-9.044599999999999862e-02	9.765239999999999476e-01
1.419070000000000054e+00	-9.524199999999999333e-02	9.834009999999999696e-01
1.418039999999999967e+00	-7.989999999999999880e-02	9.757379999999999942e-01
1.419000000000000039e+00	-8.276999999999999635e-02	9.835040000000000449e-01
1.418900000000000050e+00	-7.014700000000000102e-02	9.797069999999999945e-01
1.419429999999999970e+00	-5.758200000000000124e-02	9.795599999999999863e-01
1.419820000000000082e+00	-4.544399999999999828e-02	9.795530000000000070e-01
1.420250000000000012e+00	-3.438800000000000190e-02	9.819250000000000478e-01
1.420549999999999979e+00	-2.342699999999999991e-02	9.797420000000000018e-01
1.412050000000000027e+00	-1.081680000000000003e-01	8.115050000000000319e-01
1.412050000000000027e+00	-1.102999999999999953e-01	8.159830000000000139e-01
1.412349999999999994e+00	-1.059910000000000019e-01	8.159939999999999971e-01
1.412339999999999929e+00	-1.043039999999999939e-01	8.125590000000000312e-01
1.412130000000000107e+00	-1.049709999999999949e-01	8.088419999999999499e-01
1.412570000000000103e+00	-1.017929999999999946e-01	8.160250000000000004e-01
1.412430000000000074e+00	-1.007580000000000003e-01	8.108170000000000099e-01
1.412690000000000001e+00	-9.806199999999999639e-02	8.150910000000000100e-01
1.412660000000000027e+00	-9.633600000000000496e-02	8.117119999999999891e-01
1.412749999999999950e+00	-9.174100000000000310e-02	8.094179999999999708e-01
1.412840000000000096e+00	-9.365500000000000214e-02	8.156809999999999894e-01
1.412919999999999954e+00	-8.682700000000000140e-02	8.100309999999999455e-01
1.412970000000000059e+00	-8.683899999999999952e-02	8.158170000000000144e-01
1.412970000000000059e+00	-8.242499999999999827e-02	8.101699999999999458e-01
1.413070000000000048e+00	-7.937299999999999911e-02	8.159819999999999851e-01
1.413030000000000008e+00	-7.582999999999999463e-02	8.097929999999999851e-01
1.413170000000000037e+00	-7.316599999999999493e-02	8.158130000000000104e-01
1.413119999999999932e+00	-7.067700000000000371e-02	8.111270000000000424e-01
1.413280000000000092e+00	-6.834500000000000297e-02	8.146710000000000340e-01
1.413300000000000001e+00	-6.519700000000000495e-02	8.095069999999999766e-01
1.413520000000000110e+00	-6.369800000000000462e-02	8.158290000000000264e-01
1.413620000000000099e+00	-5.818399999999999961e-02	8.113460000000000116e-01
1.413739999999999997e+00	-5.915100000000000219e-02	8.172829999999999817e-01
1.413820000000000077e+00	-5.128400000000000319e-02	8.108090000000000019e-01
1.413839999999999986e+00	-5.417399999999999993e-02	8.165219999999999700e-01
1.413929999999999909e+00	-4.527199999999999974e-02	8.105869999999999465e-01
1.413960000000000106e+00	-4.755100000000000299e-02	8.170129999999999892e-01
1.414009999999999989e+00	-3.984599999999999947e-02	8.103460000000000107e-01
1.413999999999999924e+00	-4.143899999999999667e-02	8.156569999999999654e-01
1.414109999999999978e+00	-3.450700000000000295e-02	8.102629999999999555e-01
1.414050000000000029e+00	-3.681500000000000050e-02	8.145609999999999795e-01
1.414209999999999967e+00	-2.890699999999999867e-02	8.099250000000000060e-01
1.414169999999999927e+00	-3.119399999999999951e-02	8.162150000000000238e-01
1.414279999999999982e+00	-2.408300000000000024e-02	8.087309999999999777e-01
1.414239999999999942e+00	-2.458199999999999968e-02	8.140140000000000153e-01
1.414320000000000022e+00	-1.942800000000000082e-02	8.101359999999999673e-01
1.414360000000000062e+00	-1.858200000000000129e-02	8.167959999999999665e-01
1.414420000000000011e+00	-1.302799999999999965e-02	8.113380000000000036e-01
1.414449999999999985e+00	-1.285000000000000031e-02	8.172690000000000232e-01
1.414549999999999974e+00	-6.465000000000000260e-03	8.105369999999999520e-01
1.414500000000000091e+00	-8.708000000000000462e-03	8.152310000000000390e-01
1.414670000000000094e+00	-2.214999999999999955e-03	8.105679999999999552e-01
1.414709999999999912e+00	-2.308000000000000156e-03	8.160840000000000316e-01
1.414909999999999890e+00	3.135999999999999899e-03	8.101739999999999498e-01
1.414889999999999981e+00	4.031999999999999994e-03	8.166229999999999878e-01
1.415110000000000090e+00	9.383000000000000715e-03	8.088450000000000362e-01
1.415019999999999945e+00	9.476999999999999313e-03	8.145520000000000538e-01
1.415159999999999973e+00	1.422700000000000006e-02	8.098899999999999988e-01
1.415100000000000025e+00	1.516299999999999940e-02	8.146660000000000013e-01
1.415219999999999922e+00	2.029100000000000001e-02	8.109790000000000054e-01
1.415149999999999908e+00	1.875500000000000084e-02	8.168619999999999770e-01
1.415340000000000042e+00	2.619399999999999853e-02	8.094369999999999621e-01
1.415359999999999951e+00	2.538199999999999831e-02	8.160110000000000419e-01
1.415510000000000046e+00	3.153799999999999659e-02	8.107229999999999714e-01
1.415589999999999904e+00	3.080199999999999952e-02	8.154850000000000154e-01
1.415680000000000049e+00	3.740199999999999775e-02	8.094479999999999453e-01
1.415859999999999896e+00	3.579600000000000143e-02	8.150190000000000490e-01
1.416009999999999991e+00	4.220499999999999946e-02	8.116729999999999778e-01
1.418570000000000109e+00	1.212430000000000035e-01	8.111420000000000297e-01
1.416970000000000063e+00	1.287240000000000051e-01	8.050599999999999978e-01
1.419000000000000039e+00	1.301390000000000047e-01	8.123569999999999958e-01
1.418690000000000007e+00	1.363999999999999935e-01	8.114379999999999926e-01
1.416849999999999943e+00	1.347579999999999889e-01	8.046619999999999884e-01
1.411480000000000068e+00	-1.204650000000000026e-01	8.207140000000000546e-01
1.411000000000000032e+00	-1.279000000000000137e-01	8.210520000000000040e-01
1.411850000000000049e+00	-1.151189999999999991e-01	8.210140000000000216e-01
1.412130000000000107e+00	-1.112149999999999944e-01	8.210220000000000296e-01
1.412330000000000085e+00	-1.076420000000000016e-01	8.193599999999999772e-01
1.412439999999999918e+00	-1.070750000000000035e-01	8.227470000000000061e-01
1.412560000000000038e+00	-1.039390000000000036e-01	8.204320000000000501e-01
1.412819999999999965e+00	-9.769500000000000406e-02	8.211540000000000505e-01
1.412970000000000059e+00	-9.144299999999999651e-02	8.205200000000000271e-01
1.413070000000000048e+00	-8.742800000000000571e-02	8.225270000000000081e-01
1.413129999999999997e+00	-8.225499999999999479e-02	8.218050000000000077e-01
1.413310000000000066e+00	-7.560600000000000653e-02	8.223430000000000462e-01
1.413499999999999979e+00	-6.854599999999999582e-02	8.206120000000000081e-01
1.413759999999999906e+00	-6.236200000000000077e-02	8.213970000000000438e-01
1.413899999999999935e+00	-5.704000000000000042e-02	8.217480000000000340e-01
1.413990000000000080e+00	-5.158100000000000185e-02	8.219480000000000119e-01
1.414060000000000095e+00	-4.680499999999999938e-02	8.229119999999999768e-01
1.414080000000000004e+00	-4.207799999999999735e-02	8.215850000000000097e-01
1.414120000000000044e+00	-3.660399999999999765e-02	8.196839999999999682e-01
1.414230000000000098e+00	-3.164200000000000346e-02	8.224249999999999616e-01
1.414320000000000022e+00	-2.490600000000000105e-02	8.216210000000000457e-01
1.414420000000000011e+00	-1.961999999999999855e-02	8.218119999999999870e-01
1.414490000000000025e+00	-1.524200000000000034e-02	8.219170000000000087e-01
1.414649999999999963e+00	-8.162000000000000852e-03	8.218379999999999574e-01
1.414819999999999967e+00	-1.902999999999999961e-03	8.226799999999999669e-01
1.414900000000000047e+00	2.834000000000000147e-03	8.215059999999999585e-01
1.414970000000000061e+00	7.524999999999999571e-03	8.201640000000000041e-01
1.415070000000000050e+00	1.342999999999999923e-02	8.204139999999999766e-01
1.415219999999999922e+00	1.991599999999999968e-02	8.218309999999999782e-01
1.415459999999999940e+00	2.545599999999999946e-02	8.231209999999999916e-01
1.415699999999999958e+00	3.074500000000000149e-02	8.196890000000000009e-01
1.416339999999999932e+00	3.715100000000000346e-02	8.215289999999999537e-01
1.408470000000000111e+00	-1.684319999999999984e-01	8.447459999999999969e-01
1.408870000000000067e+00	-1.647419999999999995e-01	8.395319999999999450e-01
1.409419999999999895e+00	-1.635489999999999999e-01	8.452159999999999673e-01
1.408560000000000034e+00	-1.665949999999999931e-01	8.372239999999999682e-01
1.409650000000000070e+00	-1.588749999999999885e-01	8.385909999999999753e-01
1.410039999999999960e+00	-1.592230000000000034e-01	8.442589999999999817e-01
1.410490000000000022e+00	-1.528470000000000106e-01	8.394420000000000215e-01
1.410609999999999919e+00	-1.552759999999999974e-01	8.441380000000000550e-01
1.411410000000000053e+00	-1.494070000000000120e-01	8.439330000000000442e-01
1.410819999999999963e+00	-1.477910000000000057e-01	8.375580000000000247e-01
1.411640000000000006e+00	-1.460239999999999871e-01	8.420060000000000322e-01
1.411899999999999933e+00	-1.471139999999999948e-01	8.438280000000000225e-01
1.411950000000000038e+00	-1.417360000000000009e-01	8.439879999999999605e-01
1.411329999999999973e+00	-1.430150000000000032e-01	8.388919999999999710e-01
1.411990000000000078e+00	-1.455839999999999912e-01	8.438459999999999850e-01
1.411589999999999900e+00	-1.365439999999999987e-01	8.381840000000000401e-01
1.412029999999999896e+00	-1.373350000000000126e-01	8.430130000000000123e-01
1.412269999999999914e+00	-1.338129999999999875e-01	8.433619999999999450e-01
1.412190000000000056e+00	-1.301289999999999947e-01	8.401239999999999819e-01
1.411739999999999995e+00	-1.300830000000000042e-01	8.359820000000000029e-01
1.412660000000000027e+00	-1.289679999999999993e-01	8.444479999999999764e-01
1.412139999999999951e+00	-1.245799999999999963e-01	8.372770000000000490e-01
1.412549999999999972e+00	-1.257890000000000119e-01	8.414559999999999818e-01
1.412870000000000070e+00	-1.237459999999999949e-01	8.449259999999999549e-01
1.412590000000000012e+00	-1.207550000000000012e-01	8.410860000000000003e-01
1.412269999999999914e+00	-1.194680000000000047e-01	8.375540000000000207e-01
1.412889999999999979e+00	-1.197779999999999956e-01	8.445319999999999494e-01
1.412439999999999918e+00	-1.170339999999999991e-01	8.395080000000000320e-01
1.412770000000000081e+00	-1.149440000000000045e-01	8.430760000000000476e-01
1.412439999999999918e+00	-1.149570000000000036e-01	8.392150000000000443e-01
1.412719999999999976e+00	-1.091810000000000003e-01	8.410020000000000273e-01
1.412430000000000074e+00	-1.126820000000000044e-01	8.376780000000000337e-01
1.412490000000000023e+00	-1.091209999999999958e-01	8.371389999999999665e-01
1.413119999999999932e+00	-1.085190000000000043e-01	8.462480000000000002e-01
1.412700000000000067e+00	-1.061769999999999936e-01	8.388189999999999813e-01
1.413100000000000023e+00	-1.035579999999999973e-01	8.434840000000000115e-01
1.412930000000000019e+00	-1.018830000000000013e-01	8.376860000000000417e-01
1.413249999999999895e+00	-9.656499999999999806e-02	8.388970000000000038e-01
1.413300000000000001e+00	-9.855600000000000471e-02	8.424880000000000146e-01
1.413429999999999964e+00	-9.133199999999999652e-02	8.376310000000000144e-01
1.413589999999999902e+00	-9.341800000000000104e-02	8.434850000000000403e-01
1.413629999999999942e+00	-8.646500000000000019e-02	8.382519999999999971e-01
1.413829999999999920e+00	-8.636199999999999433e-02	8.437350000000000128e-01
1.413710000000000022e+00	-8.116400000000000003e-02	8.381380000000000496e-01
1.413890000000000091e+00	-8.126700000000000590e-02	8.438320000000000265e-01
1.413780000000000037e+00	-7.392500000000000460e-02	8.383709999999999773e-01
1.413869999999999960e+00	-7.697900000000000575e-02	8.438529999999999642e-01
1.413829999999999920e+00	-6.806800000000000350e-02	8.386240000000000361e-01
1.413859999999999895e+00	-7.106500000000000317e-02	8.438870000000000537e-01
1.413920000000000066e+00	-6.315900000000000680e-02	8.393070000000000253e-01
1.413910000000000000e+00	-6.563399999999999790e-02	8.438539999999999930e-01
1.414029999999999898e+00	-5.755600000000000299e-02	8.375169999999999559e-01
1.414020000000000055e+00	-6.026800000000000213e-02	8.438639999999999475e-01
1.414139999999999953e+00	-5.066199999999999870e-02	8.379140000000000477e-01
1.414179999999999993e+00	-5.343599999999999739e-02	8.446810000000000151e-01
1.414190000000000058e+00	-4.564599999999999907e-02	8.369790000000000285e-01
1.414269999999999916e+00	-4.602699999999999847e-02	8.428080000000000016e-01
1.414250000000000007e+00	-4.129800000000000137e-02	8.383819999999999606e-01
1.414369999999999905e+00	-3.972599999999999743e-02	8.435660000000000380e-01
1.414320000000000022e+00	-3.693300000000000055e-02	8.394300000000000095e-01
1.414439999999999920e+00	-3.483800000000000091e-02	8.429720000000000546e-01
1.414400000000000102e+00	-3.154300000000000159e-02	8.378729999999999789e-01
1.414639999999999898e+00	-2.944400000000000142e-02	8.448369999999999491e-01
1.414530000000000065e+00	-2.578300000000000036e-02	8.395470000000000432e-01
1.414749999999999952e+00	-2.288600000000000009e-02	8.443770000000000442e-01
1.414660000000000029e+00	-1.927200000000000094e-02	8.386559999999999571e-01
1.414870000000000072e+00	-1.793900000000000008e-02	8.447440000000000504e-01
1.409059999999999979e+00	-1.681819999999999982e-01	8.506139999999999812e-01
1.408230000000000093e+00	-1.709589999999999999e-01	8.491100000000000314e-01
1.407939999999999969e+00	-1.712819999999999898e-01	8.470239999999999991e-01
1.408760000000000012e+00	-1.710240000000000093e-01	8.540060000000000429e-01
1.409419999999999895e+00	-1.694970000000000088e-01	8.560980000000000256e-01
1.409839999999999982e+00	-1.641620000000000024e-01	8.501750000000000140e-01
1.410539999999999905e+00	-1.646839999999999971e-01	8.560170000000000279e-01
1.410609999999999919e+00	-1.589270000000000127e-01	8.499910000000000521e-01
1.411389999999999922e+00	-1.585820000000000007e-01	8.570050000000000168e-01
1.411410000000000053e+00	-1.521099999999999952e-01	8.493889999999999496e-01
1.411680000000000046e+00	-1.531720000000000026e-01	8.553469999999999684e-01
1.411960000000000104e+00	-1.467739999999999878e-01	8.497419999999999973e-01
1.411929999999999907e+00	-1.489229999999999998e-01	8.534460000000000379e-01
1.412260000000000071e+00	-1.448760000000000048e-01	8.548249999999999460e-01
1.412279999999999980e+00	-1.424179999999999890e-01	8.521739999999999871e-01
1.412130000000000107e+00	-1.433969999999999967e-01	8.482699999999999685e-01
1.412430000000000074e+00	-1.417799999999999894e-01	8.554619999999999447e-01
1.412309999999999954e+00	-1.397299999999999931e-01	8.494040000000000479e-01
1.412570000000000103e+00	-1.384150000000000102e-01	8.545030000000000125e-01
1.412570000000000103e+00	-1.358139999999999903e-01	8.505669999999999620e-01
1.412660000000000027e+00	-1.324500000000000122e-01	8.480419999999999625e-01
1.412889999999999979e+00	-1.320129999999999915e-01	8.542049999999999921e-01
1.412979999999999903e+00	-1.269679999999999975e-01	8.494739999999999513e-01
1.413300000000000001e+00	-1.246209999999999957e-01	8.562180000000000346e-01
1.413189999999999946e+00	-1.194640000000000007e-01	8.497550000000000381e-01
1.413510000000000044e+00	-1.185890000000000000e-01	8.564030000000000253e-01
1.413300000000000001e+00	-1.123910000000000048e-01	8.497320000000000428e-01
1.413550000000000084e+00	-1.139010000000000022e-01	8.549970000000000070e-01
1.413459999999999939e+00	-1.075409999999999977e-01	8.510140000000000482e-01
1.413599999999999968e+00	-1.093299999999999966e-01	8.541750000000000176e-01
1.413480000000000070e+00	-1.031180000000000013e-01	8.498639999999999528e-01
1.413750000000000062e+00	-1.039380000000000026e-01	8.558080000000000132e-01
1.413629999999999942e+00	-9.710399999999999587e-02	8.482250000000000068e-01
1.413850000000000051e+00	-9.791300000000000003e-02	8.546620000000000328e-01
1.413910000000000000e+00	-9.036500000000000088e-02	8.490520000000000289e-01
1.413969999999999949e+00	-9.277599999999999736e-02	8.535909999999999886e-01
1.414020000000000055e+00	-8.603700000000000236e-02	8.493859999999999744e-01
1.414090000000000069e+00	-8.647199999999999331e-02	8.548820000000000308e-01
1.413990000000000080e+00	-8.090500000000000469e-02	8.494230000000000391e-01
1.414090000000000069e+00	-8.040799999999999337e-02	8.558400000000000452e-01
1.413950000000000040e+00	-7.388500000000000623e-02	8.493910000000000071e-01
1.414039999999999964e+00	-7.629800000000000471e-02	8.541069999999999496e-01
1.413969999999999949e+00	-6.789399999999999602e-02	8.492319999999999869e-01
1.414099999999999913e+00	-7.041300000000000336e-02	8.557460000000000067e-01
1.414029999999999898e+00	-6.310200000000000531e-02	8.481710000000000083e-01
1.414169999999999927e+00	-6.304099999999999981e-02	8.541370000000000351e-01
1.414160000000000084e+00	-5.829499999999999960e-02	8.495920000000000138e-01
1.414320000000000022e+00	-5.660199999999999954e-02	8.553100000000000147e-01
1.414330000000000087e+00	-5.275500000000000328e-02	8.514899999999999691e-01
1.414449999999999985e+00	-5.181700000000000195e-02	8.561889999999999779e-01
1.414390000000000036e+00	-4.758199999999999930e-02	8.493659999999999544e-01
1.414490000000000025e+00	-4.834800000000000209e-02	8.541480000000000183e-01
1.414449999999999985e+00	-4.237400000000000194e-02	8.480790000000000273e-01
1.414619999999999989e+00	-4.207600000000000229e-02	8.547200000000000353e-01
1.414639999999999898e+00	-3.576200000000000212e-02	8.493659999999999544e-01
1.414809999999999901e+00	-3.568999999999999950e-02	8.556340000000000057e-01
1.414860000000000007e+00	-2.964400000000000021e-02	8.507090000000000485e-01
1.414900000000000047e+00	-3.178500000000000075e-02	8.542530000000000401e-01
1.414930000000000021e+00	-2.480699999999999919e-02	8.497599999999999598e-01
1.415089999999999959e+00	-2.648800000000000113e-02	8.557069999999999954e-01
1.415049999999999919e+00	-1.920499999999999985e-02	8.494249999999999856e-01
1.415180000000000105e+00	-2.114299999999999860e-02	8.540240000000000054e-01
1.411450000000000093e+00	-1.641910000000000036e-01	8.596139999999999892e-01
1.412220000000000031e+00	-1.477499999999999925e-01	8.577010000000000467e-01
1.410740000000000105e+00	-1.710990000000000011e-01	8.718270000000000186e-01
1.411340000000000039e+00	-1.687800000000000133e-01	8.725650000000000350e-01
1.411629999999999940e+00	-1.660780000000000034e-01	8.700729999999999853e-01
1.412330000000000085e+00	-1.620880000000000098e-01	8.721039999999999903e-01
1.412339999999999929e+00	-1.587899999999999867e-01	8.687620000000000342e-01
1.412630000000000052e+00	-1.583380000000000065e-01	8.721020000000000438e-01
1.412700000000000067e+00	-1.541939999999999977e-01	8.708110000000000017e-01
1.412970000000000059e+00	-1.478119999999999989e-01	8.717270000000000296e-01
1.413249999999999895e+00	-1.411620000000000097e-01	8.724800000000000333e-01
1.413440000000000030e+00	-1.363669999999999882e-01	8.715880000000000294e-01
1.413669999999999982e+00	-1.310699999999999921e-01	8.717970000000000441e-01
1.413899999999999935e+00	-1.238879999999999981e-01	8.714979999999999949e-01
1.413939999999999975e+00	-1.190409999999999940e-01	8.704020000000000090e-01
1.413969999999999949e+00	-1.143600000000000033e-01	8.714279999999999804e-01
1.414009999999999989e+00	-1.085779999999999940e-01	8.718470000000000386e-01
1.414160000000000084e+00	-1.022809999999999969e-01	8.726220000000000088e-01
1.414260000000000073e+00	-9.763900000000000357e-02	8.721959999999999713e-01
1.414349999999999996e+00	-9.292699999999999572e-02	8.726380000000000248e-01
1.414390000000000036e+00	-8.578600000000000114e-02	8.709930000000000172e-01
1.414430000000000076e+00	-8.095199999999999618e-02	8.716690000000000271e-01
1.414449999999999985e+00	-7.694099999999999551e-02	8.716199999999999504e-01
1.414469999999999894e+00	-7.118599999999999928e-02	8.715899999999999759e-01
1.414509999999999934e+00	-6.463599999999999901e-02	8.710499999999999909e-01
1.414590000000000014e+00	-5.784399999999999958e-02	8.725049999999999750e-01
1.414670000000000094e+00	-5.151399999999999729e-02	8.719050000000000411e-01
1.414740000000000109e+00	-4.738099999999999951e-02	8.714629999999999876e-01
1.414900000000000047e+00	-4.259899999999999798e-02	8.710059999999999469e-01
1.415259999999999962e+00	-3.524700000000000055e-02	8.727700000000000458e-01
1.415499999999999980e+00	-2.952000000000000110e-02	8.729010000000000380e-01
1.415620000000000100e+00	-2.404200000000000087e-02	8.709949999999999637e-01
1.415890000000000093e+00	-1.756399999999999975e-02	8.716289999999999871e-01
1.411859999999999893e+00	-1.713669999999999916e-01	8.883680000000000465e-01
1.412080000000000002e+00	-1.706040000000000056e-01	8.879860000000000531e-01
1.412309999999999954e+00	-1.691110000000000113e-01	8.872480000000000366e-01
1.412760000000000016e+00	-1.651749999999999885e-01	8.872440000000000326e-01
1.413419999999999899e+00	-1.582030000000000103e-01	8.892989999999999506e-01
1.413710000000000022e+00	-1.514659999999999895e-01	8.886730000000000462e-01
1.413810000000000011e+00	-1.472710000000000130e-01	8.885119999999999685e-01
1.413859999999999895e+00	-1.419539999999999969e-01	8.883569999999999522e-01
1.413950000000000040e+00	-1.366010000000000002e-01	8.880320000000000435e-01
1.414050000000000029e+00	-1.319619999999999960e-01	8.873649999999999594e-01
1.414179999999999993e+00	-1.259399999999999964e-01	8.883459999999999690e-01
1.414320000000000022e+00	-1.195100000000000051e-01	8.898329999999999851e-01
1.414439999999999920e+00	-1.135749999999999954e-01	8.896249999999999991e-01
1.414460000000000051e+00	-1.098559999999999953e-01	8.873309999999999809e-01
1.414570000000000105e+00	-1.035080000000000028e-01	8.880930000000000213e-01
1.414670000000000094e+00	-9.614699999999999636e-02	8.881649999999999823e-01
1.414700000000000069e+00	-9.073499999999999621e-02	8.872480000000000366e-01
1.414779999999999927e+00	-8.568800000000000028e-02	8.893959999999999644e-01
1.414840000000000098e+00	-8.084900000000000420e-02	8.889839999999999964e-01
1.414919999999999956e+00	-7.541100000000000581e-02	8.886509999999999687e-01
1.414949999999999930e+00	-6.908999999999999864e-02	8.878679999999999906e-01
1.415000000000000036e+00	-6.514599999999999558e-02	8.892989999999999506e-01
1.415000000000000036e+00	-5.921400000000000274e-02	8.877540000000000431e-01
1.415219999999999922e+00	-5.185599999999999932e-02	8.896349999999999536e-01
1.415429999999999966e+00	-4.633799999999999725e-02	8.898930000000000451e-01
1.415689999999999893e+00	-4.156399999999999678e-02	8.887129999999999752e-01
1.415980000000000016e+00	-3.636199999999999849e-02	8.867319999999999647e-01
1.416330000000000089e+00	-3.201600000000000279e-02	8.890360000000000484e-01
1.416530000000000067e+00	-2.692699999999999955e-02	8.882790000000000408e-01
1.416740000000000110e+00	-2.010999999999999940e-02	8.878939999999999610e-01
1.417070000000000052e+00	-1.491100000000000064e-02	8.897450000000000081e-01
1.423110000000000097e+00	6.873700000000000643e-02	9.445980000000000487e-01
1.423249999999999904e+00	7.277300000000000435e-02	9.447489999999999499e-01
1.423580000000000068e+00	7.591000000000000525e-02	9.421300000000000230e-01
1.423550000000000093e+00	7.952599999999999947e-02	9.434630000000000516e-01
1.423599999999999977e+00	8.281499999999999972e-02	9.430070000000000396e-01
1.423780000000000046e+00	8.636599999999999833e-02	9.412850000000000383e-01
1.423450000000000104e+00	8.550599999999999867e-02	9.450169999999999959e-01
1.423580000000000068e+00	8.947399999999999798e-02	9.442810000000000370e-01
1.423699999999999966e+00	9.289300000000000335e-02	9.435029999999999806e-01
1.423740000000000006e+00	9.704200000000000326e-02	9.436139999999999528e-01
1.423980000000000024e+00	1.038899999999999962e-01	9.422530000000000072e-01
1.424060000000000104e+00	1.083800000000000041e-01	9.426900000000000279e-01
1.424090000000000078e+00	1.123060000000000030e-01	9.427489999999999482e-01
1.424099999999999921e+00	1.181429999999999980e-01	9.428549999999999986e-01
1.424029999999999907e+00	1.247690000000000049e-01	9.432289999999999841e-01
1.424369999999999914e+00	1.309099999999999986e-01	9.424169999999999492e-01
1.425019999999999953e+00	1.355109999999999926e-01	9.420760000000000245e-01
1.426010000000000000e+00	1.396769999999999956e-01	9.443460000000000187e-01
1.428139999999999965e+00	1.445329999999999948e-01	9.449269999999999614e-01
1.429009999999999891e+00	1.461590000000000111e-01	9.451370000000000049e-01
1.423100000000000032e+00	8.004400000000000404e-02	9.510079999999999645e-01
1.423229999999999995e+00	7.932400000000000562e-02	9.551939999999999875e-01
1.423349999999999893e+00	8.412500000000000533e-02	9.550089999999999968e-01
1.423310000000000075e+00	8.704800000000000038e-02	9.497870000000000479e-01
1.423349999999999893e+00	8.696700000000000264e-02	9.540140000000000287e-01
1.423450000000000104e+00	8.690000000000000502e-02	9.561600000000000099e-01
1.423280000000000101e+00	9.493400000000000449e-02	9.545139999999999736e-01
1.423389999999999933e+00	8.972199999999999620e-02	9.549020000000000286e-01
1.423259999999999970e+00	9.312099999999999544e-02	9.507689999999999753e-01
1.423200000000000021e+00	9.849399999999999822e-02	9.513810000000000322e-01
1.423189999999999955e+00	9.807899999999999952e-02	9.544179999999999886e-01
1.423329999999999984e+00	1.043980000000000047e-01	9.507870000000000488e-01
1.423300000000000010e+00	1.014400000000000024e-01	9.544920000000000071e-01
1.423519999999999897e+00	1.070379999999999943e-01	9.548459999999999726e-01
1.423429999999999973e+00	1.100099999999999967e-01	9.504839999999999955e-01
1.423519999999999897e+00	1.120939999999999992e-01	9.536860000000000337e-01
1.423729999999999940e+00	1.105170000000000041e-01	9.563380000000000214e-01
1.423419999999999908e+00	1.152939999999999937e-01	9.502460000000000351e-01
1.423480000000000079e+00	1.162860000000000005e-01	9.531129999999999880e-01
1.423910000000000009e+00	1.152129999999999960e-01	9.572199999999999598e-01
1.423349999999999893e+00	1.208550000000000041e-01	9.506050000000000333e-01
1.423580000000000068e+00	1.196289999999999992e-01	9.540889999999999649e-01
1.423980000000000024e+00	1.219200000000000006e-01	9.570589999999999931e-01
1.423529999999999962e+00	1.251279999999999892e-01	9.529170000000000140e-01
1.423249999999999904e+00	1.253060000000000007e-01	9.500070000000000459e-01
1.424169999999999936e+00	1.277270000000000072e-01	9.569100000000000383e-01
1.423529999999999962e+00	1.295109999999999872e-01	9.493289999999999784e-01
1.423939999999999984e+00	1.312099999999999933e-01	9.530750000000000055e-01
1.424770000000000092e+00	1.332210000000000061e-01	9.567160000000000108e-01
1.424080000000000013e+00	1.342530000000000112e-01	9.500570000000000404e-01
1.425100000000000033e+00	1.366799999999999959e-01	9.529959999999999543e-01
1.425499999999999989e+00	1.367619999999999947e-01	9.563709999999999711e-01
1.425059999999999993e+00	1.377379999999999993e-01	9.487419999999999742e-01
1.426849999999999952e+00	1.401959999999999873e-01	9.565709999999999491e-01
1.426870000000000083e+00	1.415470000000000061e-01	9.501159999999999606e-01
1.428350000000000009e+00	1.445849999999999913e-01	9.496459999999999901e-01
1.428420000000000023e+00	1.440730000000000066e-01	9.539440000000000142e-01
1.429000000000000048e+00	1.456449999999999967e-01	9.499140000000000361e-01
1.429329999999999989e+00	1.453770000000000062e-01	9.565620000000000234e-01
1.417950000000000044e+00	-1.375699999999999978e-01	9.673669999999999769e-01
1.417810000000000015e+00	-1.504580000000000084e-01	9.649889999999999857e-01
1.417319999999999913e+00	-1.255209999999999937e-01	9.659600000000000408e-01
1.423340000000000050e+00	1.972499999999999948e-02	9.806850000000000289e-01
1.423510000000000053e+00	3.613500000000000045e-02	9.808869999999999534e-01
1.419669999999999987e+00	-1.003750000000000059e-01	9.866449999999999942e-01
1.419470000000000010e+00	-8.987900000000000056e-02	9.869419999999999860e-01
1.419459999999999944e+00	-8.164799999999999836e-02	9.875699999999999479e-01
1.419380000000000086e+00	-7.369100000000000650e-02	9.858409999999999673e-01
1.419550000000000090e+00	-6.246299999999999769e-02	9.845540000000000402e-01
1.419899999999999940e+00	-5.075500000000000150e-02	9.845220000000000082e-01
1.420260000000000078e+00	-3.927800000000000041e-02	9.852030000000000509e-01
1.420639999999999903e+00	-2.752699999999999939e-02	9.851100000000000412e-01
1.410709999999999908e+00	-1.369640000000000024e-01	8.278029999999999555e-01
1.410220000000000029e+00	-1.425919999999999965e-01	8.248010000000000064e-01
1.409990000000000077e+00	-1.480779999999999874e-01	8.278959999999999653e-01
1.411359999999999948e+00	-1.248790000000000039e-01	8.255719999999999725e-01
1.411019999999999941e+00	-1.307649999999999924e-01	8.261469999999999647e-01
1.408900000000000041e+00	-1.634019999999999917e-01	8.321340000000000403e-01
1.408609999999999918e+00	-1.662190000000000056e-01	8.321420000000000483e-01
1.409359999999999946e+00	-1.579949999999999966e-01	8.314000000000000279e-01
1.409960000000000102e+00	-1.525600000000000012e-01	8.333509999999999529e-01
1.410300000000000109e+00	-1.476979999999999960e-01	8.327970000000000095e-01
1.410690000000000000e+00	-1.424189999999999900e-01	8.325869999999999660e-01
1.411000000000000032e+00	-1.370730000000000004e-01	8.327870000000000550e-01
1.411240000000000050e+00	-1.328340000000000076e-01	8.322079999999999478e-01
1.411599999999999966e+00	-1.260590000000000044e-01	8.313080000000000469e-01
1.412039999999999962e+00	-1.194380000000000025e-01	8.332800000000000207e-01
1.412269999999999914e+00	-1.161650000000000044e-01	8.367069999999999785e-01
1.412230000000000096e+00	-1.144649999999999973e-01	8.333620000000000472e-01
