1.131950000000000012e+00	5.341850000000000209e-01	5.720899999999999874e-01
1.128710000000000102e+00	5.356649999999999467e-01	5.671300000000000230e-01
1.129829999999999890e+00	5.401939999999999520e-01	5.720830000000000082e-01
1.128069999999999906e+00	5.401289999999999702e-01	5.682530000000000081e-01
1.132689999999999975e+00	5.376670000000000060e-01	5.762469999999999537e-01
1.127050000000000107e+00	5.480420000000000291e-01	5.702739999999999476e-01
1.127070000000000016e+00	5.443759999999999710e-01	5.684329999999999661e-01
1.125559999999999894e+00	5.494909999999999517e-01	5.673949999999999827e-01
1.128689999999999971e+00	5.468300000000000383e-01	5.737649999999999695e-01
1.126880000000000104e+00	5.517600000000000282e-01	5.717050000000000187e-01
1.125170000000000003e+00	5.539399999999999880e-01	5.684550000000000436e-01
1.128430000000000044e+00	5.520289999999999919e-01	5.764049999999999452e-01
1.125950000000000006e+00	5.561329999999999885e-01	5.715369999999999617e-01
1.123939999999999939e+00	5.590910000000000046e-01	5.681659999999999489e-01
1.127210000000000045e+00	5.554310000000000080e-01	5.747269999999999879e-01
1.124589999999999979e+00	5.655719999999999636e-01	5.728889999999999816e-01
1.122449999999999948e+00	5.649429999999999730e-01	5.672420000000000240e-01
1.126349999999999962e+00	5.598910000000000275e-01	5.750439999999999996e-01
1.122689999999999966e+00	5.705670000000000464e-01	5.697929999999999939e-01
1.124249999999999972e+00	5.704029999999999934e-01	5.737550000000000150e-01
1.145250000000000101e+00	3.325480000000000103e-01	5.801500000000000545e-01
1.134160000000000057e+00	3.808849999999999736e-01	5.801920000000000410e-01
1.134740000000000082e+00	4.216150000000000175e-01	5.815630000000000521e-01
1.132309999999999928e+00	4.261750000000000260e-01	5.768919999999999604e-01
1.132319999999999993e+00	4.315919999999999757e-01	5.759760000000000435e-01
1.133059999999999956e+00	4.349560000000000093e-01	5.762100000000000000e-01
1.131450000000000067e+00	5.429690000000000349e-01	5.781049999999999800e-01
1.133559999999999901e+00	5.398230000000000528e-01	5.800119999999999720e-01
1.130179999999999962e+00	5.487020000000000231e-01	5.793179999999999996e-01
1.129429999999999934e+00	5.523810000000000109e-01	5.798619999999999886e-01
1.128530000000000033e+00	5.561220000000000052e-01	5.794629999999999503e-01
1.126400000000000068e+00	5.647159999999999958e-01	5.777649999999999730e-01
1.127909999999999968e+00	5.615449999999999608e-01	5.808680000000000510e-01
1.125760000000000094e+00	5.705599999999999561e-01	5.780260000000000398e-01
1.134190000000000031e+00	3.786880000000000246e-01	5.849379999999999580e-01
1.133440000000000003e+00	4.101759999999999851e-01	5.869990000000000485e-01
1.134719999999999951e+00	4.160610000000000142e-01	5.850539999999999630e-01
1.136179999999999968e+00	4.198020000000000085e-01	5.851549999999999807e-01
1.133049999999999891e+00	5.424539999999999917e-01	5.815259999999999874e-01
1.132449999999999957e+00	5.459260000000000224e-01	5.830769999999999564e-01
1.131059999999999954e+00	5.520699999999999497e-01	5.843230000000000368e-01
1.133070000000000022e+00	5.483409999999999673e-01	5.867259999999999698e-01
1.129990000000000050e+00	5.582899999999999530e-01	5.853220000000000089e-01
1.127550000000000052e+00	5.667410000000000503e-01	5.819910000000000361e-01
1.129289999999999905e+00	5.637219999999999454e-01	5.859109999999999596e-01
1.127359999999999918e+00	5.715010000000000367e-01	5.828689999999999705e-01
1.129010000000000069e+00	5.697820000000000107e-01	5.869680000000000453e-01
1.126609999999999889e+00	5.750079999999999636e-01	5.816949999999999621e-01
1.125480000000000036e+00	5.765350000000000197e-01	5.789910000000000334e-01
1.128039999999999932e+00	5.768750000000000266e-01	5.860999999999999543e-01
1.126300000000000079e+00	5.804489999999999927e-01	5.822789999999999910e-01
1.124800000000000022e+00	5.811079999999999579e-01	5.783610000000000140e-01
1.127490000000000103e+00	5.839569999999999483e-01	5.862549999999999706e-01
1.137369999999999992e+00	4.230260000000000131e-01	5.858160000000000034e-01
1.136970000000000036e+00	4.272159999999999846e-01	5.830779999999999852e-01
1.134830000000000005e+00	4.262830000000000230e-01	5.800400000000000000e-01
1.138530000000000042e+00	4.261840000000000073e-01	5.864329999999999821e-01
1.134759999999999991e+00	4.309120000000000172e-01	5.790640000000000231e-01
1.137669999999999959e+00	4.334390000000000187e-01	5.826829999999999510e-01
1.139219999999999899e+00	4.300550000000000206e-01	5.867689999999999850e-01
1.135340000000000016e+00	4.365680000000000116e-01	5.787050000000000249e-01
1.137860000000000094e+00	4.381490000000000107e-01	5.818470000000000031e-01
1.140460000000000029e+00	4.376329999999999942e-01	5.868409999999999460e-01
1.136149999999999993e+00	4.411550000000000193e-01	5.786949999999999594e-01
1.138740000000000085e+00	4.414029999999999898e-01	5.822869999999999990e-01
1.140339999999999909e+00	4.435290000000000066e-01	5.841480000000000006e-01
1.137930000000000108e+00	4.460620000000000140e-01	5.798280000000000101e-01
1.141049999999999898e+00	4.484589999999999965e-01	5.839020000000000321e-01
1.139250000000000096e+00	4.500299999999999856e-01	5.806850000000000067e-01
1.140200000000000102e+00	4.545159999999999756e-01	5.809379999999999544e-01
1.142749999999999932e+00	4.524710000000000121e-01	5.854599999999999804e-01
1.143950000000000022e+00	4.577189999999999870e-01	5.856419999999999959e-01
1.141080000000000094e+00	4.605440000000000089e-01	5.803530000000000078e-01
1.143189999999999928e+00	4.620619999999999727e-01	5.826430000000000220e-01
1.141639999999999988e+00	4.648849999999999927e-01	5.793599999999999861e-01
1.144079999999999986e+00	4.648039999999999949e-01	5.825479999999999547e-01
1.145119999999999916e+00	4.623169999999999780e-01	5.851610000000000422e-01
1.146479999999999944e+00	4.657419999999999893e-01	5.852570000000000272e-01
1.143569999999999975e+00	4.693530000000000202e-01	5.798969999999999958e-01
1.148320000000000007e+00	4.704900000000000193e-01	5.848980000000000290e-01
1.145750000000000046e+00	4.739510000000000112e-01	5.805139999999999745e-01
1.148709999999999898e+00	4.748290000000000011e-01	5.830720000000000347e-01
1.151459999999999928e+00	4.740940000000000154e-01	5.863620000000000498e-01
1.147140000000000049e+00	4.783200000000000229e-01	5.802310000000000523e-01
1.151010000000000089e+00	4.788430000000000186e-01	5.833800000000000097e-01
1.153520000000000101e+00	4.767159999999999731e-01	5.868889999999999940e-01
1.148689999999999989e+00	4.818810000000000038e-01	5.802110000000000323e-01
1.150649999999999951e+00	4.826489999999999947e-01	5.814169999999999616e-01
1.154789999999999983e+00	4.796179999999999888e-01	5.864310000000000356e-01
1.153340000000000032e+00	4.833160000000000234e-01	5.832349999999999479e-01
1.150009999999999977e+00	4.862420000000000075e-01	5.795179999999999776e-01
1.151960000000000095e+00	4.908879999999999910e-01	5.790969999999999729e-01
1.156079999999999997e+00	4.889260000000000272e-01	5.828290000000000415e-01
1.157589999999999897e+00	4.834660000000000069e-01	5.868569999999999620e-01
1.159720000000000084e+00	4.872529999999999917e-01	5.864430000000000476e-01
1.133610000000000007e+00	3.778349999999999764e-01	5.892739999999999645e-01
1.134020000000000028e+00	4.096290000000000209e-01	5.914350000000000440e-01
1.135410000000000030e+00	4.139390000000000014e-01	5.911159999999999748e-01
1.137180000000000080e+00	4.177469999999999795e-01	5.929980000000000251e-01
1.137100000000000000e+00	4.193620000000000125e-01	5.889710000000000223e-01
1.138179999999999970e+00	4.206810000000000271e-01	5.930260000000000531e-01
1.133140000000000036e+00	5.508779999999999788e-01	5.889429999999999943e-01
1.131229999999999958e+00	5.610559999999999992e-01	5.901520000000000099e-01
1.132700000000000040e+00	5.555729999999999835e-01	5.909919999999999618e-01
1.130649999999999933e+00	5.663519999999999666e-01	5.904080000000000439e-01
1.130370000000000097e+00	5.701819999999999666e-01	5.906789999999999541e-01
1.130190000000000028e+00	5.748370000000000424e-01	5.912039999999999518e-01
1.129569999999999963e+00	5.827059999999999462e-01	5.912220000000000253e-01
1.139000000000000012e+00	4.249519999999999964e-01	5.906209999999999516e-01
1.140649999999999942e+00	4.313069999999999959e-01	5.916580000000000172e-01
1.142099999999999893e+00	4.362019999999999786e-01	5.936789999999999567e-01
1.142770000000000064e+00	4.405279999999999752e-01	5.914869999999999850e-01
1.142290000000000028e+00	4.438799999999999968e-01	5.877860000000000307e-01
1.143999999999999906e+00	4.447309999999999874e-01	5.923300000000000232e-01
1.143499999999999961e+00	4.486010000000000275e-01	5.883500000000000396e-01
1.144579999999999931e+00	4.527349999999999985e-01	5.887799999999999701e-01
1.145270000000000010e+00	4.495629999999999904e-01	5.924639999999999906e-01
1.146910000000000096e+00	4.554449999999999887e-01	5.928269999999999929e-01
1.147499999999999964e+00	4.617229999999999945e-01	5.893019999999999925e-01
1.150320000000000009e+00	4.642899999999999805e-01	5.925820000000000531e-01
1.149550000000000072e+00	4.665850000000000275e-01	5.890769999999999618e-01
1.151869999999999949e+00	4.673410000000000064e-01	5.925259999999999971e-01
1.151860000000000106e+00	4.703959999999999808e-01	5.895540000000000225e-01
1.154660000000000020e+00	4.743069999999999786e-01	5.903500000000000414e-01
1.155270000000000019e+00	4.771949999999999803e-01	5.884660000000000446e-01
1.157469999999999999e+00	4.784120000000000039e-01	5.905660000000000354e-01
1.160179999999999989e+00	4.820110000000000228e-01	5.906329999999999636e-01
1.160700000000000065e+00	4.849580000000000002e-01	5.888269999999999893e-01
1.163310000000000066e+00	4.848000000000000087e-01	5.926390000000000269e-01
1.162139999999999951e+00	4.875459999999999794e-01	5.886190000000000033e-01
1.164690000000000003e+00	4.896389999999999909e-01	5.901840000000000419e-01
1.134700000000000042e+00	3.677369999999999806e-01	5.975819999999999466e-01
1.133739999999999970e+00	3.722010000000000041e-01	5.956139999999999768e-01
1.134300000000000086e+00	4.099990000000000023e-01	5.962279999999999802e-01
1.136390000000000011e+00	4.157779999999999809e-01	5.969020000000000437e-01
1.137510000000000021e+00	4.188649999999999873e-01	5.980720000000000480e-01
1.137750000000000039e+00	4.190789999999999793e-01	5.956139999999999768e-01
1.132640000000000091e+00	5.597910000000000386e-01	5.933030000000000248e-01
1.132540000000000102e+00	5.643880000000000008e-01	5.945460000000000189e-01
1.138570000000000082e+00	4.223910000000000164e-01	5.975139999999999896e-01
1.140090000000000048e+00	4.274379999999999846e-01	5.956489999999999840e-01
1.141259999999999941e+00	4.316860000000000142e-01	5.969910000000000494e-01
1.142300000000000093e+00	4.354680000000000217e-01	5.984070000000000222e-01
1.143569999999999975e+00	4.404950000000000254e-01	5.976359999999999451e-01
1.145319999999999894e+00	4.463719999999999910e-01	5.971070000000000544e-01
1.146589999999999998e+00	4.507450000000000068e-01	5.964869999999999894e-01
1.148030000000000106e+00	4.538889999999999869e-01	5.989330000000000487e-01
1.149059999999999970e+00	4.574579999999999758e-01	5.974869999999999903e-01
1.149580000000000046e+00	4.607240000000000224e-01	5.946500000000000119e-01
1.150609999999999911e+00	4.605239999999999889e-01	5.989550000000000152e-01
1.152570000000000094e+00	4.654139999999999944e-01	5.975620000000000376e-01
1.155149999999999899e+00	4.695570000000000022e-01	5.977689999999999948e-01
1.154169999999999918e+00	4.700889999999999791e-01	5.940520000000000245e-01
1.157710000000000017e+00	4.739979999999999749e-01	5.968909999999999494e-01
1.160639999999999894e+00	4.767549999999999844e-01	5.979090000000000238e-01
1.160989999999999966e+00	4.792759999999999798e-01	5.949140000000000539e-01
1.162330000000000085e+00	4.788290000000000046e-01	5.990990000000000482e-01
1.163669999999999982e+00	4.818879999999999830e-01	5.972570000000000379e-01
1.166120000000000045e+00	4.860680000000000001e-01	5.982269999999999532e-01
1.166290000000000049e+00	4.884450000000000180e-01	5.938520000000000465e-01
1.168709999999999916e+00	4.913359999999999950e-01	5.968059999999999476e-01
1.167410000000000059e+00	4.917799999999999949e-01	5.924639999999999906e-01
1.170520000000000005e+00	4.947090000000000098e-01	5.972800000000000331e-01
1.169640000000000013e+00	4.958489999999999842e-01	5.937170000000000503e-01
1.171620000000000106e+00	4.982900000000000107e-01	5.982039999999999580e-01
1.171280000000000099e+00	5.014250000000000096e-01	5.938050000000000272e-01
1.168860000000000010e+00	5.000130000000000408e-01	5.897799999999999709e-01
1.172630000000000061e+00	5.033849999999999714e-01	5.976900000000000546e-01
1.169820000000000082e+00	5.059169999999999501e-01	5.901269999999999571e-01
1.172109999999999985e+00	5.057920000000000194e-01	5.944509999999999517e-01
1.172800000000000065e+00	5.078690000000000149e-01	5.975669999999999593e-01
1.171459999999999946e+00	5.103839999999999488e-01	5.941729999999999512e-01
1.169310000000000072e+00	5.110320000000000418e-01	5.900999999999999579e-01
1.172509999999999941e+00	5.110179999999999723e-01	5.976740000000000386e-01
1.133559999999999901e+00	4.085039999999999782e-01	6.016000000000000236e-01
1.134870000000000045e+00	4.127460000000000018e-01	6.021419999999999551e-01
1.136740000000000084e+00	4.183209999999999984e-01	6.022640000000000216e-01
1.138130000000000086e+00	4.229100000000000081e-01	6.033739999999999659e-01
1.139839999999999964e+00	4.275760000000000116e-01	6.013100000000000112e-01
1.141340000000000021e+00	4.324669999999999903e-01	6.013119999999999576e-01
1.142309999999999937e+00	4.364129999999999954e-01	6.027850000000000152e-01
1.143489999999999895e+00	4.404719999999999747e-01	6.038160000000000194e-01
1.144930000000000003e+00	4.445779999999999732e-01	6.025770000000000293e-01
1.146840000000000082e+00	4.499040000000000261e-01	6.017329999999999623e-01
1.148290000000000033e+00	4.534830000000000250e-01	6.025570000000000093e-01
1.149599999999999955e+00	4.572359999999999758e-01	6.028170000000000472e-01
1.151710000000000012e+00	4.622060000000000057e-01	6.027130000000000543e-01
1.153250000000000108e+00	4.653360000000000274e-01	6.026540000000000230e-01
1.155469999999999997e+00	4.693590000000000262e-01	6.029010000000000202e-01
1.158649999999999958e+00	4.739639999999999964e-01	6.029200000000000115e-01
1.160630000000000051e+00	4.763589999999999769e-01	6.007379999999999942e-01
1.162290000000000045e+00	4.784829999999999917e-01	6.018780000000000241e-01
1.164020000000000055e+00	4.817210000000000103e-01	6.019520000000000426e-01
1.166290000000000049e+00	4.859720000000000151e-01	6.035509999999999486e-01
1.168350000000000000e+00	4.900030000000000219e-01	6.021929999999999783e-01
1.170409999999999950e+00	4.943060000000000231e-01	6.006850000000000245e-01
1.171529999999999960e+00	4.977820000000000022e-01	6.026939999999999520e-01
1.172479999999999967e+00	5.017639999999999878e-01	6.017559999999999576e-01
1.172930000000000028e+00	5.057679999999999954e-01	6.007339999999999902e-01
1.172490000000000032e+00	5.103229999999999711e-01	6.012520000000000087e-01
1.128279999999999950e+00	5.887980000000000436e-01	5.890840000000000520e-01
1.128179999999999961e+00	5.929969999999999963e-01	5.892699999999999605e-01
1.133359999999999923e+00	4.096719999999999806e-01	6.061879999999999491e-01
1.134479999999999933e+00	4.148490000000000233e-01	6.091790000000000260e-01
1.136730000000000018e+00	4.213439999999999963e-01	6.084540000000000504e-01
1.137539999999999996e+00	4.247219999999999884e-01	6.100729999999999764e-01
1.138519999999999976e+00	4.258509999999999796e-01	6.068729999999999958e-01
1.138430000000000053e+00	4.279819999999999736e-01	6.112319999999999975e-01
1.140370000000000106e+00	4.315459999999999852e-01	6.066759999999999931e-01
1.142190000000000039e+00	4.383380000000000054e-01	6.090510000000000090e-01
1.143299999999999983e+00	4.420419999999999905e-01	6.100560000000000427e-01
1.144030000000000102e+00	4.430270000000000041e-01	6.073539999999999495e-01
1.144139999999999935e+00	4.449029999999999929e-01	6.110309999999999908e-01
1.145809999999999995e+00	4.482269999999999865e-01	6.079090000000000327e-01
1.147969999999999935e+00	4.532559999999999922e-01	6.062130000000000019e-01
1.149280000000000079e+00	4.570449999999999791e-01	6.083260000000000334e-01
1.150830000000000020e+00	4.603300000000000169e-01	6.067979999999999485e-01
1.152870000000000061e+00	4.648059999999999969e-01	6.073889999999999567e-01
1.155080000000000107e+00	4.694740000000000024e-01	6.098029999999999839e-01
1.157839999999999980e+00	4.736719999999999819e-01	6.082790000000000141e-01
1.159669999999999979e+00	4.769769999999999843e-01	6.098310000000000120e-01
1.161189999999999944e+00	4.779970000000000052e-01	6.056240000000000512e-01
1.161229999999999984e+00	4.800510000000000055e-01	6.112840000000000495e-01
1.164390000000000036e+00	4.842940000000000023e-01	6.083720000000000239e-01
1.166120000000000045e+00	4.880579999999999918e-01	6.097519999999999607e-01
1.167189999999999950e+00	4.889049999999999785e-01	6.069059999999999455e-01
1.167319999999999913e+00	4.912579999999999725e-01	6.106580000000000341e-01
1.169669999999999987e+00	4.948879999999999946e-01	6.065180000000000016e-01
1.170520000000000005e+00	5.017610000000000126e-01	6.098580000000000112e-01
1.171629999999999949e+00	5.002689999999999637e-01	6.053690000000000460e-01
1.172199999999999909e+00	5.055859999999999799e-01	6.050259999999999527e-01
1.171180000000000110e+00	5.077129999999999699e-01	6.092039999999999678e-01
1.171499999999999986e+00	5.115309999999999580e-01	6.062680000000000291e-01
1.170139999999999958e+00	5.123320000000000096e-01	6.108460000000000001e-01
1.155680000000000041e+00	5.350759999999999961e-01	6.070029999999999593e-01
1.157429999999999959e+00	5.318850000000000522e-01	6.022589999999999888e-01
1.152150000000000007e+00	5.367910000000000181e-01	6.021929999999999783e-01
1.167089999999999961e+00	5.217810000000000503e-01	6.094690000000000385e-01
1.166469999999999896e+00	5.233050000000000201e-01	6.061560000000000281e-01
1.165100000000000025e+00	5.245480000000000143e-01	6.105669999999999709e-01
1.169159999999999977e+00	5.177270000000000483e-01	6.080100000000000504e-01
1.168600000000000083e+00	5.163330000000000419e-01	6.128299999999999859e-01
1.168889999999999985e+00	5.129240000000000466e-01	6.148460000000000036e-01
1.166639999999999899e+00	5.210090000000000554e-01	6.130370000000000541e-01
1.163440000000000030e+00	5.269899999999999585e-01	6.082779999999999854e-01
1.162339999999999929e+00	5.280719999999999859e-01	6.118280000000000385e-01
1.163999999999999924e+00	5.253640000000000532e-01	6.141959999999999642e-01
1.159739999999999993e+00	5.310040000000000315e-01	6.082199999999999829e-01
1.157119999999999926e+00	5.342750000000000554e-01	6.099430000000000129e-01
1.158179999999999987e+00	5.337910000000000155e-01	6.134640000000000093e-01
1.160339999999999927e+00	5.306440000000000046e-01	6.126239999999999464e-01
1.155210000000000070e+00	5.371249999999999636e-01	6.114049999999999763e-01
1.152360000000000051e+00	5.393829999999999458e-01	6.083709999999999951e-01
1.152600000000000069e+00	5.419850000000000501e-01	6.142079999999999762e-01
1.155750000000000055e+00	5.381719999999999837e-01	6.159620000000000095e-01
1.149680000000000035e+00	5.437450000000000339e-01	6.104749999999999899e-01
1.146530000000000049e+00	5.468560000000000088e-01	6.090600000000000458e-01
1.148120000000000029e+00	5.473120000000000207e-01	6.127089999999999481e-01
1.150120000000000031e+00	5.449239999999999640e-01	6.133819999999999828e-01
1.145340000000000025e+00	5.505729999999999791e-01	6.115699999999999470e-01
1.144290000000000029e+00	5.495550000000000157e-01	6.087700000000000333e-01
1.142409999999999926e+00	5.526699999999999946e-01	6.087810000000000166e-01
1.142139999999999933e+00	5.601810000000000400e-01	6.134399999999999853e-01
1.144460000000000033e+00	5.555970000000000075e-01	6.144319999999999782e-01
1.141150000000000109e+00	5.572209999999999663e-01	6.102659999999999751e-01
1.147620000000000084e+00	5.508629999999999916e-01	6.158409999999999718e-01
1.139029999999999987e+00	5.656299999999999661e-01	6.100689999999999724e-01
1.138949999999999907e+00	5.614440000000000541e-01	6.082480000000000109e-01
1.137480000000000047e+00	5.671519999999999895e-01	6.070729999999999738e-01
1.141059999999999963e+00	5.653580000000000272e-01	6.135629999999999695e-01
1.140919999999999934e+00	3.327010000000000245e-01	6.205199999999999605e-01
1.139909999999999979e+00	3.364530000000000021e-01	6.205230000000000468e-01
1.138069999999999915e+00	3.419349999999999890e-01	6.214180000000000259e-01
1.137150000000000105e+00	3.458890000000000020e-01	6.169769999999999976e-01
1.136540000000000106e+00	3.458439999999999848e-01	6.209550000000000347e-01
1.134830000000000005e+00	3.504880000000000217e-01	6.214870000000000116e-01
1.133760000000000101e+00	3.549510000000000165e-01	6.182830000000000270e-01
1.133769999999999945e+00	4.160079999999999889e-01	6.149989999999999624e-01
1.132870000000000044e+00	4.149280000000000190e-01	6.179459999999999953e-01
1.135089999999999932e+00	4.190710000000000268e-01	6.131870000000000376e-01
1.134090000000000042e+00	4.192609999999999948e-01	6.190189999999999859e-01
1.136549999999999949e+00	4.239669999999999828e-01	6.140790000000000415e-01
1.136230000000000073e+00	4.263290000000000135e-01	6.208900000000000530e-01
1.137860000000000094e+00	4.288969999999999727e-01	6.161619999999999875e-01
1.137659999999999894e+00	4.297810000000000241e-01	6.191729999999999734e-01
1.139760000000000106e+00	4.332130000000000147e-01	6.137320000000000553e-01
1.138579999999999925e+00	4.319219999999999726e-01	6.181370000000000475e-01
1.141250000000000098e+00	4.383900000000000019e-01	6.150440000000000351e-01
1.139699999999999935e+00	4.358799999999999897e-01	6.199339999999999851e-01
1.142759999999999998e+00	4.419770000000000088e-01	6.131490000000000551e-01
1.142099999999999893e+00	4.427449999999999997e-01	6.193159999999999776e-01
1.143270000000000008e+00	4.472300000000000164e-01	6.220179999999999598e-01
1.144600000000000062e+00	4.491089999999999804e-01	6.176580000000000403e-01
1.143680000000000030e+00	4.454839999999999911e-01	6.148230000000000084e-01
1.144830000000000014e+00	4.511000000000000010e-01	6.226249999999999840e-01
1.145089999999999941e+00	4.483739999999999948e-01	6.128970000000000251e-01
1.146700000000000053e+00	4.546040000000000081e-01	6.192680000000000407e-01
1.147289999999999921e+00	4.537610000000000254e-01	6.127019999999999689e-01
1.148600000000000065e+00	4.582180000000000142e-01	6.164290000000000047e-01
1.148740000000000094e+00	4.594179999999999930e-01	6.211659999999999959e-01
1.150369999999999893e+00	4.621890000000000165e-01	6.173710000000000031e-01
1.150190000000000046e+00	4.624539999999999762e-01	6.205540000000000500e-01
1.153110000000000079e+00	4.668050000000000255e-01	6.144830000000000014e-01
1.151780000000000026e+00	4.652470000000000216e-01	6.203370000000000273e-01
1.154190000000000049e+00	4.696259999999999879e-01	6.202320000000000055e-01
1.155559999999999921e+00	4.717359999999999887e-01	6.158489999999999798e-01
1.154959999999999987e+00	4.701580000000000203e-01	6.131389999999999896e-01
1.156709999999999905e+00	4.741259999999999919e-01	6.204520000000000035e-01
1.156339999999999923e+00	4.723490000000000189e-01	6.123499999999999499e-01
1.158809999999999896e+00	4.777989999999999737e-01	6.212010000000000032e-01
1.158579999999999943e+00	4.765469999999999984e-01	6.147479999999999611e-01
1.160819999999999963e+00	4.805729999999999724e-01	6.150160000000000071e-01
1.160800000000000054e+00	4.813589999999999813e-01	6.197369999999999823e-01
1.162879999999999914e+00	4.843259999999999788e-01	6.152680000000000371e-01
1.162800000000000056e+00	4.858930000000000193e-01	6.212509999999999977e-01
1.165389999999999926e+00	4.883129999999999971e-01	6.129459999999999908e-01
1.164989999999999970e+00	4.906849999999999823e-01	6.191750000000000309e-01
1.166069999999999940e+00	4.947320000000000051e-01	6.208529999999999882e-01
1.167110000000000092e+00	4.959330000000000127e-01	6.178040000000000198e-01
1.166660000000000030e+00	4.922210000000000196e-01	6.146810000000000329e-01
1.166670000000000096e+00	4.973710000000000075e-01	6.214269999999999516e-01
1.168490000000000029e+00	4.960069999999999757e-01	6.125829999999999886e-01
1.167640000000000011e+00	5.008010000000000517e-01	6.199940000000000451e-01
1.168830000000000036e+00	5.010729999999999906e-01	6.155389999999999473e-01
1.145939999999999959e+00	3.201010000000000244e-01	6.275340000000000362e-01
1.141780000000000017e+00	3.321600000000000108e-01	6.255079999999999529e-01
1.139769999999999950e+00	3.378979999999999762e-01	6.260700000000000154e-01
1.136349999999999971e+00	3.458490000000000175e-01	6.246819999999999595e-01
1.138099999999999890e+00	3.421549999999999869e-01	6.275800000000000267e-01
1.134800000000000031e+00	3.493589999999999751e-01	6.269379999999999953e-01
1.134120000000000017e+00	4.217580000000000218e-01	6.240390000000000104e-01
1.135049999999999892e+00	4.247989999999999822e-01	6.264020000000000143e-01
1.136900000000000022e+00	4.296789999999999776e-01	6.267310000000000381e-01
1.137920000000000043e+00	4.314560000000000062e-01	6.216610000000000191e-01
1.138589999999999991e+00	4.342570000000000041e-01	6.250440000000000440e-01
1.140300000000000091e+00	4.391030000000000211e-01	6.263170000000000126e-01
1.142279999999999962e+00	4.447690000000000254e-01	6.257209999999999717e-01
1.143610000000000015e+00	4.485359999999999903e-01	6.252440000000000220e-01
1.145019999999999927e+00	4.514500000000000179e-01	6.269109999999999960e-01
1.146930000000000005e+00	4.555400000000000005e-01	6.253069999999999462e-01
1.148879999999999901e+00	4.597010000000000263e-01	6.258059999999999734e-01
1.150390000000000024e+00	4.627459999999999907e-01	6.238179999999999836e-01
1.153000000000000025e+00	4.672540000000000027e-01	6.260480000000000489e-01
1.154789999999999983e+00	4.704539999999999833e-01	6.272029999999999550e-01
1.155429999999999957e+00	4.718280000000000252e-01	6.246920000000000250e-01
1.156039999999999957e+00	4.724579999999999891e-01	6.281790000000000429e-01
1.157980000000000009e+00	4.760190000000000254e-01	6.268380000000000063e-01
1.160060000000000091e+00	4.800969999999999960e-01	6.251029999999999642e-01
1.161890000000000089e+00	4.843470000000000275e-01	6.267369999999999886e-01
1.163750000000000062e+00	4.897400000000000087e-01	6.257439999999999669e-01
1.165580000000000060e+00	4.959799999999999764e-01	6.248590000000000533e-01
1.166400000000000103e+00	5.018639999999999768e-01	6.262349999999999861e-01
1.166760000000000019e+00	5.002269999999999772e-01	6.231959999999999722e-01
1.146870000000000056e+00	3.224270000000000191e-01	6.315990000000000215e-01
1.145939999999999959e+00	3.269159999999999844e-01	6.333220000000000516e-01
1.141680000000000028e+00	3.356009999999999827e-01	6.310980000000000478e-01
1.143960000000000088e+00	3.308719999999999994e-01	6.320390000000000175e-01
1.139839999999999964e+00	3.394179999999999975e-01	6.306950000000000056e-01
1.136419999999999986e+00	3.465579999999999772e-01	6.306580000000000519e-01
1.138700000000000045e+00	3.424180000000000001e-01	6.322440000000000282e-01
1.134330000000000060e+00	3.509079999999999977e-01	6.309179999999999788e-01
1.133420000000000094e+00	4.212000000000000188e-01	6.311229999999999896e-01
1.135320000000000107e+00	4.249899999999999789e-01	6.318289999999999740e-01
1.137150000000000105e+00	4.302179999999999893e-01	6.309960000000000013e-01
1.138749999999999929e+00	4.344919999999999893e-01	6.303779999999999939e-01
1.140249999999999986e+00	4.386200000000000099e-01	6.314440000000000053e-01
1.142030000000000101e+00	4.430080000000000129e-01	6.319939999999999447e-01
1.143510000000000026e+00	4.466930000000000067e-01	6.328690000000000149e-01
1.143809999999999993e+00	4.482160000000000033e-01	6.296990000000000087e-01
1.144779999999999909e+00	4.491109999999999824e-01	6.335190000000000543e-01
1.146849999999999925e+00	4.537919999999999732e-01	6.322379999999999667e-01
1.148509999999999920e+00	4.583169999999999744e-01	6.292079999999999895e-01
1.150460000000000038e+00	4.622689999999999855e-01	6.286680000000000046e-01
1.152630000000000043e+00	4.653410000000000046e-01	6.329350000000000254e-01
1.154749999999999943e+00	4.697819999999999774e-01	6.303509999999999946e-01
1.157080000000000108e+00	4.733580000000000010e-01	6.325669999999999904e-01
1.158860000000000001e+00	4.767159999999999731e-01	6.320189999999999975e-01
1.160590000000000011e+00	4.805369999999999919e-01	6.317749999999999755e-01
1.162069999999999936e+00	4.846039999999999792e-01	6.318249999999999700e-01
1.163289999999999935e+00	4.888560000000000128e-01	6.321769999999999889e-01
1.143869999999999942e+00	3.340699999999999781e-01	6.358089999999999575e-01
1.141240000000000032e+00	3.399699999999999944e-01	6.365009999999999835e-01
1.144260000000000055e+00	3.360879999999999979e-01	6.390980000000000549e-01
1.145450000000000079e+00	3.334779999999999966e-01	6.388249999999999762e-01
1.138200000000000101e+00	3.451509999999999856e-01	6.357760000000000078e-01
1.139710000000000001e+00	3.442720000000000224e-01	6.388270000000000337e-01
1.135389999999999899e+00	3.512839999999999852e-01	6.367150000000000309e-01
1.138319999999999999e+00	3.474340000000000206e-01	6.397880000000000233e-01
1.134840000000000071e+00	4.214809999999999945e-01	6.363180000000000502e-01
1.137119999999999909e+00	4.255570000000000186e-01	6.383320000000000105e-01
1.139000000000000012e+00	4.297520000000000229e-01	6.394659999999999789e-01
1.138200000000000101e+00	4.309359999999999857e-01	6.351999999999999869e-01
1.140169999999999906e+00	4.332779999999999965e-01	6.392510000000000137e-01
1.141129999999999978e+00	4.380609999999999782e-01	6.366460000000000452e-01
1.142630000000000035e+00	4.426309999999999967e-01	6.364210000000000145e-01
1.144190000000000040e+00	4.462479999999999780e-01	6.363389999999999880e-01
1.146109999999999962e+00	4.502340000000000231e-01	6.365619999999999612e-01
1.147860000000000102e+00	4.530569999999999875e-01	6.381729999999999903e-01
1.149650000000000061e+00	4.574050000000000060e-01	6.377249999999999863e-01
1.149920000000000053e+00	4.600000000000000200e-01	6.332160000000000011e-01
1.151939999999999964e+00	4.623439999999999772e-01	6.379359999999999475e-01
1.153799999999999937e+00	4.661609999999999920e-01	6.380670000000000508e-01
1.155140000000000056e+00	4.692970000000000197e-01	6.355469999999999731e-01
1.157170000000000032e+00	4.720590000000000064e-01	6.380050000000000443e-01
1.159459999999999935e+00	4.763439999999999896e-01	6.374680000000000346e-01
1.161410000000000053e+00	4.807469999999999799e-01	6.381809999999999983e-01
1.162600000000000078e+00	4.851770000000000249e-01	6.368030000000000079e-01
1.163990000000000080e+00	4.903770000000000073e-01	6.380029999999999868e-01
1.143890000000000073e+00	3.392249999999999988e-01	6.417819999999999636e-01
1.146970000000000045e+00	3.350299999999999945e-01	6.431689999999999907e-01
1.149580000000000046e+00	3.297039999999999971e-01	6.433179999999999454e-01
1.145459999999999923e+00	3.388510000000000133e-01	6.442860000000000253e-01
1.141529999999999934e+00	3.450630000000000086e-01	6.434410000000000407e-01
1.144360000000000044e+00	3.413240000000000163e-01	6.448230000000000350e-01
1.137250000000000094e+00	3.506810000000000205e-01	6.415410000000000279e-01
1.138779999999999903e+00	3.484590000000000187e-01	6.423999999999999710e-01
1.136020000000000030e+00	3.555159999999999987e-01	6.437659999999999494e-01
1.135410000000000030e+00	4.146599999999999731e-01	6.440540000000000154e-01
1.136120000000000019e+00	4.203620000000000134e-01	6.408989999999999965e-01
1.138589999999999991e+00	4.240729999999999777e-01	6.432919999999999749e-01
1.139110000000000067e+00	4.275990000000000069e-01	6.417659999999999476e-01
1.140460000000000029e+00	4.272619999999999751e-01	6.448909999999999920e-01
1.141369999999999996e+00	4.316050000000000164e-01	6.436359999999999859e-01
1.141999999999999904e+00	4.360550000000000259e-01	6.416500000000000536e-01
1.143820000000000059e+00	4.401669999999999749e-01	6.425729999999999498e-01
1.143969999999999931e+00	4.432579999999999854e-01	6.398490000000000011e-01
1.145389999999999908e+00	4.437110000000000221e-01	6.432149999999999812e-01
1.147310000000000052e+00	4.484620000000000273e-01	6.424910000000000343e-01
1.150150000000000006e+00	4.526100000000000123e-01	6.452740000000000142e-01
1.149690000000000101e+00	4.546959999999999891e-01	6.419460000000000166e-01
1.151540000000000008e+00	4.558889999999999887e-01	6.454929999999999835e-01
1.152130000000000098e+00	4.596979999999999955e-01	6.429660000000000375e-01
1.154090000000000060e+00	4.647350000000000092e-01	6.422750000000000403e-01
1.155799999999999939e+00	4.687490000000000268e-01	6.406880000000000353e-01
1.158519999999999994e+00	4.723120000000000096e-01	6.431059999999999555e-01
1.160500000000000087e+00	4.760690000000000199e-01	6.429489999999999927e-01
1.161289999999999933e+00	4.788529999999999731e-01	6.414009999999999989e-01
1.161890000000000089e+00	4.784479999999999844e-01	6.449740000000000473e-01
1.163070000000000048e+00	4.831940000000000124e-01	6.437819999999999654e-01
1.164099999999999913e+00	4.886240000000000028e-01	6.419799999999999951e-01
1.150360000000000049e+00	3.324980000000000158e-01	6.469660000000000410e-01
1.144600000000000062e+00	3.433240000000000181e-01	6.470200000000000395e-01
1.138910000000000089e+00	3.506839999999999957e-01	6.448390000000000510e-01
1.137599999999999945e+00	3.578660000000000174e-01	6.489089999999999581e-01
1.139489999999999892e+00	3.541610000000000036e-01	6.487559999999999993e-01
1.135369999999999990e+00	3.617639999999999745e-01	6.477279999999999704e-01
1.135140000000000038e+00	4.091299999999999937e-01	6.475250000000000172e-01
1.137189999999999923e+00	4.125699999999999923e-01	6.486260000000000359e-01
1.138710000000000111e+00	4.155150000000000232e-01	6.489629999999999566e-01
1.138430000000000053e+00	4.196799999999999975e-01	6.460090000000000554e-01
1.141340000000000021e+00	4.189060000000000006e-01	6.507619999999999516e-01
1.141250000000000098e+00	4.239379999999999815e-01	6.481670000000000487e-01
1.142660000000000009e+00	4.287790000000000212e-01	6.479669999999999597e-01
1.144400000000000084e+00	4.328040000000000220e-01	6.487399999999999833e-01
1.144169999999999909e+00	4.369060000000000166e-01	6.458129999999999704e-01
1.147380000000000067e+00	4.374979999999999980e-01	6.510129999999999528e-01
1.146700000000000053e+00	4.425290000000000057e-01	6.466720000000000246e-01
1.149580000000000046e+00	4.470310000000000117e-01	6.486269999999999536e-01
1.150079999999999991e+00	4.502680000000000016e-01	6.471470000000000278e-01
1.151170000000000027e+00	4.496069999999999789e-01	6.497030000000000305e-01
1.152539999999999898e+00	4.530159999999999743e-01	6.495940000000000047e-01
1.153680000000000039e+00	4.584320000000000062e-01	6.480839999999999934e-01
1.154940000000000078e+00	4.630449999999999844e-01	6.468939999999999690e-01
1.156619999999999981e+00	4.675929999999999809e-01	6.455480000000000107e-01
1.158989999999999965e+00	4.703149999999999831e-01	6.480230000000000157e-01
1.161159999999999970e+00	4.749599999999999933e-01	6.478350000000000497e-01
1.163319999999999910e+00	4.801759999999999917e-01	6.491780000000000328e-01
1.164630000000000054e+00	4.848020000000000107e-01	6.497619999999999507e-01
1.165499999999999980e+00	4.900800000000000156e-01	6.480590000000000517e-01
1.181030000000000024e+00	5.695940000000000447e-01	6.549829999999999819e-01
1.177959999999999896e+00	5.734740000000000393e-01	6.527439999999999909e-01
1.181610000000000049e+00	5.751720000000000166e-01	6.549970000000000514e-01
1.178290000000000060e+00	5.684289999999999621e-01	6.531700000000000284e-01
1.178399999999999892e+00	5.798769999999999758e-01	6.528730000000000366e-01
1.182190000000000074e+00	5.807090000000000307e-01	6.552480000000000526e-01
1.161170000000000035e+00	4.576770000000000005e-01	6.603620000000000045e-01
1.158460000000000045e+00	4.608599999999999919e-01	6.548620000000000552e-01
1.161350000000000104e+00	4.631560000000000121e-01	6.585370000000000390e-01
1.158029999999999893e+00	4.560390000000000277e-01	6.565320000000000045e-01
1.159370000000000012e+00	4.529989999999999850e-01	6.594370000000000509e-01
1.163140000000000063e+00	4.619300000000000073e-01	6.621510000000000451e-01
1.160339999999999927e+00	4.660710000000000131e-01	6.549380000000000202e-01
1.162199999999999900e+00	4.670279999999999987e-01	6.580819999999999448e-01
1.163610000000000033e+00	4.660429999999999851e-01	6.614919999999999689e-01
1.162120000000000042e+00	4.695259999999999989e-01	6.561970000000000303e-01
1.164139999999999953e+00	4.708359999999999768e-01	6.603430000000000133e-01
1.163270000000000026e+00	4.729700000000000015e-01	6.564759999999999485e-01
1.163669999999999982e+00	4.770969999999999933e-01	6.542120000000000157e-01
1.165219999999999922e+00	4.761659999999999782e-01	6.600270000000000303e-01
1.165359999999999951e+00	4.834849999999999981e-01	6.545640000000000347e-01
1.165980000000000016e+00	4.811340000000000061e-01	6.591770000000000129e-01
1.166719999999999979e+00	4.852350000000000274e-01	6.590310000000000334e-01
1.166860000000000008e+00	4.883560000000000123e-01	6.570549999999999446e-01
1.165890000000000093e+00	4.877049999999999996e-01	6.528549999999999631e-01
1.167610000000000037e+00	4.883060000000000178e-01	6.609909999999999952e-01
1.167040000000000077e+00	4.919029999999999792e-01	6.541820000000000412e-01
1.168260000000000076e+00	4.930950000000000055e-01	6.599350000000000493e-01
1.168360000000000065e+00	4.964129999999999932e-01	6.558230000000000448e-01
1.169180000000000108e+00	5.008099999999999774e-01	6.536389999999999700e-01
1.169969999999999954e+00	5.004889999999999617e-01	6.604269999999999863e-01
1.170870000000000077e+00	5.054640000000000244e-01	6.564670000000000227e-01
1.171270000000000033e+00	5.053159999999999874e-01	6.604910000000000503e-01
1.171820000000000084e+00	5.096899999999999764e-01	6.547269999999999479e-01
1.172379999999999978e+00	5.096199999999999619e-01	6.607389999999999652e-01
1.173159999999999981e+00	5.141520000000000534e-01	6.564809999999999812e-01
1.173440000000000039e+00	5.137150000000000327e-01	6.609120000000000550e-01
1.174199999999999910e+00	5.195579999999999643e-01	6.552339999999999831e-01
1.174339999999999939e+00	5.180860000000000465e-01	6.612959999999999949e-01
1.175000000000000044e+00	5.235699999999999799e-01	6.536370000000000235e-01
1.175990000000000091e+00	5.247380000000000377e-01	6.592719999999999692e-01
1.177140000000000075e+00	5.288049999999999695e-01	6.608199999999999630e-01
1.177349999999999897e+00	5.289679999999999938e-01	6.575760000000000494e-01
1.176490000000000036e+00	5.272850000000000037e-01	6.545189999999999619e-01
1.177740000000000009e+00	5.321669999999999456e-01	6.600430000000000463e-01
1.177359999999999962e+00	5.318990000000000107e-01	6.550369999999999804e-01
1.178029999999999911e+00	5.359270000000000422e-01	6.573090000000000321e-01
1.177329999999999988e+00	5.352510000000000323e-01	6.541249999999999565e-01
1.178739999999999899e+00	5.405750000000000277e-01	6.602999999999999980e-01
1.178449999999999998e+00	5.379789999999999850e-01	6.610030000000000072e-01
1.178320000000000034e+00	5.400650000000000173e-01	6.575020000000000309e-01
1.177270000000000039e+00	5.384299999999999642e-01	6.539899999999999602e-01
1.179119999999999946e+00	5.434710000000000374e-01	6.605600000000000360e-01
1.177669999999999995e+00	5.428539999999999477e-01	6.552599999999999536e-01
1.178770000000000095e+00	5.472200000000000397e-01	6.574130000000000251e-01
1.176180000000000003e+00	5.462270000000000181e-01	6.527699999999999614e-01
1.177480000000000082e+00	5.507170000000000121e-01	6.545590000000000019e-01
1.177499999999999991e+00	5.293430000000000080e-01	6.552630000000000399e-01
1.178220000000000045e+00	5.352489999999999748e-01	6.603620000000000045e-01
1.177869999999999973e+00	5.406750000000000167e-01	6.549629999999999619e-01
1.180039999999999978e+00	5.474959999999999827e-01	6.610340000000000105e-01
1.181070000000000064e+00	5.528009999999999868e-01	6.604440000000000310e-01
1.178670000000000107e+00	5.549760000000000248e-01	6.553330000000000544e-01
1.180690000000000017e+00	5.596590000000000176e-01	6.565560000000000285e-01
1.182620000000000005e+00	5.576179999999999470e-01	6.595419999999999616e-01
1.183550000000000102e+00	5.607729999999999659e-01	6.593609999999999749e-01
1.182900000000000063e+00	5.648560000000000247e-01	6.573870000000000546e-01
1.180290000000000061e+00	5.652460000000000262e-01	6.548990000000000089e-01
1.186199999999999921e+00	5.648490000000000455e-01	6.618180000000000174e-01
1.184199999999999919e+00	5.701880000000000281e-01	6.576330000000000231e-01
1.186839999999999895e+00	5.709499999999999575e-01	6.599749999999999783e-01
1.173040000000000083e+00	2.453309999999999935e-01	6.495079999999999742e-01
1.174180000000000001e+00	2.444689999999999919e-01	6.610399999999999610e-01
1.175140000000000073e+00	5.834099999999999842e-01	6.509420000000000206e-01
1.179740000000000011e+00	5.867449999999999610e-01	6.540730000000000155e-01
1.179049999999999931e+00	5.933800000000000185e-01	6.547330000000000094e-01
1.185030000000000028e+00	5.909149999999999681e-01	6.594480000000000341e-01
1.185850000000000071e+00	5.836230000000000029e-01	6.582620000000000138e-01
1.189140000000000086e+00	5.870049999999999990e-01	6.621080000000000298e-01
1.189009999999999900e+00	5.829480000000000217e-01	6.606100000000000305e-01
1.190649999999999986e+00	5.832190000000000429e-01	6.628039999999999488e-01
1.186199999999999921e+00	5.960360000000000102e-01	6.645980000000000221e-01
1.161450000000000093e+00	3.891479999999999939e-01	6.724790000000000489e-01
1.159820000000000073e+00	3.931319999999999815e-01	6.700199999999999489e-01
1.162449999999999983e+00	3.938059999999999894e-01	6.719540000000000513e-01
1.160749999999999948e+00	3.977550000000000252e-01	6.694339999999999735e-01
1.164320000000000022e+00	3.965799999999999881e-01	6.726520000000000277e-01
1.155820000000000070e+00	3.985060000000000269e-01	6.660089999999999621e-01
1.158689999999999998e+00	4.019420000000000215e-01	6.668929999999999580e-01
1.162420000000000009e+00	4.032379999999999853e-01	6.691270000000000273e-01
1.164930000000000021e+00	4.004429999999999934e-01	6.719359999999999777e-01
1.159240000000000048e+00	4.062350000000000128e-01	6.663609999999999811e-01
1.163159999999999972e+00	4.073820000000000219e-01	6.688140000000000196e-01
1.166940000000000088e+00	4.050980000000000136e-01	6.727119999999999767e-01
1.165899999999999936e+00	4.105920000000000125e-01	6.707720000000000349e-01
1.169669999999999987e+00	4.094820000000000126e-01	6.747999999999999554e-01
1.160609999999999919e+00	4.118530000000000246e-01	6.665470000000000006e-01
1.161799999999999944e+00	4.165780000000000038e-01	6.666779999999999928e-01
1.164830000000000032e+00	4.155110000000000192e-01	6.692529999999999868e-01
1.163419999999999899e+00	4.210360000000000213e-01	6.677100000000000257e-01
1.166749999999999954e+00	4.195260000000000100e-01	6.707809999999999606e-01
1.169450000000000101e+00	4.151739999999999875e-01	6.741669999999999607e-01
1.169210000000000083e+00	4.212119999999999753e-01	6.738129999999999953e-01
1.166339999999999932e+00	4.256139999999999923e-01	6.703959999999999919e-01
1.163300000000000001e+00	4.255599999999999938e-01	6.674149999999999805e-01
1.163389999999999924e+00	4.297150000000000136e-01	6.673320000000000363e-01
1.166260000000000074e+00	4.328210000000000113e-01	6.701540000000000274e-01
1.169359999999999955e+00	4.253390000000000226e-01	6.744289999999999452e-01
1.168719999999999981e+00	4.298939999999999984e-01	6.738269999999999538e-01
1.163520000000000110e+00	4.357579999999999787e-01	6.669640000000000013e-01
1.166320000000000023e+00	4.389480000000000048e-01	6.697309999999999652e-01
1.164069999999999938e+00	4.423400000000000110e-01	6.668279999999999763e-01
1.166400000000000103e+00	4.428030000000000022e-01	6.693400000000000460e-01
1.168679999999999941e+00	4.366689999999999738e-01	6.741260000000000030e-01
1.167810000000000015e+00	4.428509999999999946e-01	6.718560000000000088e-01
1.166330000000000089e+00	4.465649999999999897e-01	6.692329999999999668e-01
1.163890000000000091e+00	4.487059999999999937e-01	6.658899999999999819e-01
1.166069999999999940e+00	4.532510000000000150e-01	6.686260000000000536e-01
1.163210000000000077e+00	4.539009999999999989e-01	6.641749999999999599e-01
1.168150000000000022e+00	4.484279999999999933e-01	6.729260000000000241e-01
1.168299999999999894e+00	4.551509999999999723e-01	6.738239999999999785e-01
1.164369999999999905e+00	4.586210000000000009e-01	6.650220000000000020e-01
1.166679999999999939e+00	4.599579999999999780e-01	6.690430000000000543e-01
1.165200000000000014e+00	4.638459999999999805e-01	6.653149999999999897e-01
1.167149999999999910e+00	4.659869999999999846e-01	6.692749999999999533e-01
1.168029999999999902e+00	4.613140000000000018e-01	6.724980000000000402e-01
1.168379999999999974e+00	4.648430000000000062e-01	6.736929999999999863e-01
1.165739999999999998e+00	4.689110000000000222e-01	6.650439999999999685e-01
1.167070000000000052e+00	4.703319999999999723e-01	6.680519999999999792e-01
1.166800000000000059e+00	4.742270000000000096e-01	6.661979999999999569e-01
1.168139999999999956e+00	4.702140000000000208e-01	6.720509999999999540e-01
1.168579999999999952e+00	4.760099999999999887e-01	6.723360000000000447e-01
1.167969999999999953e+00	4.792580000000000173e-01	6.684240000000000181e-01
1.168320000000000025e+00	4.839809999999999945e-01	6.676830000000000265e-01
1.169189999999999952e+00	4.816270000000000273e-01	6.727899999999999991e-01
1.168700000000000072e+00	4.900590000000000224e-01	6.658209999999999962e-01
1.169910000000000005e+00	4.885490000000000110e-01	6.732920000000000016e-01
1.169519999999999893e+00	4.960959999999999814e-01	6.650430000000000508e-01
1.170339999999999936e+00	4.961539999999999839e-01	6.715410000000000545e-01
1.170730000000000048e+00	5.011050000000000226e-01	6.675820000000000087e-01
1.171280000000000099e+00	5.023480000000000167e-01	6.729690000000000394e-01
1.178230000000000111e+00	5.403639999999999555e-01	6.737039999999999695e-01
1.178290000000000060e+00	5.390690000000000204e-01	6.701789999999999692e-01
1.179200000000000026e+00	5.420629999999999615e-01	6.691040000000000321e-01
1.180590000000000028e+00	5.479140000000000121e-01	6.759209999999999940e-01
1.178870000000000084e+00	5.438920000000000421e-01	6.771909999999999874e-01
1.179999999999999938e+00	5.453419999999999934e-01	6.723540000000000072e-01
1.182080000000000020e+00	5.506429999999999936e-01	6.710369999999999946e-01
1.182150000000000034e+00	5.519800000000000262e-01	6.773449999999999749e-01
1.184709999999999930e+00	5.562960000000000127e-01	6.729429999999999579e-01
1.183959999999999901e+00	5.563479999999999537e-01	6.793989999999999752e-01
1.187619999999999898e+00	5.612139999999999906e-01	6.721489999999999965e-01
1.186490000000000045e+00	5.605900000000000327e-01	6.773730000000000029e-01
1.187959999999999905e+00	5.638919999999999488e-01	6.781449999999999978e-01
1.188870000000000093e+00	5.639979999999999993e-01	6.746969999999999912e-01
1.189119999999999955e+00	5.634090000000000487e-01	6.719680000000000097e-01
1.188900000000000068e+00	5.676219999999999599e-01	6.784400000000000430e-01
1.189740000000000020e+00	5.648760000000000447e-01	6.721319999999999517e-01
1.190530000000000088e+00	5.724850000000000216e-01	6.770549999999999624e-01
1.190339999999999954e+00	5.682770000000000321e-01	6.729939999999999811e-01
1.192069999999999963e+00	5.750560000000000116e-01	6.725200000000000067e-01
1.191349999999999909e+00	5.771709999999999896e-01	6.771169999999999689e-01
1.192849999999999966e+00	5.807579999999999965e-01	6.747130000000000072e-01
1.193789999999999907e+00	5.796850000000000058e-01	6.711909999999999821e-01
1.194280000000000008e+00	5.816040000000000099e-01	6.725200000000000067e-01
1.194490000000000052e+00	5.818029999999999591e-01	6.712240000000000428e-01
1.191920000000000091e+00	5.857050000000000312e-01	6.761279999999999513e-01
1.193489999999999940e+00	5.838740000000000041e-01	6.719810000000000505e-01
1.192190000000000083e+00	5.879010000000000069e-01	6.725700000000000012e-01
1.178660000000000041e+00	3.806559999999999944e-01	6.911319999999999686e-01
1.178719999999999990e+00	3.767820000000000058e-01	6.905219999999999692e-01
