7.233220000000000205e-01	4.558749999999999747e-01	5.739300000000000512e-01
7.196749999999999536e-01	4.644780000000000020e-01	5.670359999999999845e-01
7.230459999999999665e-01	4.733470000000000177e-01	5.679189999999999516e-01
7.257109999999999950e-01	4.648559999999999914e-01	5.736010000000000275e-01
7.282149999999999457e-01	4.718890000000000029e-01	5.739809999999999635e-01
7.031140000000000168e-01	7.021490000000000231e-01	5.726569999999999716e-01
7.092779999999999641e-01	6.924879999999999924e-01	5.740730000000000555e-01
6.988739999999999952e-01	6.947820000000000107e-01	5.666489999999999583e-01
7.043599999999999861e-01	6.837980000000000169e-01	5.687520000000000353e-01
6.979020000000000223e-01	6.871549999999999603e-01	5.638210000000000166e-01
7.120950000000000335e-01	6.833179999999999810e-01	5.749809999999999643e-01
6.936590000000000256e-01	7.067090000000000316e-01	5.672120000000000495e-01
6.996310000000000029e-01	7.081479999999999997e-01	5.728339999999999543e-01
6.733339999999999881e-01	7.353659999999999641e-01	5.636679999999999469e-01
6.732749999999999568e-01	7.298909999999999565e-01	5.601150000000000295e-01
6.690390000000000503e-01	7.371649999999999592e-01	5.588670000000000027e-01
6.876989999999999492e-01	7.164179999999999993e-01	5.675200000000000244e-01
6.817090000000000094e-01	7.124719999999999942e-01	5.594409999999999661e-01
6.798340000000000494e-01	7.232939999999999925e-01	5.637870000000000381e-01
6.873150000000000093e-01	7.107909999999999506e-01	5.637140000000000484e-01
6.912570000000000103e-01	7.197170000000000512e-01	5.734280000000000488e-01
6.956369999999999498e-01	7.138409999999999478e-01	5.732699999999999463e-01
6.781639999999999890e-01	7.333129999999999926e-01	5.685459999999999958e-01
6.865959999999999841e-01	7.262210000000000054e-01	5.735430000000000250e-01
6.731829999999999758e-01	7.408909999999999663e-01	5.668929999999999803e-01
6.664759999999999573e-01	7.475880000000000303e-01	5.611960000000000282e-01
6.681070000000000064e-01	7.583800000000000541e-01	5.693829999999999725e-01
6.640279999999999516e-01	7.553320000000000034e-01	5.616360000000000241e-01
6.739709999999999868e-01	7.503140000000000365e-01	5.737160000000000037e-01
6.789849999999999497e-01	7.417019999999999724e-01	5.754209999999999603e-01
6.615039999999999809e-01	7.711289999999999534e-01	5.646510000000000140e-01
6.608770000000000477e-01	7.633839999999999515e-01	5.601669999999999705e-01
6.579479999999999773e-01	7.738639999999999963e-01	5.593759999999999843e-01
6.663050000000000361e-01	7.715499999999999581e-01	5.724439999999999529e-01
6.611209999999999587e-01	7.778249999999999886e-01	5.662580000000000391e-01
6.572999999999999954e-01	7.822200000000000264e-01	5.608220000000000427e-01
6.640059999999999851e-01	7.821529999999999871e-01	5.724519999999999609e-01
6.599899999999999656e-01	7.868389999999999551e-01	5.667769999999999753e-01
6.544459999999999722e-01	7.906729999999999592e-01	5.575160000000000116e-01
6.640949999999999909e-01	7.900610000000000133e-01	5.747079999999999966e-01
6.594989999999999464e-01	7.933900000000000396e-01	5.673409999999999842e-01
6.548939999999999761e-01	7.954639999999999489e-01	5.593150000000000066e-01
6.647560000000000136e-01	7.951369999999999827e-01	5.770480000000000054e-01
7.336620000000000363e-01	5.333860000000000268e-01	5.763000000000000345e-01
7.310440000000000271e-01	5.385929999999999884e-01	5.759279999999999955e-01
7.336819999999999453e-01	5.381599999999999717e-01	5.782770000000000410e-01
7.305509999999999504e-01	5.351970000000000338e-01	5.738339999999999552e-01
7.329459999999999864e-01	5.425710000000000255e-01	5.800579999999999625e-01
7.259640000000000537e-01	5.485510000000000108e-01	5.765240000000000364e-01
7.235279999999999490e-01	5.460220000000000073e-01	5.727330000000000476e-01
7.233279999999999710e-01	5.500709999999999766e-01	5.747569999999999624e-01
7.281849999999999712e-01	5.436320000000000041e-01	5.759020000000000250e-01
7.295449999999999990e-01	5.476360000000000117e-01	5.796510000000000273e-01
7.273370000000000113e-01	5.503710000000000546e-01	5.790600000000000191e-01
7.224070000000000213e-01	5.569809999999999484e-01	5.778389999999999915e-01
7.193049999999999722e-01	5.522650000000000059e-01	5.719440000000000079e-01
7.190210000000000212e-01	5.575989999999999558e-01	5.743960000000000177e-01
7.250720000000000498e-01	5.529830000000000023e-01	5.783709999999999685e-01
7.198710000000000386e-01	5.623089999999999478e-01	5.773899999999999588e-01
7.367110000000000047e-01	5.372879999999999878e-01	5.809609999999999497e-01
7.383739999999999748e-01	5.300430000000000419e-01	5.800450000000000328e-01
7.404469999999999663e-01	5.351029999999999953e-01	5.838330000000000464e-01
7.392269999999999675e-01	5.384060000000000512e-01	5.839659999999999851e-01
7.351429999999999909e-01	5.466309999999999780e-01	5.848280000000000145e-01
7.322109999999999452e-01	5.465149999999999730e-01	5.817139999999999533e-01
7.380069999999999686e-01	5.416360000000000063e-01	5.846700000000000230e-01
7.293359999999999843e-01	5.520209999999999839e-01	5.822770000000000445e-01
7.320659999999999945e-01	5.494970000000000132e-01	5.834970000000000434e-01
7.253380000000000383e-01	5.567090000000000094e-01	5.809530000000000527e-01
7.281950000000000367e-01	5.561789999999999790e-01	5.836989999999999679e-01
7.229149999999999743e-01	5.663010000000000543e-01	5.824030000000000040e-01
7.194709999999999717e-01	5.669710000000000027e-01	5.786820000000000297e-01
7.258010000000000295e-01	5.608140000000000347e-01	5.835110000000000019e-01
7.202479999999999993e-01	5.712859999999999605e-01	5.805890000000000217e-01
7.231919999999999460e-01	5.710009999999999808e-01	5.839159999999999906e-01
7.187090000000000423e-01	4.355490000000000195e-01	5.739100000000000312e-01
7.208729999999999860e-01	4.382429999999999937e-01	5.761150000000000437e-01
7.238480000000000469e-01	4.363290000000000224e-01	5.806940000000000435e-01
7.255279999999999507e-01	4.402019999999999822e-01	5.819680000000000408e-01
7.273849999999999483e-01	4.481120000000000103e-01	5.819419999999999593e-01
7.305230000000000334e-01	4.585429999999999784e-01	5.824890000000000345e-01
7.306240000000000512e-01	4.671350000000000224e-01	5.789189999999999614e-01
7.360280000000000156e-01	4.681029999999999913e-01	5.868499999999999828e-01
7.333399999999999919e-01	4.737870000000000137e-01	5.799590000000000023e-01
7.357259999999999911e-01	4.725520000000000276e-01	5.837189999999999879e-01
7.187270000000000048e-01	6.684520000000000461e-01	5.825620000000000243e-01
7.166000000000000147e-01	6.781110000000000193e-01	5.790589999999999904e-01
7.220670000000000144e-01	6.778480000000000061e-01	5.843230000000000368e-01
7.228799999999999670e-01	6.707680000000000309e-01	5.861720000000000264e-01
7.175770000000000204e-01	6.866069999999999673e-01	5.798499999999999766e-01
7.226620000000000266e-01	6.865499999999999936e-01	5.842330000000000023e-01
7.107869999999999466e-01	7.004070000000000018e-01	5.778140000000000498e-01
7.165799999999999947e-01	6.953660000000000396e-01	5.803059999999999885e-01
7.057980000000000365e-01	7.092450000000000143e-01	5.793920000000000181e-01
7.147329999999999517e-01	7.090300000000000491e-01	5.877029999999999754e-01
7.174869999999999859e-01	7.022629999999999706e-01	5.846500000000000030e-01
7.202840000000000353e-01	6.969819999999999904e-01	5.836360000000000436e-01
7.213840000000000252e-01	6.924900000000000500e-01	5.835029999999999939e-01
6.968459999999999654e-01	7.211600000000000232e-01	5.808590000000000142e-01
6.837109999999999577e-01	7.352279999999999927e-01	5.771060000000000079e-01
6.913730000000000153e-01	7.329529999999999657e-01	5.851180000000000270e-01
6.969670000000000032e-01	7.271800000000000486e-01	5.874899999999999567e-01
6.730639999999999956e-01	7.575889999999999569e-01	5.766200000000000214e-01
6.810389999999999500e-01	7.487559999999999771e-01	5.826599999999999557e-01
6.851490000000000080e-01	7.415329999999999977e-01	5.835179999999999811e-01
6.781089999999999618e-01	7.577559999999999851e-01	5.836919999999999886e-01
7.015379999999999949e-01	7.230469999999999953e-01	5.889489999999999448e-01
7.073800000000000088e-01	7.169619999999999882e-01	5.888560000000000461e-01
6.726849999999999774e-01	7.641109999999999847e-01	5.792370000000000019e-01
6.688479999999999981e-01	7.831650000000000000e-01	5.807759999999999589e-01
6.737649999999999473e-01	7.741460000000000008e-01	5.852990000000000137e-01
6.776980000000000226e-01	7.661700000000000177e-01	5.874700000000000477e-01
6.683710000000000484e-01	7.925780000000000047e-01	5.826249999999999485e-01
6.682590000000000474e-01	7.962719999999999798e-01	5.833239999999999537e-01
7.370170000000000332e-01	4.729050000000000198e-01	5.857029999999999736e-01
7.366329999999999822e-01	4.752770000000000050e-01	5.839879999999999516e-01
7.405739999999999545e-01	4.805079999999999907e-01	5.883369999999999989e-01
7.395969999999999489e-01	4.756949999999999790e-01	5.893599999999999950e-01
7.370710000000000317e-01	4.809590000000000254e-01	5.825799999999999867e-01
7.419029999999999792e-01	4.846409999999999885e-01	5.887179999999999636e-01
7.395929999999999449e-01	4.874419999999999864e-01	5.832950000000000079e-01
7.423579999999999623e-01	4.892920000000000047e-01	5.868679999999999453e-01
7.406890000000000418e-01	4.941420000000000257e-01	5.825679999999999747e-01
7.430290000000000505e-01	5.350190000000000223e-01	5.869849999999999790e-01
7.429289999999999505e-01	5.292280000000000317e-01	5.852129999999999832e-01
7.412689999999999557e-01	5.385119999999999907e-01	5.863359999999999683e-01
7.388270000000000115e-01	5.451279999999999459e-01	5.876000000000000112e-01
7.411699999999999955e-01	5.462780000000000413e-01	5.904570000000000096e-01
7.421299999999999564e-01	5.420369999999999910e-01	5.893730000000000357e-01
7.319700000000000095e-01	5.522029999999999994e-01	5.851990000000000247e-01
7.316620000000000346e-01	5.547499999999999654e-01	5.865540000000000198e-01
7.346420000000000172e-01	5.521369999999999889e-01	5.879020000000000357e-01
7.383070000000000466e-01	5.487849999999999673e-01	5.892450000000000188e-01
7.336019999999999763e-01	5.557659999999999823e-01	5.892789999999999973e-01
7.264270000000000449e-01	5.658039999999999736e-01	5.861990000000000256e-01
7.293899999999999828e-01	5.647950000000000470e-01	5.890220000000000455e-01
7.321309999999999762e-01	5.596189999999999776e-01	5.896789999999999532e-01
7.255730000000000235e-01	5.698539999999999717e-01	5.862260000000000248e-01
7.285279999999999534e-01	5.697719999999999452e-01	5.892460000000000475e-01
7.248400000000000398e-01	5.740589999999999860e-01	5.861060000000000159e-01
7.224380000000000246e-01	5.760459999999999470e-01	5.837879999999999736e-01
7.274329999999999963e-01	5.748760000000000536e-01	5.887019999999999476e-01
7.254439999999999777e-01	5.800009999999999888e-01	5.870499999999999607e-01
7.223469999999999613e-01	5.816940000000000444e-01	5.842119999999999536e-01
7.291029999999999456e-01	5.809879999999999489e-01	5.904559999999999809e-01
7.241530000000000467e-01	5.864040000000000363e-01	5.860790000000000166e-01
7.208989999999999565e-01	5.863890000000000491e-01	5.830539999999999612e-01
7.275380000000000180e-01	5.865829999999999655e-01	5.889790000000000303e-01
7.225089999999999568e-01	5.921739999999999782e-01	5.847120000000000095e-01
7.259010000000000185e-01	5.913150000000000350e-01	5.875719999999999832e-01
7.291499999999999648e-01	5.933990000000000098e-01	5.902079999999999549e-01
7.258499999999999952e-01	5.977529999999999788e-01	5.876080000000000192e-01
7.211039999999999672e-01	5.990119999999999889e-01	5.837729999999999864e-01
7.292410000000000281e-01	5.991600000000000259e-01	5.902370000000000116e-01
7.241429999999999811e-01	6.056110000000000104e-01	5.867069999999999785e-01
7.201699999999999768e-01	6.043589999999999796e-01	5.833660000000000512e-01
7.281640000000000335e-01	6.031570000000000542e-01	5.896169999999999467e-01
7.440890000000000004e-01	4.889620000000000077e-01	5.909750000000000281e-01
7.438519999999999577e-01	4.933310000000000195e-01	5.881999999999999451e-01
7.430390000000000050e-01	4.947280000000000011e-01	5.854970000000000452e-01
7.435880000000000267e-01	4.982659999999999867e-01	5.861119999999999663e-01
7.454370000000000163e-01	4.970870000000000011e-01	5.908780000000000143e-01
7.439489999999999714e-01	5.055340000000000389e-01	5.857050000000000312e-01
7.457099999999999840e-01	5.020799999999999708e-01	5.906000000000000139e-01
7.445300000000000251e-01	5.114260000000000472e-01	5.864899999999999558e-01
7.459519999999999484e-01	5.083119999999999861e-01	5.908280000000000198e-01
7.439759999999999707e-01	5.172649999999999748e-01	5.854260000000000019e-01
7.460179999999999589e-01	5.153469999999999995e-01	5.911060000000000203e-01
7.439949999999999619e-01	5.238549999999999596e-01	5.856759999999999744e-01
7.454250000000000043e-01	5.210569999999999924e-01	5.890750000000000153e-01
7.443199999999999816e-01	5.269319999999999560e-01	5.863359999999999683e-01
7.453889999999999683e-01	5.266809999999999548e-01	5.894859999999999545e-01
7.453610000000000513e-01	5.331639999999999713e-01	5.906620000000000203e-01
7.438529999999999864e-01	5.376910000000000300e-01	5.894049999999999567e-01
7.242239999999999789e-01	6.244709999999999983e-01	5.892009999999999748e-01
7.262629999999999919e-01	6.196730000000000294e-01	5.900180000000000424e-01
7.211570000000000480e-01	6.213560000000000194e-01	5.860180000000000389e-01
7.240529999999999466e-01	6.141149999999999665e-01	5.874749999999999694e-01
7.199799999999999534e-01	6.162400000000000100e-01	5.843810000000000393e-01
7.277970000000000272e-01	6.153659999999999686e-01	5.905540000000000234e-01
7.209689999999999710e-01	6.273640000000000327e-01	5.867529999999999690e-01
7.235350000000000392e-01	6.297270000000000367e-01	5.894310000000000382e-01
7.200729999999999631e-01	6.331539999999999946e-01	5.865749999999999575e-01
7.230950000000000433e-01	6.355889999999999596e-01	5.897719999999999629e-01
7.204270000000000396e-01	6.388779999999999459e-01	5.874139999999999917e-01
7.228229999999999933e-01	6.414910000000000334e-01	5.899830000000000352e-01
7.199330000000000451e-01	6.454630000000000090e-01	5.869940000000000158e-01
7.228940000000000365e-01	6.463210000000000344e-01	5.902600000000000069e-01
7.196789999999999576e-01	6.517060000000000075e-01	5.864500000000000268e-01
7.219700000000000006e-01	6.500099999999999767e-01	5.891690000000000538e-01
7.429649999999999865e-01	4.777719999999999745e-01	5.953230000000000466e-01
7.425709999999999811e-01	4.808859999999999801e-01	5.923500000000000432e-01
7.417420000000000124e-01	4.746009999999999951e-01	5.945639999999999814e-01
7.451259999999999550e-01	5.453799999999999759e-01	5.937310000000000088e-01
7.387820000000000498e-01	5.526379999999999626e-01	5.920349999999999779e-01
7.418090000000000517e-01	5.493930000000000202e-01	5.926780000000000381e-01
7.359630000000000338e-01	5.559690000000000465e-01	5.915810000000000235e-01
7.394640000000000102e-01	5.558410000000000295e-01	5.943829999999999947e-01
7.426120000000000498e-01	5.530350000000000543e-01	5.952070000000000416e-01
7.325089999999999657e-01	5.652639999999999887e-01	5.923739999999999561e-01
7.316200000000000481e-01	5.697189999999999754e-01	5.923720000000000097e-01
7.356740000000000501e-01	5.641620000000000523e-01	5.946759999999999824e-01
7.375140000000000029e-01	5.594700000000000228e-01	5.944500000000000339e-01
7.349449999999999594e-01	5.694150000000000045e-01	5.953019999999999978e-01
7.309080000000000021e-01	5.758090000000000153e-01	5.921319999999999917e-01
7.318529999999999758e-01	5.816900000000000404e-01	5.930860000000000021e-01
7.343060000000000143e-01	5.749919999999999476e-01	5.953199999999999603e-01
7.336240000000000538e-01	5.796670000000000433e-01	5.948660000000000059e-01
7.312600000000000211e-01	5.873080000000000522e-01	5.922910000000000119e-01
7.323199999999999710e-01	5.931910000000000238e-01	5.929950000000000498e-01
7.341769999999999685e-01	5.846400000000000485e-01	5.952570000000000361e-01
7.344739999999999602e-01	5.902490000000000236e-01	5.952739999999999698e-01
7.318519999999999470e-01	5.981859999999999955e-01	5.924819999999999531e-01
7.308649999999999869e-01	6.029339999999999700e-01	5.917670000000000430e-01
7.347409999999999775e-01	5.960689999999999600e-01	5.953040000000000553e-01
7.346329999999999805e-01	6.034890000000000532e-01	5.952229999999999466e-01
7.300579999999999847e-01	6.099269999999999969e-01	5.917430000000000190e-01
7.351919999999999566e-01	6.104289999999999994e-01	5.958269999999999955e-01
7.302570000000000450e-01	6.174669999999999881e-01	5.927010000000000334e-01
7.342739999999999823e-01	6.156899999999999595e-01	5.954180000000000028e-01
7.442309999999999759e-01	4.810590000000000144e-01	5.961589999999999945e-01
7.450909999999999478e-01	4.855610000000000204e-01	5.957729999999999970e-01
7.460790000000000477e-01	4.929359999999999853e-01	5.946310000000000207e-01
7.470240000000000213e-01	4.989060000000000161e-01	5.953680000000000083e-01
7.474629999999999885e-01	5.043710000000000138e-01	5.965489999999999959e-01
7.473889999999999700e-01	5.114560000000000217e-01	5.969430000000000014e-01
7.471719999999999473e-01	5.164269999999999694e-01	5.958999999999999853e-01
7.470790000000000486e-01	5.217450000000000143e-01	5.952589999999999826e-01
7.474480000000000013e-01	5.294579999999999842e-01	5.957189999999999985e-01
7.470959999999999823e-01	5.340369999999999839e-01	5.945399999999999574e-01
7.463560000000000194e-01	5.387999999999999456e-01	5.937999999999999945e-01
7.481820000000000137e-01	5.434080000000000021e-01	5.964500000000000357e-01
7.476620000000000488e-01	5.454679999999999529e-01	5.957369999999999610e-01
7.488050000000000539e-01	5.454520000000000479e-01	5.971020000000000216e-01
7.450670000000000348e-01	5.495879999999999654e-01	5.953699999999999548e-01
7.476580000000000448e-01	5.473419999999999952e-01	5.966890000000000249e-01
7.267130000000000534e-01	6.231109999999999705e-01	5.910119999999999818e-01
7.292250000000000121e-01	6.223360000000000003e-01	5.927339999999999831e-01
7.272880000000000456e-01	6.266969999999999485e-01	5.920729999999999604e-01
7.298970000000000180e-01	6.301780000000000159e-01	5.946360000000000534e-01
7.315139999999999976e-01	6.260010000000000296e-01	5.949630000000000196e-01
7.333699999999999664e-01	6.214610000000000412e-01	5.954300000000000148e-01
7.263960000000000417e-01	6.325330000000000119e-01	5.923059999999999992e-01
7.293939999999999868e-01	6.354199999999999848e-01	5.949879999999999614e-01
7.261929999999999774e-01	6.390369999999999662e-01	5.929029999999999578e-01
7.290830000000000366e-01	6.396619999999999528e-01	5.952950000000000186e-01
7.250119999999999898e-01	6.443950000000000511e-01	5.922560000000000047e-01
7.287989999999999746e-01	6.451750000000000540e-01	5.954530000000000101e-01
7.248900000000000343e-01	6.502440000000000442e-01	5.921640000000000237e-01
7.282980000000000009e-01	6.531040000000000179e-01	5.954930000000000501e-01
7.287900000000000489e-01	4.371889999999999943e-01	5.876829999999999554e-01
7.314169999999999838e-01	4.413659999999999806e-01	5.902110000000000412e-01
7.333929999999999616e-01	4.373139999999999805e-01	5.949640000000000484e-01
7.350240000000000107e-01	4.391829999999999901e-01	5.968830000000000524e-01
7.338440000000000518e-01	4.499900000000000011e-01	5.907090000000000396e-01
7.376949999999999896e-01	4.525870000000000171e-01	5.960140000000000438e-01
7.369520000000000515e-01	4.484029999999999960e-01	5.962899999999999867e-01
7.353429999999999689e-01	4.438219999999999943e-01	5.954660000000000508e-01
7.394939999999999847e-01	4.648720000000000074e-01	5.949250000000000371e-01
7.370679999999999454e-01	4.585429999999999784e-01	5.928989999999999538e-01
7.408409999999999718e-01	4.706040000000000223e-01	5.949940000000000229e-01
7.370370000000000532e-01	4.408520000000000216e-01	5.996519999999999628e-01
7.380379999999999718e-01	4.449609999999999954e-01	5.996470000000000411e-01
7.392170000000000130e-01	4.414179999999999771e-01	6.032999999999999474e-01
7.402229999999999643e-01	4.454190000000000094e-01	6.033309999999999507e-01
7.398150000000000004e-01	4.498289999999999789e-01	6.007660000000000222e-01
7.404140000000000166e-01	4.555509999999999837e-01	5.998280000000000278e-01
7.411609999999999587e-01	4.612689999999999846e-01	5.994770000000000376e-01
7.421100000000000474e-01	4.665630000000000055e-01	5.995880000000000098e-01
7.434979999999999922e-01	4.703970000000000096e-01	6.007639999999999647e-01
7.433440000000000047e-01	4.745090000000000141e-01	5.982760000000000300e-01
7.427810000000000246e-01	5.580730000000000413e-01	5.973039999999999461e-01
7.400740000000000096e-01	5.635050000000000336e-01	5.974059999999999926e-01
7.451309999999999878e-01	5.635879999999999779e-01	5.999020000000000463e-01
7.386490000000000000e-01	5.685419999999999918e-01	5.977219999999999756e-01
7.421929999999999916e-01	5.675080000000000124e-01	5.994180000000000064e-01
7.384979999999999878e-01	5.746679999999999566e-01	5.984300000000000175e-01
7.420780000000000154e-01	5.718220000000000525e-01	6.000879999999999548e-01
7.368879999999999875e-01	5.812429999999999541e-01	5.977019999999999555e-01
7.406960000000000210e-01	5.802460000000000395e-01	6.003880000000000328e-01
7.431330000000000435e-01	5.763380000000000170e-01	6.012760000000000327e-01
7.367249999999999632e-01	5.871849999999999570e-01	5.975679999999999881e-01
7.405869999999999953e-01	5.872669999999999835e-01	6.006070000000000020e-01
7.373779999999999779e-01	5.921750000000000069e-01	5.979950000000000543e-01
7.399580000000000046e-01	5.939320000000000155e-01	6.002410000000000245e-01
7.376449999999999951e-01	5.979600000000000470e-01	5.981049999999999978e-01
7.407399999999999540e-01	5.987740000000000284e-01	6.007190000000000030e-01
7.384810000000000541e-01	6.026899999999999480e-01	5.986900000000000555e-01
7.415950000000000042e-01	6.044859999999999678e-01	6.010320000000000107e-01
7.382140000000000368e-01	6.077449999999999797e-01	5.982769999999999477e-01
7.412779999999999925e-01	6.098580000000000112e-01	6.004690000000000305e-01
7.388400000000000523e-01	6.138719999999999732e-01	5.986059999999999715e-01
7.439219999999999722e-01	6.138019999999999587e-01	6.018259999999999721e-01
7.417589999999999462e-01	6.182990000000000430e-01	6.004059999999999953e-01
7.451659999999999950e-01	4.736799999999999899e-01	6.025009999999999533e-01
7.459339999999999860e-01	4.796460000000000168e-01	6.009910000000000529e-01
7.473140000000000338e-01	4.856070000000000109e-01	6.014180000000000081e-01
7.476099999999999968e-01	4.903179999999999761e-01	6.002380000000000493e-01
7.483530000000000459e-01	4.960160000000000124e-01	6.005979999999999652e-01
7.482600000000000362e-01	5.003630000000000022e-01	5.993939999999999824e-01
7.491769999999999818e-01	4.996729999999999783e-01	6.031480000000000175e-01
7.485429999999999584e-01	5.070949999999999624e-01	6.024249999999999883e-01
7.487179999999999946e-01	5.027160000000000517e-01	6.016219999999999901e-01
7.483009999999999939e-01	5.121160000000000156e-01	6.023220000000000240e-01
7.481020000000000447e-01	5.174549999999999983e-01	6.007670000000000510e-01
7.481200000000000072e-01	5.217779999999999641e-01	6.000410000000000466e-01
7.484309999999999574e-01	5.253090000000000259e-01	6.001579999999999693e-01
7.496429999999999483e-01	5.303600000000000536e-01	6.021180000000000421e-01
7.484790000000000054e-01	5.345640000000000391e-01	5.978130000000000388e-01
7.503889999999999727e-01	5.355480000000000240e-01	6.019139999999999491e-01
7.415709999999999802e-01	4.427579999999999849e-01	6.068480000000000540e-01
7.409820000000000295e-01	4.392349999999999866e-01	6.073680000000000190e-01
7.427350000000000341e-01	4.476820000000000244e-01	6.066449999999999898e-01
7.424359999999999848e-01	4.527639999999999998e-01	6.042340000000000488e-01
7.436239999999999517e-01	4.578309999999999880e-01	6.047099999999999698e-01
7.437660000000000382e-01	4.640650000000000053e-01	6.034549999999999637e-01
7.437890000000000335e-01	4.676170000000000049e-01	6.025840000000000085e-01
7.451039999999999885e-01	5.821769999999999445e-01	6.029759999999999565e-01
7.449940000000000451e-01	5.883230000000000404e-01	6.035479999999999734e-01
7.435540000000000482e-01	5.940619999999999790e-01	6.027799999999999825e-01
7.436220000000000052e-01	5.998830000000000551e-01	6.027130000000000543e-01
7.450799999999999645e-01	6.035040000000000404e-01	6.033690000000000442e-01
7.446660000000000501e-01	6.082159999999999789e-01	6.027150000000000007e-01
7.452900000000000080e-01	4.523179999999999978e-01	6.089280000000000248e-01
7.460710000000000397e-01	4.568690000000000251e-01	6.087160000000000348e-01
7.458960000000000035e-01	4.615400000000000058e-01	6.074049999999999727e-01
7.458909999999999707e-01	4.682950000000000168e-01	6.056719999999999882e-01
7.475270000000000525e-01	4.745510000000000006e-01	6.063349999999999573e-01
7.491020000000000456e-01	4.794889999999999985e-01	6.074659999999999505e-01
7.486960000000000282e-01	4.838009999999999811e-01	6.052279999999999882e-01
7.505140000000000144e-01	4.833410000000000206e-01	6.090550000000000130e-01
7.490289999999999448e-01	4.883529999999999816e-01	6.045009999999999550e-01
7.502649999999999597e-01	4.866329999999999822e-01	6.077639999999999709e-01
7.492790000000000283e-01	4.925760000000000138e-01	6.041269999999999696e-01
7.506699999999999484e-01	4.908290000000000153e-01	6.080240000000000089e-01
7.503440000000000110e-01	4.964890000000000136e-01	6.070619999999999905e-01
7.498719999999999830e-01	5.029190000000000049e-01	6.071050000000000058e-01
7.492860000000000076e-01	5.070259999999999767e-01	6.070029999999999593e-01
7.489630000000000454e-01	5.107880000000000198e-01	6.061339999999999506e-01
7.487730000000000219e-01	5.148610000000000131e-01	6.051710000000000145e-01
7.493410000000000348e-01	5.191729999999999956e-01	6.064960000000000351e-01
7.488390000000000324e-01	5.222670000000000368e-01	6.032399999999999984e-01
7.498770000000000158e-01	5.233919999999999684e-01	6.068879999999999830e-01
7.494629999999999903e-01	5.258380000000000276e-01	6.040619999999999878e-01
7.508679999999999799e-01	5.274929999999999897e-01	6.075960000000000250e-01
7.525230000000000530e-01	5.344400000000000261e-01	6.077099999999999724e-01
7.380970000000000031e-01	4.381240000000000134e-01	6.027320000000000455e-01
7.429299999999999793e-01	4.403520000000000212e-01	6.102549999999999919e-01
7.436840000000000117e-01	4.435390000000000166e-01	6.100569999999999604e-01
7.451719999999999455e-01	4.411640000000000006e-01	6.136850000000000360e-01
7.460059999999999469e-01	4.464130000000000043e-01	6.125300000000000189e-01
7.479789999999999495e-01	4.505669999999999953e-01	6.137430000000000385e-01
7.476949999999999985e-01	4.545609999999999928e-01	6.117460000000000120e-01
7.490890000000000049e-01	4.530640000000000223e-01	6.145000000000000462e-01
7.475850000000000550e-01	4.585640000000000271e-01	6.105819999999999581e-01
7.496610000000000218e-01	4.571470000000000256e-01	6.144079999999999542e-01
7.483360000000000012e-01	4.631810000000000094e-01	6.107209999999999583e-01
7.514349999999999641e-01	4.635259999999999936e-01	6.154929999999999568e-01
7.495629999999999793e-01	4.697020000000000084e-01	6.109480000000000466e-01
7.521839999999999637e-01	4.688700000000000090e-01	6.149740000000000206e-01
7.500139999999999585e-01	4.755210000000000270e-01	6.102159999999999807e-01
7.519989999999999730e-01	4.734510000000000107e-01	6.136439999999999673e-01
7.521839999999999637e-01	4.800670000000000215e-01	6.127920000000000034e-01
7.521600000000000508e-01	4.871030000000000082e-01	6.118540000000000090e-01
7.524549999999999850e-01	4.933390000000000275e-01	6.126559999999999784e-01
7.522130000000000205e-01	4.998770000000000158e-01	6.137070000000000025e-01
7.498740000000000405e-01	5.061550000000000216e-01	6.092940000000000023e-01
7.510869999999999491e-01	5.062699999999999978e-01	6.128780000000000339e-01
7.499529999999999808e-01	5.097979999999999734e-01	6.103239999999999776e-01
7.509460000000000024e-01	5.102680000000000549e-01	6.136819999999999498e-01
7.497359999999999580e-01	5.150860000000000438e-01	6.092060000000000253e-01
7.509799999999999809e-01	5.141599999999999504e-01	6.135570000000000190e-01
7.513919999999999488e-01	5.214969999999999883e-01	6.123499999999999499e-01
7.529150000000000009e-01	5.292879999999999807e-01	6.123499999999999499e-01
7.538869999999999738e-01	5.331749999999999545e-01	6.122950000000000337e-01
7.551569999999999672e-01	5.365940000000000154e-01	6.130100000000000549e-01
7.549270000000000147e-01	5.398009999999999753e-01	6.100929999999999964e-01
7.533790000000000209e-01	5.391420000000000101e-01	6.069069999999999743e-01
7.540959999999999885e-01	5.434139999999999526e-01	6.065530000000000088e-01
7.564870000000000205e-01	5.403069999999999817e-01	6.136000000000000343e-01
7.577639999999999931e-01	5.456649999999999556e-01	6.131159999999999943e-01
7.557369999999999921e-01	5.477959999999999496e-01	6.076580000000000314e-01
7.575380000000000447e-01	5.525419999999999776e-01	6.090929999999999955e-01
7.591839999999999700e-01	5.508300000000000418e-01	6.126719999999999944e-01
7.603020000000000334e-01	5.546689999999999676e-01	6.128949999999999676e-01
7.594589999999999952e-01	5.584409999999999652e-01	6.100179999999999492e-01
7.569350000000000245e-01	5.582470000000000487e-01	6.069930000000000048e-01
7.614509999999999890e-01	5.589640000000000164e-01	6.131429999999999936e-01
7.481619999999999937e-01	4.431059999999999999e-01	6.180590000000000250e-01
7.486399999999999721e-01	4.473360000000000114e-01	6.164929999999999577e-01
7.466960000000000264e-01	4.388279999999999959e-01	6.176369999999999916e-01
7.498249999999999638e-01	4.463199999999999945e-01	6.194009999999999794e-01
7.504049999999999887e-01	4.508440000000000225e-01	6.183509999999999840e-01
7.525300000000000322e-01	4.571919999999999873e-01	6.199189999999999978e-01
7.536079999999999446e-01	4.619960000000000178e-01	6.197249999999999703e-01
7.541799999999999615e-01	4.668809999999999905e-01	6.189409999999999634e-01
7.537449999999999983e-01	4.711899999999999977e-01	6.167439999999999589e-01
7.542830000000000368e-01	4.756969999999999810e-01	6.168320000000000469e-01
7.557169999999999721e-01	4.721110000000000029e-01	6.203600000000000225e-01
7.563999999999999613e-01	4.775889999999999858e-01	6.208500000000000130e-01
7.550430000000000197e-01	4.809990000000000099e-01	6.177249999999999686e-01
7.540890000000000093e-01	4.850459999999999772e-01	6.158620000000000205e-01
7.565159999999999663e-01	4.815849999999999853e-01	6.207230000000000247e-01
7.561379999999999768e-01	4.865229999999999833e-01	6.205370000000000053e-01
7.542720000000000535e-01	4.899249999999999994e-01	6.165270000000000472e-01
7.540229999999999988e-01	5.006680000000000019e-01	6.191870000000000429e-01
7.544619999999999660e-01	4.953389999999999738e-01	6.183450000000000335e-01
7.555229999999999446e-01	4.913339999999999930e-01	6.197329999999999783e-01
7.531050000000000244e-01	5.052720000000000544e-01	6.181449999999999445e-01
7.523300000000000542e-01	5.112710000000000310e-01	6.172330000000000316e-01
7.523279999999999967e-01	5.168869999999999854e-01	6.169480000000000519e-01
7.533370000000000344e-01	5.208049999999999624e-01	6.184520000000000017e-01
7.540959999999999885e-01	5.262569999999999748e-01	6.176669999999999661e-01
7.558120000000000394e-01	5.295919999999999517e-01	6.201280000000000125e-01
7.552539999999999809e-01	5.325999999999999623e-01	6.163929999999999687e-01
7.574450000000000349e-01	5.334879999999999622e-01	6.214469999999999716e-01
7.580430000000000224e-01	5.395820000000000061e-01	6.183920000000000528e-01
7.593400000000000150e-01	5.443099999999999605e-01	6.180330000000000545e-01
7.609810000000000185e-01	5.481300000000000061e-01	6.197909999999999808e-01
7.606490000000000196e-01	5.513919999999999932e-01	6.159590000000000343e-01
7.625530000000000364e-01	5.531760000000000010e-01	6.203629999999999978e-01
7.625779999999999781e-01	5.572810000000000263e-01	6.172400000000000109e-01
7.435509999999999620e-01	4.379910000000000192e-01	6.124640000000000084e-01
7.488960000000000061e-01	4.395870000000000055e-01	6.215309999999999446e-01
7.513990000000000391e-01	4.443909999999999805e-01	6.242330000000000378e-01
7.503959999999999519e-01	4.384640000000000204e-01	6.255060000000000064e-01
7.531330000000000524e-01	4.515029999999999877e-01	6.241590000000000193e-01
7.547239999999999505e-01	4.562030000000000252e-01	6.253349999999999742e-01
7.544669999999999987e-01	4.596640000000000170e-01	6.226310000000000455e-01
7.554089999999999971e-01	4.634280000000000066e-01	6.228380000000000027e-01
7.560940000000000438e-01	4.603490000000000082e-01	6.262919999999999598e-01
7.570759999999999712e-01	4.645520000000000205e-01	6.266650000000000276e-01
7.566990000000000105e-01	4.682450000000000223e-01	6.240940000000000376e-01
7.580339999999999856e-01	4.745869999999999811e-01	6.260980000000000434e-01
7.579580000000000206e-01	4.818950000000000178e-01	6.251830000000000442e-01
7.580379999999999896e-01	4.881240000000000023e-01	6.262090000000000156e-01
7.555680000000000174e-01	4.993099999999999761e-01	6.228709999999999525e-01
7.566420000000000368e-01	4.931880000000000153e-01	6.236019999999999897e-01
7.573020000000000307e-01	4.987349999999999839e-01	6.274530000000000385e-01
7.547970000000000512e-01	5.046319999999999695e-01	6.225070000000000325e-01
7.543260000000000520e-01	5.103199999999999958e-01	6.221229999999999816e-01
7.564210000000000100e-01	5.040350000000000108e-01	6.264960000000000528e-01
7.558489999999999931e-01	5.088740000000000485e-01	6.257669999999999622e-01
7.539390000000000258e-01	5.162999999999999812e-01	6.209959999999999924e-01
7.553029999999999466e-01	5.225009999999999932e-01	6.224429999999999685e-01
7.563790000000000235e-01	5.157580000000000497e-01	6.265140000000000153e-01
7.572590000000000154e-01	5.225109999999999477e-01	6.267970000000000486e-01
7.555070000000000396e-01	5.267629999999999812e-01	6.211790000000000367e-01
7.574450000000000349e-01	5.281219999999999803e-01	6.247049999999999548e-01
7.591579999999999995e-01	5.331630000000000535e-01	6.258219999999999894e-01
7.595520000000000049e-01	5.371759999999999868e-01	6.243159999999999821e-01
7.610940000000000483e-01	5.417760000000000353e-01	6.253459999999999575e-01
7.603889999999999816e-01	5.441460000000000186e-01	6.212900000000000089e-01
7.624180000000000401e-01	5.471120000000000427e-01	6.254070000000000462e-01
7.635039999999999605e-01	5.521080000000000432e-01	6.248930000000000318e-01
7.647469999999999546e-01	5.581350000000000477e-01	6.240160000000000151e-01
7.647429999999999506e-01	5.638560000000000239e-01	6.200010000000000243e-01
7.657500000000000417e-01	5.622350000000000403e-01	6.240310000000000024e-01
7.665859999999999896e-01	5.656569999999999654e-01	6.254290000000000127e-01
7.659829999999999695e-01	5.694200000000000372e-01	6.213659999999999739e-01
7.649449999999999861e-01	5.685210000000000541e-01	6.184309999999999530e-01
7.672609999999999708e-01	5.714960000000000040e-01	6.256650000000000267e-01
7.648800000000000043e-01	5.724939999999999474e-01	6.178470000000000351e-01
7.663910000000000444e-01	5.747919999999999696e-01	6.213910000000000267e-01
7.649839999999999973e-01	5.784589999999999455e-01	6.178059999999999663e-01
7.667169999999999819e-01	5.804319999999999480e-01	6.215819999999999679e-01
7.651919999999999833e-01	5.854730000000000212e-01	6.181980000000000253e-01
7.673560000000000381e-01	5.860870000000000246e-01	6.227449999999999930e-01
7.663879999999999582e-01	5.918930000000000025e-01	6.204190000000000538e-01
7.644400000000000084e-01	5.914220000000000033e-01	6.169970000000000176e-01
7.674900000000000055e-01	5.765059999999999629e-01	6.248590000000000533e-01
7.680430000000000312e-01	5.809889999999999777e-01	6.258590000000000542e-01
7.686269999999999492e-01	5.856200000000000294e-01	6.267970000000000486e-01
7.683999999999999719e-01	5.914129999999999665e-01	6.254910000000000192e-01
7.645950000000000246e-01	5.981180000000000385e-01	6.178289999999999615e-01
7.672280000000000211e-01	5.975380000000000136e-01	6.226939999999999698e-01
7.661240000000000272e-01	6.026690000000000103e-01	6.214429999999999676e-01
7.641170000000000462e-01	6.053539999999999477e-01	6.184340000000000392e-01
7.540430000000000188e-01	4.443340000000000067e-01	6.306789999999999896e-01
7.542659999999999920e-01	4.484250000000000180e-01	6.286629999999999718e-01
7.529280000000000417e-01	4.399879999999999902e-01	6.307329999999999881e-01
7.550569999999999782e-01	4.526740000000000208e-01	6.281910000000000549e-01
7.556450000000000111e-01	4.475930000000000186e-01	6.328399999999999581e-01
7.559879999999999933e-01	4.512470000000000092e-01	6.314969999999999750e-01
7.569590000000000485e-01	4.566760000000000264e-01	6.310329999999999551e-01
7.577350000000000474e-01	4.624599999999999822e-01	6.298989999999999867e-01
7.589930000000000287e-01	4.688610000000000277e-01	6.310440000000000493e-01
7.594579999999999664e-01	4.745409999999999906e-01	6.306939999999999769e-01
7.599240000000000439e-01	4.794649999999999745e-01	6.321320000000000272e-01
7.597490000000000077e-01	4.861090000000000133e-01	6.318270000000000275e-01
7.590170000000000528e-01	4.934410000000000185e-01	6.309740000000000348e-01
7.586469999999999603e-01	4.995809999999999973e-01	6.314400000000000013e-01
7.578200000000000491e-01	5.031919999999999726e-01	6.299630000000000507e-01
7.580350000000000144e-01	5.091970000000000107e-01	6.308409999999999851e-01
7.586699999999999555e-01	5.153060000000000418e-01	6.317399999999999682e-01
7.586469999999999603e-01	5.200139999999999763e-01	6.305260000000000309e-01
7.592659999999999965e-01	5.252299999999999747e-01	6.299470000000000347e-01
7.608709999999999640e-01	5.305900000000000061e-01	6.309350000000000236e-01
7.609270000000000200e-01	5.358880000000000310e-01	6.285079999999999556e-01
7.625650000000000484e-01	5.354339999999999655e-01	6.325070000000000414e-01
7.610249999999999515e-01	5.387420000000000542e-01	6.271719999999999517e-01
7.626819999999999711e-01	5.398349999999999538e-01	6.307589999999999586e-01
7.636549999999999727e-01	5.454090000000000327e-01	6.305250000000000021e-01
7.649129999999999541e-01	5.513660000000000228e-01	6.308580000000000298e-01
7.652999999999999803e-01	5.556330000000000435e-01	6.287399999999999656e-01
7.664670000000000094e-01	5.598959999999999493e-01	6.298089999999999522e-01
7.662949999999999484e-01	5.617879999999999541e-01	6.266899999999999693e-01
7.671729999999999938e-01	5.636700000000000044e-01	6.296779999999999600e-01
7.678399999999999670e-01	5.682270000000000376e-01	6.306049999999999711e-01
7.685419999999999474e-01	5.757919999999999705e-01	6.307909999999999906e-01
7.690270000000000161e-01	5.821819999999999773e-01	6.299489999999999812e-01
7.696199999999999708e-01	5.875740000000000407e-01	6.313490000000000490e-01
7.695739999999999803e-01	5.933300000000000241e-01	6.299050000000000482e-01
6.963719999999999910e-01	7.896030000000000548e-01	6.231179999999999497e-01
6.962690000000000268e-01	7.833409999999999540e-01	6.199500000000000011e-01
6.906179999999999541e-01	7.895959999999999646e-01	6.155140000000000056e-01
6.980629999999999891e-01	7.863379999999999814e-01	6.235169999999999879e-01
6.961129999999999818e-01	7.940110000000000223e-01	6.250120000000000120e-01
6.906980000000000341e-01	7.949619999999999465e-01	6.177700000000000413e-01
7.433999999999999497e-01	6.962869999999999893e-01	6.451170000000000515e-01
7.427890000000000326e-01	6.966240000000000210e-01	6.393999999999999684e-01
7.425239999999999618e-01	7.001249999999999973e-01	6.423550000000000093e-01
7.686629999999999852e-01	5.332360000000000433e-01	6.490629999999999455e-01
7.685589999999999922e-01	5.399479999999999835e-01	6.455330000000000235e-01
7.699930000000000385e-01	5.404769999999999852e-01	6.501740000000000297e-01
7.672020000000000506e-01	5.358060000000000045e-01	6.431660000000000155e-01
7.684919999999999529e-01	5.456440000000000179e-01	6.439709999999999601e-01
7.697880000000000278e-01	5.444309999999999983e-01	6.482310000000000016e-01
7.684490000000000487e-01	5.516630000000000145e-01	6.426070000000000393e-01
7.702630000000000310e-01	5.504390000000000116e-01	6.494220000000000548e-01
7.689070000000000071e-01	5.576579999999999870e-01	6.425319999999999920e-01
7.701249999999999485e-01	5.569359999999999866e-01	6.479629999999999557e-01
7.692120000000000068e-01	5.629070000000000462e-01	6.419880000000000031e-01
7.700540000000000163e-01	5.616769999999999818e-01	6.465269999999999628e-01
7.693579999999999863e-01	5.677379999999999649e-01	6.410019999999999607e-01
7.702339999999999742e-01	5.674550000000000427e-01	6.470770000000000133e-01
7.698800000000000088e-01	5.736059999999999492e-01	6.430900000000000505e-01
7.703529999999999545e-01	5.732530000000000125e-01	6.495009999999999950e-01
7.699829999999999730e-01	5.795559999999999601e-01	6.413630000000000164e-01
7.700519999999999587e-01	5.795090000000000519e-01	6.477810000000000512e-01
7.700590000000000490e-01	5.863819999999999588e-01	6.423410000000000508e-01
7.695189999999999531e-01	5.853359999999999674e-01	6.495469999999999855e-01
7.697749999999999870e-01	5.943490000000000162e-01	6.425750000000000073e-01
7.688319999999999599e-01	5.912560000000000038e-01	6.492890000000000050e-01
7.656070000000000375e-01	6.063600000000000101e-01	6.494900000000000118e-01
7.654269999999999685e-01	6.100799999999999557e-01	6.451139999999999652e-01
7.638530000000000042e-01	6.107869999999999688e-01	6.500409999999999799e-01
7.627249999999999863e-01	6.142790000000000195e-01	6.483970000000000011e-01
7.636359999999999815e-01	6.145469999999999544e-01	6.421740000000000226e-01
7.657110000000000305e-01	6.113619999999999610e-01	6.413119999999999932e-01
7.693619999999999903e-01	5.988310000000000022e-01	6.428080000000000460e-01
7.683130000000000237e-01	5.981119999999999770e-01	6.475840000000000485e-01
7.679519999999999680e-01	6.036409999999999831e-01	6.436300000000000354e-01
7.671419999999999906e-01	6.024840000000000195e-01	6.486750000000000016e-01
7.671189999999999953e-01	6.084140000000000104e-01	6.401289999999999480e-01
7.426639999999999908e-01	7.005329999999999613e-01	6.487349999999999506e-01
7.415110000000000312e-01	7.045569999999999888e-01	6.423889999999999878e-01
7.414429999999999632e-01	7.057200000000000140e-01	6.474720000000000475e-01
7.402149999999999563e-01	7.106130000000000502e-01	6.435340000000000504e-01
7.406049999999999578e-01	7.089800000000000546e-01	6.496410000000000240e-01
7.392069999999999474e-01	7.165679999999999827e-01	6.435739999999999794e-01
7.396230000000000304e-01	7.141220000000000345e-01	6.488779999999999548e-01
7.383800000000000363e-01	7.208099999999999508e-01	6.407500000000000417e-01
7.388270000000000115e-01	7.208999999999999853e-01	6.474429999999999907e-01
7.382410000000000361e-01	7.260039999999999827e-01	6.423459999999999726e-01
7.387899999999999467e-01	7.275080000000000435e-01	6.482099999999999529e-01
7.384789999999999965e-01	7.332509999999999861e-01	6.425490000000000368e-01
7.393060000000000187e-01	7.322530000000000427e-01	6.495220000000000438e-01
7.393669999999999964e-01	7.400400000000000311e-01	6.439949999999999841e-01
7.398740000000000316e-01	7.372769999999999602e-01	6.486899999999999888e-01
7.384020000000000028e-01	7.459850000000000092e-01	6.421729999999999938e-01
7.400940000000000296e-01	7.434739999999999682e-01	6.484609999999999541e-01
7.383480000000000043e-01	7.502379999999999605e-01	6.435640000000000249e-01
7.390050000000000230e-01	7.511039999999999939e-01	6.484130000000000171e-01
7.360259999999999581e-01	7.556490000000000151e-01	6.455760000000000387e-01
7.372790000000000177e-01	7.526610000000000245e-01	6.437230000000000452e-01
7.342929999999999735e-01	7.546249999999999902e-01	6.409409999999999830e-01
7.375770000000000381e-01	7.558909999999999796e-01	6.491430000000000256e-01
7.196820000000000439e-01	7.747190000000000465e-01	6.453799999999999537e-01
7.188130000000000353e-01	7.722860000000000280e-01	6.410130000000000550e-01
7.161880000000000468e-01	7.773799999999999599e-01	6.418509999999999494e-01
7.173789999999999889e-01	7.815229999999999677e-01	6.482200000000000184e-01
7.145789999999999642e-01	7.818739999999999579e-01	6.436389999999999612e-01
7.205949999999999855e-01	7.767640000000000100e-01	6.494419999999999638e-01
7.308390000000000164e-01	7.623659999999999881e-01	6.470470000000000388e-01
7.308179999999999676e-01	7.591050000000000297e-01	6.422679999999999501e-01
7.279780000000000140e-01	7.632560000000000455e-01	6.443210000000000326e-01
7.255209999999999715e-01	7.657760000000000122e-01	6.443710000000000271e-01
7.223110000000000364e-01	7.686680000000000179e-01	6.428319999999999590e-01
7.249729999999999785e-01	7.681489999999999707e-01	6.467359999999999776e-01
7.277150000000000007e-01	7.654330000000000300e-01	6.471419999999999950e-01
7.306470000000000464e-01	7.645429999999999726e-01	6.500920000000000032e-01
7.327829999999999622e-01	7.622060000000000501e-01	6.496349999999999625e-01
7.348670000000000480e-01	7.594649999999999457e-01	6.490960000000000063e-01
7.232039999999999580e-01	7.722280000000000255e-01	6.487990000000000146e-01
7.710219999999999851e-01	5.392179999999999751e-01	6.557610000000000383e-01
7.703079999999999927e-01	5.329819999999999558e-01	6.559169999999999723e-01
7.711459999999999981e-01	5.455550000000000122e-01	6.537600000000000078e-01
7.716859999999999831e-01	5.514850000000000030e-01	6.561700000000000310e-01
7.712309999999999999e-01	5.568159999999999776e-01	6.542810000000000015e-01
7.708359999999999657e-01	5.626619999999999955e-01	6.518359999999999710e-01
7.706899999999999862e-01	5.690009999999999790e-01	6.540369999999999795e-01
7.699240000000000528e-01	5.759159999999999835e-01	6.550799999999999956e-01
7.693510000000000071e-01	5.818520000000000358e-01	6.534809999999999786e-01
7.682099999999999485e-01	5.871199999999999752e-01	6.549949999999999939e-01
7.677450000000000108e-01	5.914030000000000120e-01	6.537469999999999670e-01
7.665530000000000399e-01	5.954070000000000196e-01	6.545480000000000187e-01
7.663900000000000157e-01	6.007019999999999582e-01	6.519989999999999952e-01
7.647629999999999706e-01	6.002779999999999783e-01	6.561379999999999990e-01
7.660820000000000407e-01	6.034840000000000204e-01	6.510610000000000008e-01
7.644140000000000379e-01	6.043439999999999923e-01	6.543480000000000407e-01
7.630649999999999933e-01	6.091529999999999445e-01	6.539340000000000153e-01
7.619000000000000217e-01	6.132450000000000401e-01	6.531069999999999931e-01
7.416610000000000147e-01	7.045369999999999688e-01	6.535600000000000298e-01
7.427519999999999678e-01	7.004190000000000138e-01	6.543539999999999912e-01
7.401269999999999794e-01	7.106569999999999832e-01	6.552369999999999584e-01
7.390959999999999752e-01	7.172840000000000327e-01	6.543080000000000007e-01
7.388390000000000235e-01	7.237980000000000524e-01	6.539890000000000425e-01
7.391280000000000072e-01	7.290950000000000486e-01	6.534039999999999848e-01
7.399179999999999646e-01	7.345359999999999667e-01	6.550979999999999581e-01
7.405350000000000543e-01	7.403220000000000356e-01	6.532769999999999966e-01
7.407519999999999660e-01	7.462199999999999944e-01	6.549869999999999859e-01
7.401529999999999498e-01	7.521780000000000133e-01	6.552970000000000184e-01
7.380870000000000486e-01	7.569240000000000412e-01	6.532769999999999966e-01
7.206059999999999688e-01	7.794370000000000465e-01	6.522069999999999812e-01
7.273450000000000193e-01	7.684760000000000479e-01	6.507469999999999644e-01
7.288679999999999604e-01	7.699259999999999993e-01	6.550859999999999461e-01
7.314260000000000206e-01	7.660850000000000160e-01	6.538599999999999968e-01
7.338750000000000551e-01	7.625579999999999581e-01	6.522059999999999524e-01
7.361600000000000366e-01	7.604180000000000383e-01	6.530740000000000434e-01
7.228729999999999878e-01	7.760709999999999553e-01	6.526880000000000459e-01
7.258369999999999544e-01	7.727669999999999817e-01	6.537990000000000190e-01
7.228250000000000508e-01	7.792580000000000062e-01	6.557520000000000016e-01
7.159240000000000048e-01	7.910000000000000364e-01	6.537410000000000165e-01
7.125590000000000535e-01	7.864729999999999777e-01	6.442039999999999988e-01
7.201130000000000031e-01	7.838270000000000515e-01	6.552609999999999824e-01
7.106320000000000414e-01	7.960159999999999458e-01	6.482679999999999554e-01
7.085110000000000019e-01	7.928439999999999932e-01	6.425159999999999760e-01
7.048309999999999853e-01	7.963999999999999968e-01	6.390879999999999894e-01
7.155209999999999626e-01	7.970380000000000242e-01	6.573269999999999946e-01
