9.022630000000000372e-01	7.288899999999999546e-02	9.948740000000000361e-01
8.964459999999999651e-01	7.306999999999999607e-02	1.000070000000000014e+00
9.073590000000000266e-01	6.821599999999999886e-02	9.921400000000000219e-01
9.067530000000000312e-01	7.459100000000000452e-02	9.907040000000000290e-01
9.060700000000000420e-01	6.104400000000000104e-02	9.958329999999999682e-01
9.037100000000000133e-01	5.862699999999999856e-02	9.993649999999999478e-01
8.994609999999999550e-01	8.022700000000000664e-02	9.952590000000000048e-01
8.938080000000000469e-01	8.047200000000000186e-02	9.997850000000000348e-01
9.042689999999999895e-01	7.884099999999999442e-02	9.917439999999999589e-01
9.106950000000000323e-01	6.210700000000000248e-02	9.913929999999999687e-01
8.967009999999999703e-01	9.057600000000000373e-02	9.954699999999999660e-01
8.911170000000000480e-01	8.619999999999999885e-02	1.000280000000000058e+00
9.040780000000000483e-01	8.736199999999999521e-02	9.907620000000000315e-01
9.091179999999999817e-01	1.389390000000000069e-01	9.891900000000000137e-01
9.043189999999999840e-01	1.707140000000000046e-01	9.981670000000000265e-01
9.083830000000000515e-01	1.675719999999999987e-01	9.940529999999999644e-01
9.127340000000000453e-01	1.709009999999999974e-01	9.897860000000000547e-01
9.086880000000000512e-01	1.783409999999999995e-01	9.936690000000000245e-01
9.030709999999999571e-01	1.802799999999999958e-01	9.989749999999999464e-01
9.064240000000000075e-01	1.891009999999999913e-01	9.946660000000000501e-01
9.016170000000000018e-01	1.881829999999999892e-01	9.994589999999999863e-01
9.142550000000000399e-01	1.801149999999999973e-01	9.881750000000000256e-01
9.112820000000000364e-01	1.869270000000000098e-01	9.904570000000000318e-01
9.069160000000000554e-01	1.960969999999999935e-01	9.928360000000000518e-01
9.024389999999999912e-01	1.955429999999999946e-01	9.972560000000000313e-01
8.982019999999999449e-01	2.020309999999999884e-01	1.000250000000000083e+00
9.006440000000000001e-01	2.104260000000000019e-01	9.954680000000000195e-01
8.949669999999999570e-01	2.086290000000000089e-01	1.002159999999999940e+00
9.079059999999999908e-01	2.033330000000000137e-01	9.899409999999999599e-01
9.052719999999999656e-01	2.100339999999999985e-01	9.907160000000000410e-01
9.106760000000000410e-01	1.943439999999999890e-01	9.896570000000000089e-01
8.992210000000000480e-01	2.197089999999999876e-01	9.949000000000000066e-01
8.950860000000000483e-01	2.156510000000000093e-01	1.000420000000000087e+00
9.039970000000000505e-01	2.157419999999999893e-01	9.905420000000000336e-01
8.605199999999999516e-01	4.368340000000000001e-01	1.028159999999999963e+00
8.607420000000000071e-01	4.259689999999999865e-01	1.029029999999999889e+00
8.601699999999999902e-01	4.456209999999999893e-01	1.029590000000000005e+00
8.603650000000000464e-01	4.530870000000000175e-01	1.028650000000000064e+00
8.606040000000000356e-01	4.642279999999999740e-01	1.027800000000000047e+00
8.604410000000000114e-01	4.765030000000000099e-01	1.028110000000000079e+00
8.601320000000000077e-01	4.864569999999999728e-01	1.027439999999999909e+00
9.266569999999999530e-01	4.718169999999999864e-01	5.912610000000000365e-01
9.226029999999999509e-01	4.673649999999999749e-01	5.858200000000000074e-01
9.220019999999999882e-01	4.763200000000000212e-01	5.866329999999999600e-01
9.273749999999999494e-01	4.631339999999999901e-01	5.902770000000000516e-01
9.262390000000000345e-01	4.800349999999999895e-01	5.927109999999999879e-01
9.217020000000000213e-01	4.852310000000000234e-01	5.879959999999999631e-01
9.216429999999999900e-01	4.937570000000000014e-01	5.899090000000000167e-01
9.187629999999999963e-01	5.047530000000000072e-01	5.883159999999999501e-01
9.181859999999999467e-01	4.997260000000000035e-01	5.859940000000000149e-01
9.161820000000000519e-01	5.065490000000000270e-01	5.839619999999999811e-01
9.191949999999999843e-01	5.116000000000000547e-01	5.903739999999999544e-01
9.153860000000000330e-01	5.150460000000000038e-01	5.842880000000000296e-01
9.181899999999999507e-01	5.211750000000000549e-01	5.907270000000000021e-01
9.153179999999999650e-01	5.228859999999999619e-01	5.859799999999999454e-01
9.174369999999999470e-01	5.295999999999999597e-01	5.909039999999999848e-01
9.141850000000000254e-01	5.295959999999999557e-01	5.849109999999999587e-01
9.163109999999999866e-01	5.367239999999999789e-01	5.898550000000000182e-01
9.134379999999999722e-01	5.380779999999999452e-01	5.846010000000000373e-01
9.166039999999999743e-01	5.472190000000000110e-01	5.908809999999999896e-01
9.124020000000000463e-01	5.455750000000000322e-01	5.834920000000000107e-01
9.119800000000000129e-01	5.558440000000000047e-01	5.837219999999999631e-01
9.166849999999999721e-01	5.597950000000000426e-01	5.916709999999999470e-01
9.141439999999999566e-01	5.668029999999999458e-01	5.881429999999999714e-01
9.169009999999999661e-01	5.668779999999999930e-01	5.924009999999999554e-01
9.167459999999999498e-01	5.741049999999999764e-01	5.926280000000000436e-01
9.125670000000000170e-01	5.766839999999999744e-01	5.865920000000000023e-01
9.344959999999999933e-01	3.249549999999999939e-01	5.913270000000000470e-01
9.321829999999999838e-01	3.199179999999999802e-01	5.872880000000000322e-01
9.307910000000000350e-01	3.260310000000000152e-01	5.872239999999999682e-01
9.356830000000000425e-01	3.184989999999999766e-01	5.914009999999999545e-01
9.389960000000000528e-01	3.265020000000000144e-01	5.977559999999999540e-01
9.324339999999999851e-01	3.393240000000000145e-01	5.935570000000000013e-01
9.346860000000000168e-01	3.324509999999999965e-01	5.939020000000000410e-01
9.293860000000000454e-01	3.334130000000000149e-01	5.878109999999999724e-01
9.307680000000000398e-01	3.473849999999999993e-01	5.946550000000000447e-01
9.270110000000000294e-01	3.411699999999999733e-01	5.873650000000000260e-01
9.268779999999999797e-01	3.473580000000000001e-01	5.891710000000000003e-01
9.264400000000000412e-01	3.540309999999999846e-01	5.905869999999999731e-01
9.307149999999999590e-01	3.562270000000000159e-01	5.984610000000000207e-01
9.258819999999999828e-01	3.934799999999999964e-01	5.906970000000000276e-01
9.278889999999999638e-01	3.950910000000000255e-01	5.954939999999999678e-01
9.268159999999999732e-01	4.006140000000000256e-01	5.906420000000000003e-01
9.293780000000000374e-01	4.011210000000000053e-01	5.963570000000000260e-01
9.278830000000000133e-01	4.064579999999999860e-01	5.909290000000000376e-01
9.312679999999999847e-01	4.112270000000000092e-01	5.961410000000000320e-01
9.312030000000000030e-01	4.204080000000000039e-01	5.932950000000000168e-01
9.286480000000000290e-01	4.177629999999999955e-01	5.895500000000000185e-01
9.268939999999999957e-01	4.120070000000000121e-01	5.872739999999999627e-01
9.287389999999999812e-01	4.244109999999999827e-01	5.887120000000000131e-01
9.327560000000000295e-01	4.267099999999999782e-01	5.942870000000000097e-01
9.354829999999999535e-01	4.333509999999999862e-01	5.968820000000000237e-01
9.293179999999999774e-01	4.325100000000000056e-01	5.891269999999999563e-01
9.324649999999999883e-01	4.382240000000000024e-01	5.927019999999999511e-01
9.360169999999999879e-01	4.387059999999999849e-01	5.969210000000000349e-01
9.329469999999999708e-01	4.516689999999999872e-01	5.942619999999999569e-01
9.344689999999999941e-01	4.441309999999999980e-01	5.954770000000000341e-01
9.292099999999999804e-01	4.479290000000000216e-01	5.898700000000000054e-01
9.257900000000000018e-01	4.409859999999999891e-01	5.856149999999999967e-01
9.282270000000000243e-01	4.546939999999999871e-01	5.897320000000000340e-01
9.320760000000000156e-01	4.592600000000000016e-01	5.946179999999999799e-01
9.312629999999999519e-01	4.676629999999999954e-01	5.955819999999999448e-01
9.306680000000000508e-01	4.755679999999999907e-01	5.969980000000000286e-01
9.303129999999999455e-01	4.820579999999999865e-01	5.984180000000000055e-01
9.261859999999999538e-01	5.858560000000000434e-01	6.071800000000000530e-01
9.275079999999999991e-01	5.744869999999999699e-01	6.075450000000000017e-01
9.250639999999999974e-01	5.954030000000000156e-01	6.068379999999999885e-01
9.469180000000000375e-01	3.730280000000000262e-01	6.238899999999999446e-01
9.455780000000000296e-01	3.824089999999999989e-01	6.227629999999999555e-01
9.507799999999999585e-01	3.800239999999999729e-01	6.294840000000000435e-01
9.505219999999999780e-01	3.708230000000000137e-01	6.286279999999999646e-01
9.534810000000000230e-01	3.887709999999999777e-01	6.330069999999999864e-01
9.491610000000000325e-01	3.898929999999999896e-01	6.265030000000000321e-01
9.524510000000000476e-01	3.961589999999999834e-01	6.300860000000000349e-01
9.554000000000000270e-01	3.949289999999999745e-01	6.353799999999999448e-01
9.485999999999999988e-01	3.988619999999999943e-01	6.244169999999999998e-01
9.524219999999999908e-01	4.041460000000000052e-01	6.289789999999999548e-01
9.550250000000000128e-01	4.008439999999999781e-01	6.337699999999999445e-01
9.489980000000000082e-01	4.079760000000000053e-01	6.233170000000000099e-01
9.523099999999999898e-01	4.115650000000000142e-01	6.279010000000000424e-01
9.560910000000000242e-01	4.102379999999999916e-01	6.352609999999999646e-01
9.495670000000000499e-01	4.179300000000000237e-01	6.227439999999999642e-01
9.535770000000000080e-01	4.173319999999999808e-01	6.298489999999999922e-01
9.562730000000000397e-01	4.212650000000000006e-01	6.352820000000000134e-01
9.532699999999999507e-01	4.245090000000000252e-01	6.292499999999999760e-01
9.500619999999999621e-01	4.280419999999999781e-01	6.227869999999999795e-01
9.556959999999999900e-01	4.272540000000000227e-01	6.342299999999999605e-01
9.531020000000000048e-01	4.429799999999999849e-01	6.300620000000000109e-01
9.544740000000000446e-01	4.335919999999999774e-01	6.320519999999999472e-01
9.497929999999999984e-01	4.378239999999999910e-01	6.219390000000000196e-01
9.500020000000000131e-01	4.489110000000000045e-01	6.238519999999999621e-01
9.529859999999999998e-01	4.502189999999999803e-01	6.311729999999999841e-01
9.484110000000000040e-01	4.582220000000000182e-01	6.223969999999999780e-01
9.515339999999999909e-01	4.569810000000000261e-01	6.295880000000000365e-01
9.470990000000000242e-01	4.644650000000000167e-01	6.213210000000000122e-01
9.444519999999999582e-01	4.864009999999999723e-01	6.262870000000000381e-01
9.445959999999999912e-01	4.787609999999999921e-01	6.224199999999999733e-01
9.420859999999999790e-01	4.864890000000000048e-01	6.202370000000000383e-01
9.469220000000000415e-01	4.702689999999999926e-01	6.234450000000000269e-01
9.419039999999999635e-01	4.931769999999999765e-01	6.235410000000000119e-01
9.402610000000000134e-01	5.030949999999999589e-01	6.240860000000000296e-01
9.388189999999999591e-01	5.122389999999999999e-01	6.226070000000000215e-01
9.378170000000000117e-01	5.202689999999999815e-01	6.207939999999999570e-01
9.391180000000000083e-01	5.288030000000000230e-01	6.233220000000000427e-01
9.411049999999999693e-01	5.386159999999999837e-01	6.256660000000000554e-01
9.442720000000000002e-01	5.434339999999999726e-01	6.301379999999999759e-01
9.418609999999999483e-01	5.481589999999999518e-01	6.256859999999999644e-01
9.440330000000000110e-01	5.483529999999999793e-01	6.290679999999999605e-01
9.438199999999999923e-01	5.534440000000000470e-01	6.288799999999999946e-01
9.399960000000000537e-01	5.571190000000000309e-01	6.230830000000000535e-01
9.437969999999999970e-01	5.613939999999999486e-01	6.298219999999999930e-01
9.404010000000000424e-01	5.687269999999999825e-01	6.256730000000000347e-01
1.012680000000000025e+00	4.037199999999999817e-02	8.336679999999999646e-01
1.015260000000000051e+00	4.403499999999999776e-02	8.225940000000000474e-01
1.015069999999999917e+00	3.999599999999999683e-02	8.140929999999999556e-01
1.016040000000000054e+00	4.479400000000000048e-02	8.128030000000000532e-01
1.008029999999999982e+00	5.319399999999999823e-02	8.584270000000000511e-01
1.009009999999999962e+00	4.583999999999999880e-02	8.533129999999999882e-01
1.011449999999999960e+00	5.473999999999999699e-02	8.502039999999999598e-01
1.009349999999999969e+00	6.204199999999999993e-02	8.576740000000000475e-01
1.011929999999999996e+00	6.383199999999999985e-02	8.520870000000000388e-01
1.010080000000000089e+00	7.184599999999999320e-02	8.567069999999999963e-01
1.013009999999999966e+00	6.956099999999999783e-02	8.496669999999999501e-01
1.009209999999999940e+00	8.240300000000000402e-02	8.570029999999999593e-01
1.012270000000000003e+00	7.745799999999999907e-02	8.503610000000000335e-01
1.008459999999999912e+00	9.108299999999999730e-02	8.560830000000000384e-01
1.011209999999999942e+00	8.647000000000000519e-02	8.502129999999999965e-01
1.008259999999999934e+00	9.610599999999999699e-02	8.546970000000000400e-01
1.010059999999999958e+00	9.439100000000000268e-02	8.500400000000000178e-01
1.006760000000000099e+00	1.058400000000000035e-01	8.543290000000000051e-01
1.008480000000000043e+00	1.004550000000000026e-01	8.517869999999999608e-01
1.006620000000000070e+00	1.153290000000000010e-01	8.509590000000000209e-01
1.004170000000000007e+00	1.263610000000000011e-01	8.537299999999999889e-01
1.002939999999999943e+00	1.368979999999999919e-01	8.532159999999999744e-01
9.995920000000000361e-01	1.760680000000000023e-01	8.526359999999999495e-01
9.977660000000000418e-01	1.838100000000000012e-01	8.559499999999999886e-01
9.976439999999999753e-01	1.907379999999999909e-01	8.546820000000000528e-01
9.974399999999999933e-01	1.987879999999999925e-01	8.522739999999999760e-01
9.961699999999999999e-01	2.079779999999999962e-01	8.526439999999999575e-01
9.951529999999999543e-01	2.165870000000000017e-01	8.521379999999999511e-01
9.939729999999999954e-01	2.256900000000000017e-01	8.516850000000000254e-01
9.927570000000000006e-01	2.354529999999999956e-01	8.505329999999999835e-01
9.700889999999999791e-01	5.674559999999999604e-01	8.650470000000000104e-01
9.686719999999999775e-01	5.639659999999999673e-01	8.696700000000000541e-01
9.676820000000000421e-01	5.558640000000000247e-01	8.712689999999999602e-01
9.704970000000000541e-01	5.749030000000000529e-01	8.641870000000000385e-01
9.684669999999999668e-01	5.713190000000000213e-01	8.713459999999999539e-01
9.703380000000000338e-01	5.849769999999999692e-01	8.635749999999999815e-01
9.680919999999999526e-01	5.809819999999999984e-01	8.715519999999999934e-01
9.704789999999999806e-01	5.935890000000000333e-01	8.609130000000000393e-01
9.672520000000000007e-01	5.916320000000000467e-01	8.713710000000000067e-01
9.619919999999999582e-01	3.725319999999999743e-01	8.989289999999999781e-01
9.643159999999999510e-01	3.781959999999999766e-01	8.952280000000000237e-01
9.609670000000000156e-01	3.792240000000000055e-01	9.010120000000000351e-01
9.649769999999999737e-01	3.707900000000000085e-01	8.937349999999999461e-01
9.623990000000000045e-01	3.859600000000000253e-01	8.990770000000000151e-01
9.642060000000000075e-01	3.582020000000000204e-01	8.952080000000000037e-01
9.663460000000000383e-01	3.544450000000000101e-01	8.916699999999999626e-01
9.668330000000000535e-01	3.632099999999999773e-01	8.901019999999999488e-01
9.632899999999999796e-01	3.650200000000000111e-01	8.965600000000000236e-01
9.645489999999999897e-01	3.905589999999999895e-01	8.954029999999999490e-01
9.629560000000000342e-01	3.973349999999999937e-01	8.979650000000000132e-01
9.637130000000000418e-01	4.057910000000000128e-01	8.951430000000000220e-01
9.609699999999999909e-01	4.044179999999999997e-01	9.010880000000000001e-01
9.635359999999999481e-01	4.142279999999999851e-01	8.936399999999999899e-01
9.608860000000000179e-01	4.110130000000000172e-01	8.999810000000000310e-01
9.627510000000000234e-01	4.231840000000000046e-01	8.936520000000000019e-01
9.608250000000000401e-01	4.182100000000000262e-01	8.986039999999999583e-01
9.618689999999999740e-01	4.310669999999999780e-01	8.947960000000000358e-01
9.593409999999999993e-01	4.266360000000000152e-01	9.005600000000000271e-01
9.625380000000000047e-01	4.387110000000000176e-01	8.936269999999999492e-01
9.594160000000000466e-01	4.370330000000000048e-01	8.998469999999999525e-01
9.632169999999999899e-01	4.475109999999999921e-01	8.934320000000000039e-01
9.598839999999999595e-01	4.466379999999999795e-01	8.995750000000000135e-01
9.640539999999999665e-01	4.554920000000000080e-01	8.935300000000000464e-01
9.608349999999999946e-01	4.556790000000000007e-01	8.992809999999999970e-01
9.647639999999999549e-01	4.618959999999999733e-01	8.936509999999999732e-01
9.622849999999999460e-01	4.615409999999999791e-01	8.980690000000000062e-01
9.632119999999999571e-01	4.676669999999999994e-01	8.974229999999999707e-01
9.624800000000000022e-01	4.950550000000000228e-01	8.973700000000000010e-01
9.632819999999999716e-01	5.028780000000000472e-01	8.933649999999999647e-01
9.596740000000000270e-01	5.023910000000000320e-01	9.008680000000000021e-01
9.645179999999999865e-01	4.748530000000000251e-01	8.959310000000000329e-01
9.652760000000000229e-01	4.812130000000000019e-01	8.946709999999999940e-01
9.643789999999999862e-01	4.879620000000000068e-01	8.953919999999999657e-01
9.631610000000000449e-01	5.107040000000000468e-01	8.911000000000000032e-01
9.607750000000000457e-01	5.114410000000000345e-01	8.971209999999999463e-01
9.623099999999999987e-01	5.189840000000000009e-01	8.920599999999999641e-01
9.590950000000000308e-01	5.221449999999999703e-01	8.999890000000000390e-01
9.619870000000000365e-01	5.296380000000000532e-01	8.935579999999999634e-01
9.592779999999999641e-01	5.317819999999999769e-01	9.003630000000000244e-01
9.626829999999999554e-01	5.396079999999999766e-01	8.931909999999999572e-01
9.605590000000000517e-01	5.374940000000000273e-01	8.983489999999999531e-01
9.529900000000000038e-01	1.934309999999999918e-01	9.445059999999999567e-01
9.537139999999999507e-01	2.021300000000000041e-01	9.399849999999999595e-01
9.494230000000000169e-01	2.001910000000000078e-01	9.462040000000000450e-01
9.582559999999999967e-01	1.985599999999999865e-01	9.354649999999999910e-01
9.590509999999999868e-01	1.895739999999999925e-01	9.376710000000000322e-01
9.556689999999999907e-01	1.866510000000000113e-01	9.435900000000000398e-01
9.538640000000000452e-01	2.068709999999999993e-01	9.375539999999999985e-01
9.495599999999999596e-01	2.080120000000000025e-01	9.424080000000000235e-01
9.574049999999999505e-01	2.056790000000000007e-01	9.333869999999999667e-01
9.452629999999999644e-01	2.148420000000000052e-01	9.445759999999999712e-01
9.455270000000000064e-01	2.216110000000000024e-01	9.412139999999999951e-01
9.427969999999999962e-01	2.189240000000000075e-01	9.458830000000000293e-01
9.446700000000000097e-01	2.290810000000000068e-01	9.392270000000000341e-01
9.406360000000000277e-01	2.245010000000000061e-01	9.464139999999999775e-01
9.498159999999999936e-01	2.170360000000000067e-01	9.377649999999999597e-01
9.547949999999999493e-01	2.122080000000000077e-01	9.336689999999999712e-01
9.501169999999999893e-01	2.265399999999999914e-01	9.331669999999999687e-01
9.444919999999999982e-01	2.341469999999999940e-01	9.374900000000000455e-01
9.409880000000000466e-01	2.356360000000000121e-01	9.419189999999999507e-01
9.383610000000000007e-01	2.446490000000000054e-01	9.428440000000000154e-01
9.428539999999999699e-01	2.456460000000000032e-01	9.364519999999999511e-01
9.460110000000000463e-01	2.395940000000000014e-01	9.338539999999999619e-01
9.471009999999999707e-01	2.330389999999999961e-01	9.344700000000000228e-01
9.354170000000000540e-01	2.507800000000000029e-01	9.453219999999999956e-01
9.374759999999999760e-01	2.577869999999999884e-01	9.410180000000000211e-01
9.344679999999999653e-01	2.581309999999999993e-01	9.450479999999999992e-01
9.405299999999999772e-01	2.537209999999999743e-01	9.378349999999999742e-01
9.365219999999999656e-01	2.644770000000000176e-01	9.413820000000000521e-01
9.323460000000000081e-01	2.650609999999999911e-01	9.470229999999999482e-01
9.403500000000000192e-01	2.632269999999999888e-01	9.366820000000000146e-01
9.350960000000000383e-01	2.721230000000000038e-01	9.426330000000000542e-01
9.323740000000000361e-01	2.723940000000000250e-01	9.462599999999999900e-01
9.389999999999999458e-01	2.718329999999999913e-01	9.377290000000000347e-01
9.369330000000000158e-01	2.786660000000000248e-01	9.400779999999999692e-01
9.331000000000000405e-01	2.798729999999999829e-01	9.452399999999999691e-01
9.406379999999999741e-01	2.806690000000000018e-01	9.357299999999999507e-01
9.369119999999999671e-01	2.870639999999999858e-01	9.403449999999999864e-01
9.329210000000000003e-01	2.910280000000000089e-01	9.459659999999999735e-01
9.416560000000000485e-01	2.920179999999999998e-01	9.348379999999999468e-01
9.368990000000000373e-01	2.984930000000000083e-01	9.407940000000000191e-01
9.329260000000000330e-01	3.017150000000000110e-01	9.467309999999999892e-01
9.406989999999999519e-01	3.027650000000000063e-01	9.359739999999999727e-01
9.254539999999999988e-01	3.658620000000000205e-01	9.564340000000000064e-01
9.218619999999999592e-01	3.675149999999999806e-01	9.607790000000000497e-01
9.153000000000000025e-01	3.948439999999999728e-01	9.631110000000000504e-01
9.186720000000000441e-01	3.998209999999999820e-01	9.592600000000000016e-01
9.139289999999999914e-01	4.016930000000000223e-01	9.636270000000000113e-01
9.172590000000000465e-01	4.109619999999999940e-01	9.598609999999999642e-01
9.125220000000000553e-01	4.091750000000000109e-01	9.644120000000000470e-01
9.174679999999999502e-01	4.189249999999999918e-01	9.594489999999999963e-01
9.132059999999999622e-01	4.192859999999999920e-01	9.636730000000000018e-01
9.178140000000000187e-01	4.259069999999999800e-01	9.592399999999999816e-01
9.136809999999999654e-01	4.306070000000000175e-01	9.637569999999999748e-01
9.179300000000000237e-01	4.370490000000000208e-01	9.596120000000000205e-01
9.134210000000000385e-01	4.387389999999999901e-01	9.646019999999999595e-01
9.192609999999999948e-01	4.482470000000000065e-01	9.581769999999999454e-01
9.151770000000000183e-01	4.445700000000000207e-01	9.630090000000000039e-01
9.182989999999999764e-01	4.588900000000000201e-01	9.585010000000000474e-01
9.143649999999999833e-01	4.528039999999999843e-01	9.636449999999999738e-01
9.173529999999999740e-01	4.684349999999999903e-01	9.581380000000000452e-01
9.135400000000000187e-01	4.627589999999999759e-01	9.636120000000000241e-01
9.165959999999999663e-01	4.766850000000000254e-01	9.573239999999999528e-01
9.129899999999999682e-01	4.724130000000000273e-01	9.627269999999999994e-01
9.164959999999999773e-01	4.818669999999999898e-01	9.561960000000000459e-01
9.131150000000000100e-01	4.820150000000000268e-01	9.607170000000000432e-01
9.121089999999999476e-01	4.915959999999999774e-01	9.603690000000000282e-01
9.114999999999999769e-01	5.011600000000000499e-01	9.597560000000000535e-01
9.080799999999999983e-01	5.154400000000000093e-01	9.627520000000000522e-01
9.098209999999999908e-01	5.240939999999999488e-01	9.589280000000000026e-01
9.051850000000000174e-01	5.238730000000000331e-01	9.645169999999999577e-01
9.096140000000000336e-01	5.078420000000000156e-01	9.617909999999999515e-01
9.088929999999999509e-01	5.309080000000000465e-01	9.587919999999999776e-01
9.038559999999999928e-01	5.315830000000000277e-01	9.639499999999999735e-01
9.078180000000000138e-01	5.393700000000000161e-01	9.582939999999999792e-01
9.027460000000000484e-01	5.396050000000000013e-01	9.629210000000000269e-01
9.059829999999999828e-01	5.491740000000000510e-01	9.584099999999999842e-01
9.007659999999999556e-01	5.468779999999999752e-01	9.631760000000000321e-01
9.062219999999999720e-01	5.567900000000000071e-01	9.574650000000000105e-01
9.014640000000000430e-01	5.571519999999999806e-01	9.618010000000000170e-01
9.067619999999999569e-01	5.638009999999999966e-01	9.571220000000000283e-01
9.026410000000000267e-01	5.692509999999999515e-01	9.615019999999999678e-01
9.078929999999999501e-01	5.746029999999999749e-01	9.568769999999999776e-01
9.040479999999999627e-01	5.793989999999999974e-01	9.614690000000000181e-01
9.240939999999999710e-01	3.984999999999999654e-02	9.824519999999999920e-01
9.290559999999999929e-01	4.636099999999999943e-02	9.762669999999999959e-01
9.193590000000000373e-01	4.826099999999999834e-02	9.866570000000000062e-01
9.323569999999999913e-01	3.904599999999999738e-02	9.728869999999999463e-01
9.268859999999999877e-01	5.862599999999999756e-02	9.776000000000000245e-01
9.220450000000000035e-01	6.134799999999999975e-02	9.816939999999999555e-01
8.535589999999999566e-01	2.825400000000000134e-01	4.701529999999999876e-01
8.523190000000000488e-01	2.887919999999999932e-01	4.697589999999999821e-01
8.552159999999999762e-01	2.889929999999999999e-01	4.748330000000000051e-01
8.527019999999999600e-01	2.955309999999999881e-01	4.722299999999999831e-01
8.568519999999999470e-01	2.959030000000000271e-01	4.788430000000000186e-01
8.501570000000000515e-01	3.275879999999999903e-01	4.734019999999999895e-01
8.501809999999999645e-01	3.353110000000000257e-01	4.729450000000000043e-01
8.519600000000000506e-01	3.428359999999999741e-01	4.751340000000000008e-01
8.530269999999999797e-01	3.506949999999999790e-01	4.754419999999999757e-01
8.513490000000000224e-01	3.583770000000000011e-01	4.719459999999999766e-01
8.520050000000000123e-01	3.645590000000000219e-01	4.723700000000000121e-01
8.530799999999999494e-01	3.709870000000000112e-01	4.736839999999999939e-01
8.524450000000000083e-01	3.784520000000000106e-01	4.733510000000000217e-01
8.499440000000000328e-01	3.956180000000000252e-01	4.744399999999999729e-01
8.530990000000000517e-01	3.875600000000000156e-01	4.760469999999999979e-01
8.541360000000000063e-01	3.584800000000000209e-01	4.759430000000000049e-01
8.557310000000000194e-01	3.646610000000000129e-01	4.776029999999999998e-01
8.566660000000000386e-01	3.740550000000000264e-01	4.787569999999999881e-01
8.552640000000000242e-01	3.810709999999999931e-01	4.774349999999999983e-01
8.444829999999999837e-01	4.023630000000000262e-01	4.688379999999999770e-01
8.453829999999999956e-01	3.962189999999999879e-01	4.675250000000000239e-01
8.422789999999999999e-01	4.024190000000000267e-01	4.641839999999999855e-01
8.472009999999999819e-01	4.024579999999999824e-01	4.732770000000000032e-01
8.436289999999999623e-01	4.089119999999999977e-01	4.699470000000000036e-01
8.402089999999999836e-01	4.104709999999999748e-01	4.633390000000000009e-01
8.481149999999999523e-01	4.101069999999999993e-01	4.777850000000000152e-01
8.420330000000000314e-01	4.241320000000000090e-01	4.739929999999999977e-01
8.445409999999999862e-01	4.170710000000000250e-01	4.752179999999999738e-01
8.401009999999999867e-01	4.192839999999999900e-01	4.673789999999999889e-01
8.390480000000000160e-01	4.282889999999999753e-01	4.692299999999999804e-01
8.410220000000000473e-01	4.319089999999999874e-01	4.745579999999999798e-01
8.380619999999999736e-01	4.387130000000000196e-01	4.694809999999999817e-01
8.410720000000000418e-01	4.392429999999999946e-01	4.760510000000000019e-01
8.370670000000000055e-01	4.505089999999999928e-01	4.692370000000000152e-01
8.400710000000000122e-01	4.470180000000000264e-01	4.749700000000000033e-01
8.362129999999999841e-01	4.670469999999999899e-01	4.691640000000000255e-01
8.360429999999999806e-01	4.592140000000000111e-01	4.676480000000000081e-01
8.369240000000000013e-01	4.555810000000000137e-01	4.698359999999999759e-01
8.390649999999999498e-01	4.564889999999999781e-01	4.738330000000000042e-01
8.389710000000000223e-01	4.665880000000000027e-01	4.744229999999999836e-01
8.365860000000000518e-01	4.741679999999999784e-01	4.709030000000000160e-01
8.351650000000000462e-01	4.821630000000000082e-01	4.694229999999999792e-01
8.402490000000000236e-01	4.751619999999999733e-01	4.778499999999999970e-01
8.389600000000000390e-01	4.845209999999999795e-01	4.773740000000000205e-01
8.346820000000000350e-01	4.911719999999999975e-01	4.707609999999999850e-01
8.333399999999999697e-01	5.061430000000000096e-01	4.733890000000000042e-01
8.352760000000000185e-01	4.997170000000000223e-01	4.750800000000000023e-01
8.376940000000000497e-01	4.942759999999999931e-01	4.779229999999999867e-01
8.323009999999999575e-01	5.140700000000000269e-01	4.740199999999999969e-01
9.175619999999999887e-01	5.869490000000000540e-01	5.948620000000000019e-01
9.172890000000000210e-01	5.970649999999999569e-01	5.954249999999999821e-01
9.709750000000000325e-01	5.968729999999999869e-01	7.041809999999999459e-01
9.670309999999999739e-01	5.995920000000000138e-01	6.912199999999999456e-01
9.746580000000000243e-01	5.965949999999999864e-01	7.232229999999999492e-01
9.725789999999999713e-01	5.937189999999999968e-01	7.081009999999999804e-01
1.005959999999999965e+00	3.633990000000000276e-01	7.692189999999999861e-01
1.003830000000000000e+00	3.735390000000000099e-01	7.694879999999999498e-01
1.002960000000000074e+00	3.816709999999999825e-01	7.715889999999999693e-01
1.001519999999999966e+00	3.887729999999999797e-01	7.724860000000000060e-01
9.967200000000000504e-01	4.000520000000000187e-01	7.663470000000000004e-01
9.935420000000000362e-01	4.027140000000000164e-01	7.584260000000000446e-01
9.992400000000000171e-01	3.947709999999999830e-01	7.699519999999999698e-01
9.941710000000000269e-01	4.079699999999999993e-01	7.632949999999999458e-01
9.965659999999999519e-01	4.105860000000000065e-01	7.722149999999999848e-01
9.930999999999999828e-01	4.157529999999999837e-01	7.631879999999999775e-01
9.944220000000000281e-01	4.229260000000000241e-01	7.694069999999999521e-01
9.920480000000000409e-01	4.231449999999999934e-01	7.621670000000000389e-01
9.960919999999999774e-01	4.638300000000000201e-01	7.680069999999999952e-01
9.945779999999999621e-01	4.621199999999999752e-01	7.598120000000000429e-01
9.944549999999999779e-01	4.729470000000000063e-01	7.588200000000000500e-01
9.956289999999999862e-01	4.740829999999999766e-01	7.695380000000000553e-01
9.940790000000000459e-01	4.832819999999999894e-01	7.604739999999999833e-01
9.945420000000000371e-01	4.841079999999999828e-01	7.706720000000000237e-01
9.929989999999999650e-01	4.922540000000000249e-01	7.617939999999999712e-01
9.929480000000000528e-01	4.936670000000000225e-01	7.721040000000000125e-01
9.916390000000000482e-01	5.003640000000000310e-01	7.633379999999999610e-01
9.916599999999999859e-01	5.009829999999999561e-01	7.716300000000000381e-01
9.907859999999999445e-01	5.061010000000000231e-01	7.681149999999999922e-01
9.897759999999999891e-01	5.115830000000000100e-01	7.630179999999999740e-01
9.901529999999999498e-01	5.128230000000000288e-01	7.730299999999999949e-01
9.906810000000000338e-01	5.056199999999999584e-01	7.620109999999999939e-01
9.882600000000000273e-01	5.205140000000000322e-01	7.609249999999999625e-01
9.892640000000000322e-01	5.202299999999999702e-01	7.699960000000000138e-01
9.867010000000000502e-01	5.295549999999999979e-01	7.593619999999999814e-01
9.882180000000000408e-01	5.288979999999999793e-01	7.683919999999999639e-01
9.996279999999999610e-01	4.057209999999999983e-01	7.823179999999999579e-01
9.981790000000000385e-01	4.132060000000000177e-01	7.815549999999999997e-01
9.969379999999999908e-01	4.207509999999999861e-01	7.786830000000000140e-01
9.967819999999999458e-01	4.643760000000000110e-01	7.782179999999999653e-01
1.001659999999999995e+00	3.981250000000000067e-01	7.829920000000000213e-01
1.003190000000000026e+00	3.908479999999999732e-01	7.808950000000000058e-01
9.956899999999999640e-01	4.756139999999999812e-01	7.810890000000000333e-01
9.940909999999999469e-01	4.844740000000000157e-01	7.868420000000000414e-01
9.947759999999999936e-01	4.804470000000000129e-01	7.866030000000000522e-01
9.942050000000000054e-01	4.856360000000000121e-01	7.807969999999999633e-01
9.954859999999999820e-01	4.761360000000000037e-01	7.871930000000000316e-01
9.932189999999999630e-01	4.889609999999999790e-01	7.876689999999999525e-01
9.928430000000000311e-01	4.932790000000000230e-01	7.817669999999999897e-01
9.920309999999999961e-01	4.986579999999999901e-01	7.778540000000000454e-01
9.910139999999999505e-01	5.060329999999999551e-01	7.789620000000000433e-01
9.904230000000000533e-01	5.138719999999999954e-01	7.806809999999999583e-01
9.899010000000000309e-01	5.204029999999999490e-01	7.784259999999999513e-01
9.892020000000000257e-01	5.272470000000000212e-01	7.757110000000000394e-01
9.969329999999999581e-01	2.368500000000000050e-01	8.236560000000000548e-01
9.999209999999999487e-01	2.276690000000000103e-01	8.191680000000000073e-01
9.977709999999999635e-01	2.266900000000000026e-01	8.278090000000000170e-01
9.972809999999999730e-01	2.442680000000000129e-01	8.173019999999999730e-01
9.952999999999999625e-01	2.449649999999999883e-01	8.249260000000000481e-01
1.014690000000000092e+00	1.700979999999999992e-01	8.146780000000000133e-01
1.013099999999999890e+00	1.794939999999999869e-01	8.123249999999999638e-01
1.010899999999999910e+00	1.772529999999999939e-01	8.213439999999999630e-01
1.012029999999999985e+00	1.680830000000000102e-01	8.236069999999999780e-01
1.008369999999999989e+00	1.838690000000000047e-01	8.240669999999999940e-01
1.008399999999999963e+00	1.883849999999999969e-01	8.203719999999999901e-01
1.005910000000000082e+00	1.916559999999999930e-01	8.257970000000000033e-01
1.010240000000000027e+00	1.852999999999999925e-01	8.167250000000000343e-01
1.003670000000000062e+00	2.003149999999999931e-01	8.266430000000000167e-01
1.005980000000000096e+00	2.004640000000000033e-01	8.183190000000000186e-01
1.008580000000000032e+00	1.923199999999999910e-01	8.160089999999999844e-01
1.003060000000000063e+00	2.074120000000000130e-01	8.231319999999999748e-01
1.000499999999999945e+00	2.145730000000000137e-01	8.268569999999999531e-01
1.000830000000000108e+00	2.203600000000000003e-01	8.213179999999999925e-01
9.962410000000000432e-01	2.543730000000000158e-01	8.160220000000000251e-01
9.943790000000000129e-01	2.526360000000000272e-01	8.255230000000000068e-01
9.954790000000000028e-01	2.643860000000000099e-01	8.140079999999999538e-01
9.942499999999999671e-01	2.622459999999999791e-01	8.225479999999999459e-01
9.953760000000000385e-01	3.081940000000000235e-01	8.249210000000000154e-01
9.972299999999999498e-01	3.064459999999999962e-01	8.171479999999999855e-01
9.962839999999999474e-01	3.186629999999999741e-01	8.248670000000000169e-01
9.989919999999999911e-01	3.150049999999999795e-01	8.169790000000000108e-01
9.985789999999999944e-01	3.217590000000000172e-01	8.200140000000000207e-01
1.000799999999999912e+00	3.222019999999999884e-01	8.152080000000000437e-01
9.992539999999999756e-01	3.277530000000000165e-01	8.195980000000000487e-01
9.969970000000000221e-01	3.254369999999999763e-01	8.241500000000000492e-01
9.966650000000000231e-01	3.323590000000000155e-01	8.254439999999999555e-01
9.965169999999999861e-01	3.418019999999999947e-01	8.259119999999999795e-01
9.960869999999999447e-01	3.537440000000000029e-01	8.261870000000000047e-01
9.954629999999999868e-01	3.649669999999999859e-01	8.259360000000000035e-01
9.954220000000000290e-01	3.732800000000000007e-01	8.244390000000000329e-01
9.949040000000000106e-01	3.813509999999999955e-01	8.237119999999999997e-01
9.972609999999999530e-01	3.853960000000000163e-01	8.185350000000000126e-01
1.002350000000000074e+00	3.288869999999999849e-01	8.135510000000000241e-01
9.828409999999999647e-01	4.478659999999999863e-01	8.397409999999999597e-01
9.801309999999999745e-01	4.456829999999999958e-01	8.465019999999999767e-01
9.855850000000000444e-01	4.427389999999999937e-01	8.337280000000000246e-01
9.832039999999999669e-01	4.567640000000000033e-01	8.380900000000000016e-01
9.809090000000000309e-01	4.559090000000000087e-01	8.443800000000000194e-01
9.826169999999999627e-01	4.648149999999999782e-01	8.389159999999999950e-01
9.804349999999999454e-01	4.652680000000000149e-01	8.455240000000000533e-01
9.854340000000000321e-01	4.520210000000000061e-01	8.328269999999999840e-01
9.851779999999999982e-01	4.616109999999999935e-01	8.321020000000000083e-01
9.818900000000000405e-01	4.751509999999999900e-01	8.397379999999999844e-01
9.798179999999999668e-01	4.723060000000000036e-01	8.470010000000000039e-01
9.818599999999999550e-01	4.842489999999999850e-01	8.378459999999999797e-01
9.799299999999999677e-01	4.818290000000000073e-01	8.446110000000000007e-01
9.848909999999999609e-01	4.724309999999999898e-01	8.308999999999999719e-01
9.836920000000000108e-01	4.830789999999999806e-01	8.321910000000000140e-01
9.810780000000000056e-01	4.892639999999999767e-01	8.387470000000000203e-01
9.790240000000000054e-01	4.915070000000000272e-01	8.441499999999999559e-01
9.784749999999999837e-01	5.007359999999999589e-01	8.423140000000000072e-01
9.816899999999999515e-01	4.972500000000000253e-01	8.342659999999999521e-01
9.825869999999999882e-01	4.897139999999999826e-01	8.338879999999999626e-01
9.771849999999999703e-01	5.100459999999999994e-01	8.433119999999999505e-01
9.772779999999999800e-01	5.200360000000000538e-01	8.421300000000000452e-01
9.770330000000000403e-01	5.298450000000000104e-01	8.425669999999999549e-01
9.777200000000000335e-01	5.393620000000000081e-01	8.416420000000000012e-01
9.779700000000000060e-01	5.495459999999999789e-01	8.421079999999999677e-01
9.809419999999999806e-01	5.506280000000000063e-01	8.357930000000000081e-01
9.807139999999999747e-01	5.557569999999999455e-01	8.365299999999999958e-01
9.785350000000000437e-01	5.585309999999999997e-01	8.417440000000000477e-01
9.804100000000000037e-01	5.625710000000000433e-01	8.372279999999999722e-01
9.779240000000000155e-01	5.656879999999999686e-01	8.433310000000000528e-01
9.771320000000000006e-01	5.749039999999999706e-01	8.446829999999999616e-01
9.802290000000000170e-01	5.698339999999999517e-01	8.362979999999999858e-01
9.790060000000000429e-01	5.778609999999999580e-01	8.374289999999999790e-01
9.787930000000000241e-01	5.849450000000000482e-01	8.329849999999999755e-01
9.766839999999999966e-01	5.841690000000000493e-01	8.429750000000000298e-01
9.759769999999999834e-01	5.924080000000000457e-01	8.407299999999999773e-01
9.684150000000000258e-01	5.972960000000000491e-01	8.658749999999999503e-01
9.727550000000000363e-01	5.962070000000000425e-01	8.513870000000000049e-01
9.722699999999999676e-01	5.935880000000000045e-01	8.551560000000000272e-01
9.740510000000000002e-01	5.904369999999999896e-01	8.499689999999999745e-01
9.730640000000000400e-01	3.827869999999999884e-01	8.762729999999999686e-01
9.753789999999999960e-01	3.864079999999999737e-01	8.691780000000000062e-01
9.732269999999999532e-01	3.935299999999999909e-01	8.751590000000000202e-01
9.755289999999999795e-01	3.943369999999999931e-01	8.680740000000000123e-01
9.729470000000000063e-01	4.021370000000000222e-01	8.746789999999999843e-01
9.745500000000000274e-01	3.997040000000000037e-01	8.704150000000000498e-01
9.721720000000000361e-01	4.088700000000000112e-01	8.750080000000000080e-01
9.743680000000000119e-01	4.067430000000000212e-01	8.691229999999999789e-01
9.714329999999999909e-01	4.153899999999999815e-01	8.750850000000000017e-01
9.736000000000000210e-01	4.147480000000000055e-01	8.689839999999999787e-01
9.718229999999999924e-01	4.226949999999999874e-01	8.719759999999999733e-01
9.711659999999999737e-01	4.303259999999999863e-01	8.727399999999999602e-01
9.720239999999999991e-01	4.620210000000000150e-01	8.757120000000000459e-01
9.739229999999999832e-01	4.648990000000000067e-01	8.695279999999999676e-01
9.720649999999999569e-01	4.737649999999999917e-01	8.755549999999999722e-01
9.743709999999999871e-01	4.724079999999999946e-01	8.674809999999999466e-01
9.713990000000000125e-01	4.840249999999999830e-01	8.750890000000000057e-01
9.734469999999999512e-01	4.804100000000000037e-01	8.687150000000000150e-01
9.718010000000000259e-01	4.887859999999999983e-01	8.703030000000000488e-01
9.698679999999999524e-01	4.959439999999999960e-01	8.717030000000000056e-01
9.865420000000000300e-01	5.259500000000000286e-02	8.970010000000000483e-01
9.892720000000000402e-01	5.547300000000000147e-02	8.925920000000000520e-01
9.866059999999999830e-01	4.351700000000000013e-02	8.960470000000000379e-01
9.906230000000000313e-01	6.159200000000000091e-02	8.905229999999999535e-01
9.869599999999999485e-01	6.236699999999999883e-02	8.967990000000000128e-01
9.890799999999999592e-01	6.936699999999999811e-02	8.931109999999999882e-01
9.865009999999999613e-01	6.951499999999999346e-02	8.976450000000000262e-01
9.867820000000000480e-01	7.656499999999999417e-02	8.967870000000000008e-01
9.862220000000000431e-01	8.762300000000000644e-02	8.969639999999999835e-01
9.849670000000000369e-01	9.679100000000000203e-02	8.985720000000000374e-01
9.850299999999999612e-01	1.078029999999999961e-01	8.972130000000000383e-01
9.814450000000000118e-01	1.382639999999999980e-01	8.980540000000000189e-01
9.822870000000000212e-01	1.457420000000000104e-01	8.933929999999999927e-01
9.792220000000000368e-01	1.443750000000000033e-01	9.007420000000000426e-01
9.819970000000000088e-01	1.543760000000000132e-01	8.914440000000000142e-01
9.796460000000000168e-01	1.530289999999999984e-01	8.972210000000000463e-01
9.806810000000000249e-01	1.597500000000000031e-01	8.933780000000000054e-01
9.781889999999999752e-01	1.614569999999999894e-01	8.990230000000000166e-01
9.806270000000000264e-01	1.674289999999999945e-01	8.929369999999999807e-01
9.775059999999999860e-01	1.723449999999999982e-01	9.000160000000000382e-01
9.809259999999999646e-01	1.772920000000000051e-01	8.924609999999999488e-01
9.787059999999999649e-01	1.821210000000000051e-01	8.975509999999999877e-01
9.815610000000000168e-01	1.881099999999999994e-01	8.915889999999999649e-01
9.784059999999999979e-01	1.902810000000000057e-01	8.984739999999999949e-01
9.810200000000000031e-01	1.981360000000000066e-01	8.927580000000000515e-01
9.779759999999999565e-01	1.992200000000000082e-01	8.991569999999999840e-01
9.806660000000000377e-01	2.075009999999999910e-01	8.930120000000000280e-01
9.767909999999999648e-01	2.084969999999999879e-01	9.005330000000000279e-01
9.579649999999999554e-01	3.737840000000000051e-01	9.053809999999999913e-01
9.581399999999999917e-01	3.835890000000000133e-01	9.059719999999999995e-01
9.591399999999999926e-01	3.924619999999999775e-01	9.050319999999999476e-01
9.623209999999999820e-01	3.914960000000000107e-01	8.995769999999999600e-01
9.586569999999999814e-01	4.015150000000000108e-01	9.058779999999999610e-01
9.586810000000000054e-01	4.084389999999999965e-01	9.050500000000000211e-01
9.579020000000000312e-01	4.169559999999999933e-01	9.051019999999999621e-01
9.563209999999999766e-01	4.253219999999999779e-01	9.070789999999999687e-01
9.563679999999999959e-01	4.335260000000000224e-01	9.060759999999999925e-01
9.558680000000000510e-01	4.444049999999999945e-01	9.065969999999999862e-01
9.568799999999999528e-01	4.556049999999999822e-01	9.054839999999999556e-01
9.587440000000000406e-01	4.665659999999999807e-01	9.039770000000000305e-01
9.580520000000000147e-01	4.778540000000000010e-01	9.058800000000000185e-01
9.613120000000000553e-01	4.738649999999999807e-01	9.012329999999999508e-01
9.616360000000000463e-01	4.828770000000000007e-01	9.007830000000000004e-01
9.581659999999999622e-01	4.843770000000000020e-01	9.057950000000000168e-01
9.619130000000000180e-01	4.898600000000000176e-01	8.998880000000000212e-01
9.585460000000000091e-01	4.920579999999999954e-01	9.043390000000000040e-01
9.560990000000000322e-01	5.011949999999999461e-01	9.066290000000000182e-01
9.562060000000000004e-01	5.119110000000000049e-01	9.053470000000000129e-01
9.554650000000000087e-01	5.222280000000000255e-01	9.063750000000000417e-01
9.561720000000000219e-01	5.303879999999999706e-01	9.055469999999999908e-01
9.571509999999999740e-01	5.402890000000000192e-01	9.046349999999999669e-01
9.637440000000000451e-01	2.366119999999999890e-01	9.135809999999999764e-01
9.648949999999999472e-01	2.302230000000000110e-01	9.136530000000000484e-01
9.622910000000000075e-01	2.430029999999999968e-01	9.142130000000000534e-01
9.723840000000000261e-01	2.128289999999999904e-01	9.076049999999999951e-01
9.711229999999999585e-01	2.206049999999999955e-01	9.077939999999999898e-01
9.709109999999999685e-01	2.047700000000000076e-01	9.124109999999999721e-01
9.735249999999999737e-01	2.047609999999999986e-01	9.074539999999999829e-01
9.685759999999999925e-01	2.268709999999999893e-01	9.099819999999999576e-01
9.678820000000000201e-01	2.363169999999999993e-01	9.089890000000000470e-01
9.659870000000000401e-01	2.445060000000000011e-01	9.101709999999999523e-01
9.622190000000000465e-01	2.523670000000000080e-01	9.137960000000000527e-01
9.636329999999999618e-01	2.631539999999999990e-01	9.125870000000000370e-01
9.642020000000000035e-01	2.730549999999999922e-01	9.126499999999999613e-01
9.645000000000000240e-01	2.826710000000000056e-01	9.129300000000000193e-01
9.675219999999999931e-01	2.540129999999999888e-01	9.083029999999999715e-01
9.691490000000000382e-01	2.644599999999999729e-01	9.070009999999999462e-01
9.689050000000000162e-01	2.755230000000000179e-01	9.080139999999999878e-01
9.691140000000000310e-01	2.852830000000000088e-01	9.081780000000000408e-01
9.650699999999999834e-01	2.919320000000000248e-01	9.125950000000000450e-01
9.661349999999999660e-01	3.003660000000000219e-01	9.111939999999999484e-01
9.633340000000000236e-01	3.097320000000000073e-01	9.124700000000000033e-01
9.623129999999999740e-01	3.197499999999999787e-01	9.111989999999999812e-01
9.692279999999999784e-01	2.945070000000000188e-01	9.080930000000000391e-01
9.690910000000000357e-01	3.004490000000000216e-01	9.080850000000000311e-01
9.684310000000000418e-01	3.066630000000000189e-01	9.075159999999999894e-01
9.676470000000000349e-01	3.174029999999999907e-01	9.050489999999999924e-01
9.615960000000000063e-01	3.249730000000000119e-01	9.104119999999999990e-01
9.543359999999999621e-01	3.407049999999999801e-01	9.135520000000000307e-01
9.584120000000000417e-01	3.368970000000000020e-01	9.094280000000000141e-01
9.610929999999999751e-01	3.300739999999999785e-01	9.086130000000000040e-01
9.446130000000000360e-01	4.011300000000000282e-02	9.581349999999999589e-01
9.471100000000000074e-01	4.921400000000000080e-02	9.555219999999999825e-01
9.380979999999999874e-01	4.621999999999999720e-02	9.661990000000000300e-01
9.383810000000000207e-01	3.761799999999999866e-02	9.657909999999999551e-01
9.452080000000000481e-01	6.018899999999999945e-02	9.584589999999999499e-01
9.419939999999999980e-01	5.572599999999999776e-02	9.621279999999999832e-01
9.542829999999999924e-01	6.425400000000000555e-02	9.467680000000000540e-01
9.497670000000000279e-01	6.050799999999999929e-02	9.526649999999999840e-01
9.139369999999999994e-01	3.183179999999999898e-01	9.716789999999999594e-01
9.184130000000000349e-01	3.263730000000000242e-01	9.663420000000000343e-01
9.126710000000000100e-01	3.272079999999999989e-01	9.718139999999999556e-01
9.191200000000000481e-01	3.165629999999999833e-01	9.665599999999999747e-01
9.161510000000000487e-01	3.369920000000000138e-01	9.677029999999999799e-01
9.111179999999999835e-01	3.347910000000000053e-01	9.724949999999999983e-01
9.164989999999999526e-01	3.450219999999999954e-01	9.670419999999999572e-01
9.116889999999999716e-01	3.450929999999999831e-01	9.715260000000000007e-01
9.167359999999999953e-01	3.523640000000000105e-01	9.666449999999999765e-01
9.120190000000000241e-01	3.573419999999999930e-01	9.711610000000000520e-01
9.168330000000000091e-01	3.645610000000000239e-01	9.662560000000000038e-01
9.121810000000000196e-01	3.645539999999999892e-01	9.709269999999999845e-01
9.169620000000000548e-01	3.733779999999999877e-01	9.655249999999999666e-01
9.123679999999999568e-01	3.717400000000000149e-01	9.700520000000000254e-01
9.071399999999999464e-01	3.880819999999999825e-01	9.719360000000000221e-01
9.110470000000000512e-01	3.944900000000000073e-01	9.671729999999999494e-01
9.062339999999999840e-01	3.953980000000000272e-01	9.714099999999999957e-01
9.156689999999999552e-01	3.791519999999999890e-01	9.657820000000000293e-01
9.104579999999999895e-01	3.804560000000000164e-01	9.704519999999999813e-01
9.085800000000000542e-01	4.029499999999999749e-01	9.684239999999999515e-01
9.038469999999999560e-01	4.005770000000000164e-01	9.728809999999999958e-01
9.091110000000000024e-01	4.121020000000000238e-01	9.674300000000000122e-01
9.035769999999999635e-01	4.102049999999999863e-01	9.724939999999999696e-01
9.072270000000000056e-01	4.197879999999999945e-01	9.692030000000000367e-01
9.025499999999999634e-01	4.206779999999999964e-01	9.734230000000000382e-01
9.097250000000000059e-01	4.269720000000000182e-01	9.672899999999999832e-01
9.047030000000000349e-01	4.297980000000000134e-01	9.720370000000000399e-01
