8.361370000000000191e-01	3.730649999999999800e-01	5.536119999999999930e-01
8.318640000000000478e-01	3.788179999999999881e-01	5.488870000000000138e-01
8.307609999999999717e-01	3.788179999999999881e-01	5.478589999999999849e-01
8.360910000000000286e-01	3.788179999999999881e-01	5.536119999999999930e-01
8.318640000000000478e-01	3.845720000000000249e-01	5.486250000000000293e-01
8.370109999999999495e-01	3.845720000000000249e-01	5.536119999999999930e-01
8.318640000000000478e-01	3.903249999999999775e-01	5.488560000000000105e-01
8.361549999999999816e-01	3.903249999999999775e-01	5.536119999999999930e-01
8.318640000000000478e-01	3.960779999999999856e-01	5.499610000000000332e-01
8.347219999999999640e-01	3.960779999999999856e-01	5.536119999999999930e-01
8.318640000000000478e-01	4.018309999999999937e-01	5.506710000000000216e-01
8.341680000000000206e-01	4.018309999999999937e-01	5.536119999999999930e-01
8.318640000000000478e-01	4.075849999999999751e-01	5.515790000000000415e-01
8.336879999999999846e-01	4.075849999999999751e-01	5.536119999999999930e-01
8.318640000000000478e-01	4.133379999999999832e-01	5.528699999999999726e-01
8.323409999999999975e-01	4.133379999999999832e-01	5.536119999999999930e-01
8.318640000000000478e-01	4.190909999999999913e-01	5.533930000000000238e-01
8.319980000000000153e-01	4.190909999999999913e-01	5.536119999999999930e-01
8.317059999999999453e-01	4.421039999999999970e-01	5.593650000000000011e-01
8.300229999999999553e-01	4.305979999999999808e-01	5.536119999999999930e-01
8.261540000000000550e-01	4.421039999999999970e-01	5.478589999999999849e-01
8.318640000000000478e-01	4.305979999999999808e-01	5.577969999999999873e-01
8.324610000000000065e-01	4.305979999999999808e-01	5.593650000000000011e-01
8.344059999999999810e-01	3.155319999999999792e-01	5.766250000000000542e-01
8.347310000000000008e-01	3.212860000000000160e-01	5.766250000000000542e-01
8.366360000000000463e-01	3.212860000000000160e-01	5.823789999999999800e-01
8.363350000000000506e-01	3.155319999999999792e-01	5.823789999999999800e-01
8.350360000000000005e-01	3.270390000000000241e-01	5.766250000000000542e-01
8.370900000000000007e-01	3.270390000000000241e-01	5.823789999999999800e-01
8.355949999999999767e-01	3.327919999999999767e-01	5.766250000000000542e-01
8.376080000000000192e-01	3.327919999999999767e-01	5.823789999999999800e-01
8.376169999999999449e-01	3.329050000000000065e-01	5.823789999999999800e-01
8.376169999999999449e-01	3.385449999999999848e-01	5.810170000000000057e-01
8.360079999999999734e-01	3.385449999999999848e-01	5.766250000000000542e-01
8.381690000000000529e-01	3.385449999999999848e-01	5.823789999999999800e-01
8.373279999999999612e-01	3.442990000000000217e-01	5.766250000000000542e-01
8.376169999999999449e-01	3.442990000000000217e-01	5.778130000000000210e-01
8.376169999999999449e-01	3.460090000000000110e-01	5.766250000000000542e-01
8.387120000000000131e-01	3.442990000000000217e-01	5.823789999999999800e-01
8.392450000000000188e-01	3.500519999999999743e-01	5.823789999999999800e-01
8.383099999999999996e-01	3.500519999999999743e-01	5.766250000000000542e-01
8.376169999999999449e-01	4.018309999999999937e-01	5.804059999999999775e-01
8.376169999999999449e-01	3.985290000000000221e-01	5.766250000000000542e-01
8.372779999999999667e-01	4.018309999999999937e-01	5.766250000000000542e-01
8.372119999999999562e-01	4.075849999999999751e-01	5.766250000000000542e-01
8.376169999999999449e-01	4.075849999999999751e-01	5.802270000000000483e-01
8.377980000000000427e-01	4.018309999999999937e-01	5.823789999999999800e-01
8.376339999999999897e-01	3.960779999999999856e-01	5.823789999999999800e-01
8.379959999999999631e-01	3.960779999999999856e-01	5.766250000000000542e-01
8.379630000000000134e-01	4.075849999999999751e-01	5.823789999999999800e-01
8.375850000000000239e-01	4.133379999999999832e-01	5.766250000000000542e-01
8.376169999999999449e-01	4.133379999999999832e-01	5.767959999999999754e-01
8.376169999999999449e-01	4.136569999999999969e-01	5.766250000000000542e-01
8.388849999999999918e-01	4.133379999999999832e-01	5.823789999999999800e-01
8.398940000000000294e-01	4.190909999999999913e-01	5.823789999999999800e-01
8.382439999999999891e-01	4.190909999999999913e-01	5.766250000000000542e-01
8.387759999999999661e-01	4.248449999999999727e-01	5.766250000000000542e-01
8.403969999999999496e-01	4.248449999999999727e-01	5.823789999999999800e-01
8.393070000000000253e-01	4.305979999999999808e-01	5.766250000000000542e-01
8.411589999999999900e-01	4.305979999999999808e-01	5.823789999999999800e-01
8.376169999999999449e-01	4.421039999999999970e-01	5.733160000000000478e-01
8.371410000000000240e-01	4.305979999999999808e-01	5.708720000000000461e-01
8.366599999999999593e-01	4.421039999999999970e-01	5.708720000000000461e-01
8.376169999999999449e-01	4.305979999999999808e-01	5.720720000000000249e-01
8.410590000000000011e-01	4.421039999999999970e-01	5.823789999999999800e-01
8.376169999999999449e-01	3.164649999999999963e-01	5.938849999999999962e-01
8.377229999999999954e-01	3.212860000000000160e-01	5.881319999999999881e-01
8.390790000000000193e-01	3.212860000000000160e-01	5.938849999999999962e-01
8.376169999999999449e-01	3.207670000000000243e-01	5.881319999999999881e-01
8.384329999999999838e-01	3.270390000000000241e-01	5.881319999999999881e-01
8.404179999999999984e-01	3.270390000000000241e-01	5.938849999999999962e-01
8.388299999999999645e-01	3.327919999999999767e-01	5.881319999999999881e-01
8.407120000000000148e-01	3.327919999999999767e-01	5.938849999999999962e-01
8.396580000000000155e-01	3.385449999999999848e-01	5.881319999999999881e-01
8.409959999999999658e-01	3.385449999999999848e-01	5.938849999999999962e-01
8.401399999999999979e-01	4.075849999999999751e-01	5.938849999999999962e-01
8.391710000000000003e-01	4.018309999999999937e-01	5.938849999999999962e-01
8.385540000000000216e-01	3.960779999999999856e-01	5.938849999999999962e-01
8.424890000000000434e-01	4.190909999999999913e-01	5.938849999999999962e-01
8.413019999999999943e-01	4.133379999999999832e-01	5.938849999999999962e-01
8.443610000000000282e-01	4.305979999999999808e-01	5.938849999999999962e-01
8.435319999999999485e-01	4.248449999999999727e-01	5.938849999999999962e-01
8.433699999999999530e-01	4.239290000000000003e-01	5.938849999999999962e-01
8.454220000000000068e-01	4.421039999999999970e-01	5.938849999999999962e-01
8.324939999999999563e-01	2.810130000000000128e-01	6.053920000000000412e-01
8.335369999999999724e-01	2.867660000000000209e-01	6.053920000000000412e-01
8.343129999999999713e-01	2.867660000000000209e-01	6.111450000000000493e-01
8.344380000000000130e-01	2.810130000000000128e-01	6.111450000000000493e-01
8.344880000000000075e-01	2.925189999999999735e-01	6.053920000000000412e-01
8.367630000000000345e-01	2.925189999999999735e-01	6.111450000000000493e-01
8.376169999999999449e-01	2.952170000000000072e-01	6.111450000000000493e-01
8.353310000000000457e-01	2.982719999999999816e-01	6.053920000000000412e-01
8.376169999999999449e-01	2.982719999999999816e-01	6.099679999999999547e-01
8.375839999999999952e-01	3.040260000000000185e-01	6.053920000000000412e-01
8.376169999999999449e-01	3.040260000000000185e-01	6.054950000000000054e-01
8.384759999999999991e-01	2.982719999999999816e-01	6.111450000000000493e-01
8.398809999999999887e-01	3.040260000000000185e-01	6.111450000000000493e-01
8.376169999999999449e-01	3.041189999999999727e-01	6.053920000000000412e-01
8.416780000000000372e-01	3.097790000000000266e-01	6.111450000000000493e-01
8.394200000000000550e-01	3.097790000000000266e-01	6.053920000000000412e-01
8.408879999999999688e-01	3.155319999999999792e-01	6.053920000000000412e-01
8.429440000000000266e-01	3.155319999999999792e-01	6.111450000000000493e-01
8.433699999999999530e-01	3.179290000000000171e-01	6.111450000000000493e-01
8.433699999999999530e-01	3.212860000000000160e-01	6.090140000000000553e-01
8.424509999999999499e-01	3.212860000000000160e-01	6.053920000000000412e-01
8.440649999999999542e-01	3.212860000000000160e-01	6.111450000000000493e-01
8.433699999999999530e-01	3.256109999999999838e-01	6.053920000000000412e-01
8.459010000000000140e-01	3.270390000000000241e-01	6.111450000000000493e-01
8.435960000000000125e-01	3.270390000000000241e-01	6.053920000000000412e-01
8.439149999999999707e-01	3.327919999999999767e-01	6.053920000000000412e-01
8.464279999999999582e-01	3.327919999999999767e-01	6.111450000000000493e-01
8.436749999999999527e-01	3.385449999999999848e-01	6.053920000000000412e-01
8.456989999999999785e-01	3.385449999999999848e-01	6.111450000000000493e-01
8.433699999999999530e-01	3.442990000000000217e-01	6.066300000000000026e-01
8.433699999999999530e-01	3.416359999999999952e-01	6.053920000000000412e-01
8.430370000000000363e-01	3.442990000000000217e-01	6.053920000000000412e-01
8.446949999999999736e-01	3.442990000000000217e-01	6.111450000000000493e-01
8.433699999999999530e-01	3.500519999999999743e-01	6.105260000000000131e-01
8.421650000000000524e-01	3.500519999999999743e-01	6.053920000000000412e-01
8.435190000000000188e-01	3.500519999999999743e-01	6.111450000000000493e-01
8.422560000000000047e-01	3.558049999999999824e-01	6.111450000000000493e-01
8.433699999999999530e-01	3.508279999999999732e-01	6.111450000000000493e-01
8.411399999999999988e-01	3.558049999999999824e-01	6.053920000000000412e-01
8.402800000000000269e-01	3.615579999999999905e-01	6.053920000000000412e-01
8.402939999999999854e-01	3.615579999999999905e-01	6.111450000000000493e-01
8.395120000000000360e-01	3.673120000000000274e-01	6.053920000000000412e-01
8.399739999999999984e-01	3.673120000000000274e-01	6.111450000000000493e-01
8.389780000000000015e-01	3.730649999999999800e-01	6.053920000000000412e-01
8.402650000000000396e-01	3.730649999999999800e-01	6.111450000000000493e-01
8.433699999999999530e-01	3.999539999999999762e-01	6.111450000000000493e-01
8.414650000000000185e-01	4.018309999999999937e-01	6.053920000000000412e-01
8.433699999999999530e-01	4.018309999999999937e-01	6.099860000000000282e-01
8.407569999999999766e-01	3.960779999999999856e-01	6.053920000000000412e-01
8.424110000000000209e-01	3.960779999999999856e-01	6.111450000000000493e-01
8.438459999999999850e-01	4.018309999999999937e-01	6.111450000000000493e-01
8.430590000000000028e-01	4.075849999999999751e-01	6.053920000000000412e-01
8.433699999999999530e-01	4.075849999999999751e-01	6.063380000000000436e-01
8.451480000000000103e-01	4.075849999999999751e-01	6.111450000000000493e-01
8.433699999999999530e-01	4.082310000000000105e-01	6.053920000000000412e-01
8.476770000000000138e-01	4.133379999999999832e-01	6.111450000000000493e-01
8.457379999999999898e-01	4.133379999999999832e-01	6.053920000000000412e-01
8.467799999999999772e-01	4.190909999999999913e-01	6.053920000000000412e-01
8.488499999999999934e-01	4.190909999999999913e-01	6.111450000000000493e-01
8.491239999999999899e-01	4.201619999999999799e-01	6.111450000000000493e-01
8.491239999999999899e-01	4.248449999999999727e-01	6.082619999999999694e-01
8.478820000000000245e-01	4.248449999999999727e-01	6.053920000000000412e-01
8.488419999999999854e-01	4.305979999999999808e-01	6.053920000000000412e-01
8.491239999999999899e-01	4.305979999999999808e-01	6.059729999999999839e-01
8.503789999999999960e-01	4.248449999999999727e-01	6.111450000000000493e-01
8.516040000000000276e-01	4.305979999999999808e-01	6.111450000000000493e-01
8.469809999999999839e-01	3.845720000000000249e-01	6.284049999999999914e-01
8.461819999999999897e-01	3.788179999999999881e-01	6.284049999999999914e-01
8.419189999999999729e-01	3.845720000000000249e-01	6.168979999999999464e-01
8.433730000000000393e-01	3.730649999999999800e-01	6.226519999999999833e-01
8.433699999999999530e-01	3.730649999999999800e-01	6.226439999999999753e-01
8.414239999999999498e-01	3.730649999999999800e-01	6.168979999999999464e-01
8.457350000000000145e-01	3.730649999999999800e-01	6.284049999999999914e-01
8.491239999999999899e-01	3.935119999999999729e-01	6.284049999999999914e-01
8.469510000000000094e-01	3.960779999999999856e-01	6.226519999999999833e-01
8.491239999999999899e-01	3.960779999999999856e-01	6.271120000000000028e-01
8.483289999999999997e-01	3.903249999999999775e-01	6.284049999999999914e-01
8.444679999999999964e-01	3.960779999999999856e-01	6.168979999999999464e-01
8.497869999999999591e-01	3.960779999999999856e-01	6.284049999999999914e-01
8.491239999999999899e-01	1.680780000000000052e-01	6.399110000000000076e-01
8.467820000000000347e-01	1.716999999999999915e-01	6.284049999999999914e-01
8.491239999999999899e-01	1.774529999999999996e-01	6.327310000000000434e-01
8.475289999999999768e-01	1.774529999999999996e-01	6.284049999999999914e-01
8.461109999999999465e-01	1.659470000000000112e-01	6.284049999999999914e-01
8.487190000000000012e-01	1.659470000000000112e-01	6.399110000000000076e-01
8.495850000000000346e-01	1.774529999999999996e-01	6.341579999999999995e-01
8.509459999999999802e-01	1.774529999999999996e-01	6.399110000000000076e-01
8.491239999999999899e-01	1.659470000000000112e-01	6.426340000000000385e-01
8.521910000000000318e-01	1.774529999999999996e-01	6.514180000000000526e-01
8.501969999999999805e-01	1.659470000000000112e-01	6.514180000000000526e-01
8.536660000000000359e-01	1.889599999999999891e-01	6.514180000000000526e-01
8.527569999999999872e-01	1.832070000000000087e-01	6.514180000000000526e-01
8.535460000000000269e-01	1.889599999999999891e-01	6.456650000000000444e-01
8.524829999999999908e-01	1.832070000000000087e-01	6.399110000000000076e-01
8.530759999999999454e-01	1.889599999999999891e-01	6.399110000000000076e-01
8.648839999999999861e-01	3.040260000000000185e-01	6.571709999999999496e-01
8.624380000000000379e-01	3.097790000000000266e-01	6.514180000000000526e-01
8.656470000000000553e-01	3.097790000000000266e-01	6.571709999999999496e-01
8.618949999999999667e-01	3.040260000000000185e-01	6.514180000000000526e-01
8.627810000000000201e-01	3.155319999999999792e-01	6.514180000000000526e-01
8.659599999999999520e-01	3.155319999999999792e-01	6.571709999999999496e-01
8.624249999999999972e-01	3.212860000000000160e-01	6.514180000000000526e-01
8.657049999999999468e-01	3.212860000000000160e-01	6.571709999999999496e-01
8.615140000000000020e-01	3.270390000000000241e-01	6.514180000000000526e-01
8.648959999999999981e-01	3.270390000000000241e-01	6.571709999999999496e-01
8.606300000000000061e-01	3.327919999999999767e-01	6.529970000000000496e-01
8.606300000000000061e-01	3.296830000000000038e-01	6.514180000000000526e-01
8.598679999999999657e-01	3.327919999999999767e-01	6.514180000000000526e-01
8.606300000000000061e-01	3.385449999999999848e-01	6.532440000000000468e-01
8.598409999999999664e-01	3.385449999999999848e-01	6.514180000000000526e-01
8.630769999999999831e-01	3.327919999999999767e-01	6.571709999999999496e-01
8.624650000000000372e-01	3.385449999999999848e-01	6.571709999999999496e-01
8.606300000000000061e-01	3.442990000000000217e-01	6.546570000000000444e-01
8.593340000000000423e-01	3.442990000000000217e-01	6.514180000000000526e-01
8.597289999999999655e-01	3.500519999999999743e-01	6.514180000000000526e-01
8.606300000000000061e-01	3.500519999999999743e-01	6.537260000000000293e-01
8.618080000000000185e-01	3.442990000000000217e-01	6.571709999999999496e-01
8.620269999999999877e-01	3.500519999999999743e-01	6.571709999999999496e-01
8.600830000000000419e-01	3.558049999999999824e-01	6.514180000000000526e-01
8.606300000000000061e-01	3.558049999999999824e-01	6.523660000000000014e-01
8.606300000000000061e-01	3.601150000000000184e-01	6.514180000000000526e-01
8.633319999999999883e-01	3.558049999999999824e-01	6.571709999999999496e-01
8.639520000000000532e-01	3.615579999999999905e-01	6.571709999999999496e-01
8.607979999999999521e-01	3.615579999999999905e-01	6.514180000000000526e-01
8.608479999999999466e-01	3.673120000000000274e-01	6.514180000000000526e-01
8.640910000000000535e-01	3.673120000000000274e-01	6.571709999999999496e-01
8.615669999999999717e-01	3.730649999999999800e-01	6.514180000000000526e-01
8.642509999999999915e-01	3.730649999999999800e-01	6.571709999999999496e-01
8.611220000000000541e-01	3.788179999999999881e-01	6.514180000000000526e-01
8.638379999999999947e-01	3.788179999999999881e-01	6.571709999999999496e-01
8.613169999999999993e-01	3.845720000000000249e-01	6.514180000000000526e-01
8.633330000000000171e-01	3.845720000000000249e-01	6.571709999999999496e-01
8.606300000000000061e-01	3.903249999999999775e-01	6.519099999999999895e-01
8.606300000000000061e-01	3.894070000000000031e-01	6.514180000000000526e-01
8.604469999999999619e-01	3.903249999999999775e-01	6.514180000000000526e-01
8.606300000000000061e-01	3.960779999999999856e-01	6.554489999999999483e-01
8.597759999999999847e-01	3.960779999999999856e-01	6.514180000000000526e-01
8.621640000000000414e-01	3.903249999999999775e-01	6.571709999999999496e-01
8.609149999999999858e-01	3.960779999999999856e-01	6.571709999999999496e-01
8.526150000000000118e-01	1.774529999999999996e-01	6.571709999999999496e-01
8.530710000000000237e-01	1.832070000000000087e-01	6.571709999999999496e-01
8.531530000000000502e-01	1.832070000000000087e-01	6.629249999999999865e-01
8.531180000000000430e-01	1.774529999999999996e-01	6.629249999999999865e-01
8.535840000000000094e-01	1.889599999999999891e-01	6.571709999999999496e-01
8.535260000000000069e-01	1.889599999999999891e-01	6.629249999999999865e-01
8.539120000000000044e-01	1.947129999999999972e-01	6.571709999999999496e-01
8.533220000000000249e-01	1.947129999999999972e-01	6.629249999999999865e-01
8.541800000000000503e-01	2.004670000000000063e-01	6.571709999999999496e-01
8.539339999999999709e-01	2.004670000000000063e-01	6.629249999999999865e-01
8.544119999999999493e-01	2.062199999999999867e-01	6.571709999999999496e-01
8.541450000000000431e-01	2.062199999999999867e-01	6.629249999999999865e-01
8.547259999999999858e-01	2.119729999999999948e-01	6.571709999999999496e-01
8.541180000000000438e-01	2.119729999999999948e-01	6.629249999999999865e-01
8.548769999999999980e-01	2.155360000000000054e-01	6.629249999999999865e-01
8.548769999999999980e-01	2.177260000000000029e-01	6.582599999999999563e-01
8.547989999999999755e-01	2.177260000000000029e-01	6.571709999999999496e-01
8.552849999999999620e-01	2.177260000000000029e-01	6.629249999999999865e-01
8.548769999999999980e-01	2.186180000000000068e-01	6.571709999999999496e-01
8.550450000000000550e-01	2.234800000000000120e-01	6.629249999999999865e-01
8.554199999999999582e-01	2.234800000000000120e-01	6.571709999999999496e-01
8.559229999999999894e-01	2.292329999999999923e-01	6.571709999999999496e-01
8.554450000000000109e-01	2.292329999999999923e-01	6.629249999999999865e-01
8.561039999999999761e-01	2.349860000000000004e-01	6.571709999999999496e-01
8.572619999999999685e-01	2.349860000000000004e-01	6.629249999999999865e-01
8.564720000000000111e-01	2.407400000000000095e-01	6.571709999999999496e-01
8.584359999999999769e-01	2.407400000000000095e-01	6.629249999999999865e-01
8.570069999999999633e-01	2.464929999999999899e-01	6.571709999999999496e-01
8.594100000000000072e-01	2.464929999999999899e-01	6.629249999999999865e-01
8.571779999999999955e-01	2.522460000000000258e-01	6.571709999999999496e-01
8.602239999999999887e-01	2.522460000000000258e-01	6.629249999999999865e-01
8.606300000000000061e-01	2.542579999999999840e-01	6.629249999999999865e-01
8.581290000000000306e-01	2.579989999999999783e-01	6.571709999999999496e-01
8.606300000000000061e-01	2.579989999999999783e-01	6.615579999999999794e-01
8.614209999999999923e-01	2.579989999999999783e-01	6.629249999999999865e-01
8.585650000000000226e-01	2.637530000000000152e-01	6.571709999999999496e-01
8.606300000000000061e-01	2.637530000000000152e-01	6.601479999999999571e-01
8.598209999999999464e-01	2.695060000000000233e-01	6.571709999999999496e-01
8.606300000000000061e-01	2.695060000000000233e-01	6.584680000000000533e-01
8.629400000000000404e-01	2.637530000000000152e-01	6.629249999999999865e-01
8.635110000000000285e-01	2.695060000000000233e-01	6.629249999999999865e-01
8.606300000000000061e-01	2.749050000000000105e-01	6.571709999999999496e-01
8.641910000000000425e-01	2.752589999999999759e-01	6.629249999999999865e-01
8.606850000000000334e-01	2.752589999999999759e-01	6.571709999999999496e-01
8.616930000000000422e-01	2.810130000000000128e-01	6.571709999999999496e-01
8.651929999999999898e-01	2.810130000000000128e-01	6.629249999999999865e-01
8.625580000000000469e-01	2.867660000000000209e-01	6.571709999999999496e-01
8.656209999999999738e-01	2.867660000000000209e-01	6.629249999999999865e-01
8.663840000000000430e-01	2.918000000000000038e-01	6.629249999999999865e-01
8.633150000000000546e-01	2.925189999999999735e-01	6.571709999999999496e-01
8.663840000000000430e-01	2.925189999999999735e-01	6.626790000000000180e-01
8.664760000000000240e-01	2.925189999999999735e-01	6.629249999999999865e-01
8.641630000000000145e-01	2.982719999999999816e-01	6.571709999999999496e-01
8.663840000000000430e-01	2.982719999999999816e-01	6.622000000000000108e-01
8.666070000000000162e-01	2.982719999999999816e-01	6.629249999999999865e-01
8.663840000000000430e-01	3.040260000000000185e-01	6.601289999999999658e-01
8.674309999999999521e-01	3.040260000000000185e-01	6.629249999999999865e-01
8.549579999999999957e-01	1.774529999999999996e-01	6.974439999999999529e-01
8.522370000000000223e-01	1.659470000000000112e-01	6.974439999999999529e-01
8.555559999999999832e-01	1.774529999999999996e-01	6.916909999999999448e-01
8.529390000000000027e-01	1.659470000000000112e-01	6.859380000000000477e-01
8.555230000000000334e-01	1.774529999999999996e-01	6.859380000000000477e-01
8.687829999999999719e-01	4.305979999999999808e-01	7.031979999999999897e-01
8.683300000000000463e-01	4.305979999999999808e-01	6.974439999999999529e-01
8.690890000000000004e-01	4.363509999999999889e-01	6.974439999999999529e-01
8.491239999999999899e-01	1.889599999999999891e-01	7.175190000000000179e-01
8.491239999999999899e-01	1.947129999999999972e-01	7.171689999999999454e-01
8.480109999999999593e-01	1.947129999999999972e-01	7.204570000000000141e-01
8.479630000000000223e-01	1.889599999999999891e-01	7.204570000000000141e-01
8.491239999999999899e-01	2.004670000000000063e-01	7.174049999999999594e-01
8.478029999999999733e-01	2.004670000000000063e-01	7.204570000000000141e-01
8.491239999999999899e-01	2.062199999999999867e-01	7.170140000000000402e-01
8.475000000000000311e-01	2.062199999999999867e-01	7.204570000000000141e-01
8.491239999999999899e-01	2.119729999999999948e-01	7.170330000000000314e-01
8.472939999999999916e-01	2.119729999999999948e-01	7.204570000000000141e-01
8.501819999999999933e-01	1.889599999999999891e-01	7.147040000000000060e-01
8.498729999999999896e-01	1.947129999999999972e-01	7.147040000000000060e-01
8.501659999999999773e-01	2.004670000000000063e-01	7.147040000000000060e-01
8.501619999999999733e-01	2.062199999999999867e-01	7.147040000000000060e-01
8.504159999999999497e-01	2.119729999999999948e-01	7.147040000000000060e-01
8.491239999999999899e-01	2.177260000000000029e-01	7.168510000000000160e-01
8.471170000000000089e-01	2.177260000000000029e-01	7.204570000000000141e-01
8.491239999999999899e-01	2.234800000000000120e-01	7.170170000000000154e-01
8.473119999999999541e-01	2.234800000000000120e-01	7.204570000000000141e-01
8.491239999999999899e-01	2.292329999999999923e-01	7.158299999999999663e-01
8.468510000000000204e-01	2.292329999999999923e-01	7.204570000000000141e-01
8.467419999999999947e-01	2.349860000000000004e-01	7.204570000000000141e-01
8.491239999999999899e-01	2.333919999999999884e-01	7.147040000000000060e-01
8.490820000000000034e-01	2.349860000000000004e-01	7.147040000000000060e-01
8.503640000000000088e-01	2.177260000000000029e-01	7.147040000000000060e-01
8.503600000000000048e-01	2.234800000000000120e-01	7.147040000000000060e-01
8.497630000000000461e-01	2.292329999999999923e-01	7.147040000000000060e-01
8.461349999999999705e-01	2.407400000000000095e-01	7.204570000000000141e-01
8.491239999999999899e-01	2.407400000000000095e-01	7.157559999999999478e-01
8.491239999999999899e-01	2.361640000000000128e-01	7.147040000000000060e-01
8.491239999999999899e-01	2.464929999999999899e-01	7.152490000000000236e-01
8.455430000000000446e-01	2.464929999999999899e-01	7.204570000000000141e-01
8.491239999999999899e-01	2.522460000000000258e-01	7.151469999999999771e-01
8.452300000000000368e-01	2.522460000000000258e-01	7.204570000000000141e-01
8.452969999999999651e-01	2.579989999999999783e-01	7.204570000000000141e-01
8.491239999999999899e-01	2.547079999999999900e-01	7.147040000000000060e-01
8.486280000000000490e-01	2.579989999999999783e-01	7.147040000000000060e-01
8.497989999999999711e-01	2.407400000000000095e-01	7.147040000000000060e-01
8.494969999999999466e-01	2.464929999999999899e-01	7.147040000000000060e-01
8.494450000000000056e-01	2.522460000000000258e-01	7.147040000000000060e-01
8.483810000000000517e-01	2.637530000000000152e-01	7.147040000000000060e-01
8.447459999999999969e-01	2.637530000000000152e-01	7.204570000000000141e-01
8.482049999999999867e-01	2.695060000000000233e-01	7.147040000000000060e-01
8.449699999999999989e-01	2.695060000000000233e-01	7.204570000000000141e-01
8.485380000000000145e-01	2.752589999999999759e-01	7.147040000000000060e-01
8.462640000000000162e-01	2.752589999999999759e-01	7.204570000000000141e-01
8.463910000000000045e-01	2.810130000000000128e-01	7.204570000000000141e-01
8.491239999999999899e-01	2.793070000000000275e-01	7.147040000000000060e-01
8.491239999999999899e-01	2.810130000000000128e-01	7.152410000000000156e-01
8.494380000000000264e-01	2.810130000000000128e-01	7.147040000000000060e-01
8.491239999999999899e-01	2.867660000000000209e-01	7.177200000000000246e-01
8.479259999999999575e-01	2.867660000000000209e-01	7.204570000000000141e-01
8.491239999999999899e-01	2.903530000000000277e-01	7.204570000000000141e-01
8.505730000000000235e-01	2.867660000000000209e-01	7.147040000000000060e-01
8.499139999999999473e-01	2.925189999999999735e-01	7.204570000000000141e-01
8.518569999999999753e-01	2.925189999999999735e-01	7.147040000000000060e-01
8.535270000000000357e-01	2.982719999999999816e-01	7.147040000000000060e-01
8.517529999999999824e-01	2.982719999999999816e-01	7.204570000000000141e-01
8.548750000000000515e-01	3.040260000000000185e-01	7.147040000000000060e-01
8.534059999999999979e-01	3.040260000000000185e-01	7.204570000000000141e-01
8.548729999999999940e-01	3.097790000000000266e-01	7.204570000000000141e-01
8.548769999999999980e-01	3.097790000000000266e-01	7.204420000000000268e-01
8.548769999999999980e-01	3.040349999999999997e-01	7.147040000000000060e-01
8.563380000000000436e-01	3.097790000000000266e-01	7.147040000000000060e-01
8.548769999999999980e-01	3.097920000000000118e-01	7.204570000000000141e-01
8.561020000000000296e-01	3.155319999999999792e-01	7.204570000000000141e-01
8.575580000000000425e-01	3.155319999999999792e-01	7.147040000000000060e-01
8.581940000000000124e-01	3.212860000000000160e-01	7.147040000000000060e-01
8.563589999999999813e-01	3.212860000000000160e-01	7.204570000000000141e-01
8.586219999999999963e-01	3.270390000000000241e-01	7.147040000000000060e-01
8.574100000000000055e-01	3.270390000000000241e-01	7.204570000000000141e-01
8.584540000000000504e-01	3.327919999999999767e-01	7.147040000000000060e-01
8.578649999999999887e-01	3.327919999999999767e-01	7.204570000000000141e-01
8.588959999999999928e-01	3.385449999999999848e-01	7.147040000000000060e-01
8.580210000000000337e-01	3.385449999999999848e-01	7.204570000000000141e-01
8.491239999999999899e-01	1.659470000000000112e-01	7.141150000000000553e-01
8.491239999999999899e-01	1.774529999999999996e-01	7.179590000000000138e-01
8.480710000000000193e-01	1.774529999999999996e-01	7.204570000000000141e-01
8.475380000000000136e-01	1.659470000000000112e-01	7.204570000000000141e-01
8.502859999999999863e-01	1.659470000000000112e-01	7.089509999999999978e-01
8.526150000000000118e-01	1.774529999999999996e-01	7.089509999999999978e-01
8.528679999999999595e-01	1.832070000000000087e-01	7.089509999999999978e-01
8.525669999999999638e-01	1.889599999999999891e-01	7.089509999999999978e-01
8.714880000000000404e-01	4.421039999999999970e-01	7.204570000000000141e-01
8.694410000000000194e-01	4.305979999999999808e-01	7.204570000000000141e-01
8.693689999999999474e-01	4.305979999999999808e-01	7.147040000000000060e-01
8.634469999999999645e-01	3.730649999999999800e-01	7.262110000000000509e-01
8.631419999999999648e-01	3.788179999999999881e-01	7.204570000000000141e-01
8.640949999999999465e-01	3.788179999999999881e-01	7.262110000000000509e-01
8.626890000000000391e-01	3.730649999999999800e-01	7.204570000000000141e-01
8.637190000000000145e-01	3.845720000000000249e-01	7.204570000000000141e-01
8.649289999999999479e-01	3.845720000000000249e-01	7.262110000000000509e-01
8.641259999999999497e-01	3.903249999999999775e-01	7.204570000000000141e-01
8.650250000000000439e-01	3.903249999999999775e-01	7.262110000000000509e-01
8.644549999999999734e-01	3.960779999999999856e-01	7.204570000000000141e-01
8.652800000000000491e-01	3.960779999999999856e-01	7.262110000000000509e-01
8.648660000000000236e-01	4.018309999999999937e-01	7.204570000000000141e-01
8.654199999999999671e-01	4.018309999999999937e-01	7.262110000000000509e-01
8.650860000000000216e-01	4.075849999999999751e-01	7.204570000000000141e-01
8.656439999999999690e-01	4.075849999999999751e-01	7.262110000000000509e-01
8.653999999999999471e-01	4.133379999999999832e-01	7.204570000000000141e-01
8.657289999999999708e-01	4.133379999999999832e-01	7.262110000000000509e-01
8.663840000000000430e-01	4.189999999999999836e-01	7.262110000000000509e-01
8.655929999999999458e-01	4.190909999999999913e-01	7.204570000000000141e-01
8.663840000000000430e-01	4.190909999999999913e-01	7.261539999999999662e-01
8.664030000000000342e-01	4.190909999999999913e-01	7.262110000000000509e-01
8.663840000000000430e-01	4.214300000000000268e-01	7.204570000000000141e-01
8.680639999999999468e-01	4.248449999999999727e-01	7.262110000000000509e-01
8.680290000000000505e-01	4.248449999999999727e-01	7.204570000000000141e-01
8.690769999999999884e-01	4.305979999999999808e-01	7.262110000000000509e-01
8.409170000000000256e-01	2.579989999999999783e-01	7.319639999999999480e-01
8.411480000000000068e-01	2.464929999999999899e-01	7.319639999999999480e-01
8.426630000000000509e-01	2.579989999999999783e-01	7.262110000000000509e-01
8.433019999999999960e-01	2.464929999999999899e-01	7.262110000000000509e-01
8.433699999999999530e-01	2.579989999999999783e-01	7.244439999999999769e-01
8.433699999999999530e-01	2.464929999999999899e-01	7.259970000000000034e-01
8.403659999999999464e-01	2.695060000000000233e-01	7.377169999999999561e-01
8.415890000000000315e-01	2.752589999999999759e-01	7.319639999999999480e-01
8.410210000000000186e-01	2.752589999999999759e-01	7.377169999999999561e-01
8.410969999999999835e-01	2.695060000000000233e-01	7.319639999999999480e-01
8.428870000000000529e-01	2.810130000000000128e-01	7.319639999999999480e-01
8.421710000000000029e-01	2.810130000000000128e-01	7.377169999999999561e-01
8.433699999999999530e-01	2.827210000000000001e-01	7.319639999999999480e-01
8.433699999999999530e-01	2.854249999999999843e-01	7.377169999999999561e-01
8.446730000000000071e-01	2.867660000000000209e-01	7.319639999999999480e-01
8.437419999999999920e-01	2.867660000000000209e-01	7.377169999999999561e-01
8.473370000000000068e-01	2.925189999999999735e-01	7.319639999999999480e-01
8.452049999999999841e-01	2.925189999999999735e-01	7.377169999999999561e-01
8.485000000000000320e-01	2.982719999999999816e-01	7.319639999999999480e-01
8.467109999999999914e-01	2.982719999999999816e-01	7.377169999999999561e-01
8.484739999999999505e-01	3.040260000000000185e-01	7.377169999999999561e-01
8.491239999999999899e-01	3.040260000000000185e-01	7.358569999999999833e-01
8.491239999999999899e-01	3.000869999999999926e-01	7.319639999999999480e-01
8.505099999999999882e-01	3.040260000000000185e-01	7.319639999999999480e-01
8.491239999999999899e-01	3.059189999999999965e-01	7.377169999999999561e-01
8.504479999999999817e-01	3.097790000000000266e-01	7.377169999999999561e-01
8.518200000000000216e-01	3.097790000000000266e-01	7.319639999999999480e-01
8.532180000000000319e-01	3.155319999999999792e-01	7.319639999999999480e-01
8.520640000000000436e-01	3.155319999999999792e-01	7.377169999999999561e-01
8.546219999999999928e-01	3.212860000000000160e-01	7.319639999999999480e-01
8.535220000000000029e-01	3.212860000000000160e-01	7.377169999999999561e-01
8.547690000000000010e-01	3.270390000000000241e-01	7.377169999999999561e-01
8.548769999999999980e-01	3.270390000000000241e-01	7.372490000000000432e-01
8.548769999999999980e-01	3.221029999999999727e-01	7.319639999999999480e-01
8.558909999999999574e-01	3.270390000000000241e-01	7.319639999999999480e-01
8.548769999999999980e-01	3.274839999999999973e-01	7.377169999999999561e-01
8.559759999999999591e-01	3.327919999999999767e-01	7.377169999999999561e-01
8.559909999999999464e-01	3.327919999999999767e-01	7.319639999999999480e-01
8.570590000000000153e-01	3.385449999999999848e-01	7.319639999999999480e-01
8.568210000000000548e-01	3.385449999999999848e-01	7.377169999999999561e-01
8.583509999999999751e-01	3.442990000000000217e-01	7.319639999999999480e-01
8.580109999999999681e-01	3.442990000000000217e-01	7.377169999999999561e-01
8.592520000000000158e-01	3.500519999999999743e-01	7.319639999999999480e-01
8.589980000000000393e-01	3.500519999999999743e-01	7.377169999999999561e-01
8.637899999999999467e-01	3.730649999999999800e-01	7.377169999999999561e-01
8.644159999999999622e-01	3.788179999999999881e-01	7.319639999999999480e-01
8.645359999999999712e-01	3.788179999999999881e-01	7.377169999999999561e-01
8.640309999999999935e-01	3.730649999999999800e-01	7.319639999999999480e-01
8.654279999999999751e-01	3.845720000000000249e-01	7.319639999999999480e-01
8.650849999999999929e-01	3.845720000000000249e-01	7.377169999999999561e-01
8.663250000000000117e-01	3.903249999999999775e-01	7.319639999999999480e-01
8.660600000000000520e-01	3.903249999999999775e-01	7.377169999999999561e-01
8.663239999999999830e-01	3.960779999999999856e-01	7.377169999999999561e-01
8.663840000000000430e-01	3.960779999999999856e-01	7.331280000000000019e-01
8.663840000000000430e-01	3.915560000000000151e-01	7.319639999999999480e-01
8.664990000000000192e-01	3.960779999999999856e-01	7.319639999999999480e-01
8.663840000000000430e-01	3.970449999999999813e-01	7.377169999999999561e-01
8.665150000000000352e-01	4.018309999999999937e-01	7.377169999999999561e-01
8.665939999999999754e-01	4.018309999999999937e-01	7.319639999999999480e-01
8.663840000000000430e-01	4.053149999999999809e-01	7.319639999999999480e-01
8.663020000000000165e-01	4.075849999999999751e-01	7.319639999999999480e-01
8.663509999999999822e-01	4.075849999999999751e-01	7.377169999999999561e-01
8.663840000000000430e-01	4.069849999999999857e-01	7.377169999999999561e-01
8.663840000000000430e-01	4.112480000000000024e-01	7.319639999999999480e-01
8.663840000000000430e-01	4.078669999999999796e-01	7.377169999999999561e-01
8.665370000000000017e-01	4.133379999999999832e-01	7.319639999999999480e-01
8.669689999999999896e-01	4.133379999999999832e-01	7.377169999999999561e-01
8.672379999999999534e-01	4.190909999999999913e-01	7.319639999999999480e-01
8.668799999999999839e-01	4.190909999999999913e-01	7.377169999999999561e-01
8.681640000000000468e-01	4.248449999999999727e-01	7.319639999999999480e-01
8.675840000000000218e-01	4.248449999999999727e-01	7.377169999999999561e-01
8.687230000000000230e-01	4.305979999999999808e-01	7.319639999999999480e-01
8.677270000000000261e-01	4.305979999999999808e-01	7.377169999999999561e-01
8.405139999999999834e-01	2.752589999999999759e-01	7.434709999999999930e-01
8.400060000000000304e-01	2.695060000000000233e-01	7.434709999999999930e-01
8.416909999999999670e-01	2.810130000000000128e-01	7.434709999999999930e-01
8.430039999999999756e-01	2.867660000000000209e-01	7.434709999999999930e-01
8.433699999999999530e-01	2.867660000000000209e-01	7.402859999999999996e-01
8.433699999999999530e-01	2.879780000000000117e-01	7.434709999999999930e-01
8.447679999999999634e-01	2.925189999999999735e-01	7.434709999999999930e-01
8.461279999999999912e-01	2.982719999999999816e-01	7.434709999999999930e-01
8.472220000000000306e-01	3.040260000000000185e-01	7.434709999999999930e-01
8.491239999999999899e-01	3.095089999999999786e-01	7.434709999999999930e-01
8.492279999999999829e-01	3.097790000000000266e-01	7.434709999999999930e-01
8.509349999999999969e-01	3.155319999999999792e-01	7.434709999999999930e-01
8.526200000000000445e-01	3.212860000000000160e-01	7.434709999999999930e-01
8.539430000000000076e-01	3.270390000000000241e-01	7.434709999999999930e-01
8.548769999999999980e-01	3.310500000000000109e-01	7.434709999999999930e-01
8.552079999999999682e-01	3.327919999999999767e-01	7.434709999999999930e-01
8.557759999999999811e-01	3.385449999999999848e-01	7.434709999999999930e-01
8.576829999999999732e-01	3.442990000000000217e-01	7.434709999999999930e-01
8.587519999999999598e-01	3.500519999999999743e-01	7.434709999999999930e-01
8.631550000000000056e-01	3.730649999999999800e-01	7.434709999999999930e-01
8.640959999999999752e-01	3.788179999999999881e-01	7.434709999999999930e-01
8.659149999999999903e-01	3.845720000000000249e-01	7.434709999999999930e-01
8.655410000000000048e-01	3.903249999999999775e-01	7.434709999999999930e-01
8.657280000000000530e-01	3.960779999999999856e-01	7.434709999999999930e-01
8.660099999999999465e-01	4.018309999999999937e-01	7.434709999999999930e-01
8.663840000000000430e-01	4.018309999999999937e-01	7.406500000000000306e-01
8.652760000000000451e-01	4.075849999999999751e-01	7.434709999999999930e-01
8.657059999999999755e-01	4.133379999999999832e-01	7.434709999999999930e-01
8.663840000000000430e-01	4.133379999999999832e-01	7.417280000000000539e-01
8.663840000000000430e-01	4.190909999999999913e-01	7.409430000000000183e-01
8.657700000000000395e-01	4.190909999999999913e-01	7.434709999999999930e-01
8.663840000000000430e-01	4.215929999999999955e-01	7.434709999999999930e-01
8.670020000000000504e-01	4.248449999999999727e-01	7.434709999999999930e-01
8.667810000000000237e-01	4.305979999999999808e-01	7.434709999999999930e-01
8.606300000000000061e-01	3.583450000000000246e-01	7.434709999999999930e-01
8.599849999999999994e-01	3.558049999999999824e-01	7.434709999999999930e-01
8.606300000000000061e-01	3.556759999999999922e-01	7.319639999999999480e-01
8.617899999999999450e-01	3.615579999999999905e-01	7.319639999999999480e-01
8.615439999999999765e-01	3.615579999999999905e-01	7.434709999999999930e-01
8.436900000000000510e-01	1.659470000000000112e-01	7.434709999999999930e-01
8.430250000000000243e-01	1.774529999999999996e-01	7.434709999999999930e-01
8.432920000000000416e-01	1.774529999999999996e-01	7.549770000000000092e-01
8.433349999999999458e-01	1.659470000000000112e-01	7.549770000000000092e-01
8.416940000000000532e-01	1.889599999999999891e-01	7.434709999999999930e-01
8.428959999999999786e-01	1.889599999999999891e-01	7.549770000000000092e-01
8.420879999999999477e-01	2.004670000000000063e-01	7.549770000000000092e-01
8.405470000000000441e-01	2.004670000000000063e-01	7.492240000000000011e-01
8.395979999999999555e-01	2.004670000000000063e-01	7.434709999999999930e-01
8.627350000000000296e-01	4.305979999999999808e-01	7.549770000000000092e-01
8.606300000000000061e-01	4.248449999999999727e-01	7.560689999999999911e-01
8.612630000000000008e-01	4.248449999999999727e-01	7.549770000000000092e-01
8.606300000000000061e-01	4.225860000000000172e-01	7.549770000000000092e-01
8.606300000000000061e-01	4.305979999999999808e-01	7.592339999999999645e-01
8.574460000000000415e-01	4.305979999999999808e-01	7.664840000000000542e-01
8.606300000000000061e-01	4.396990000000000065e-01	7.664840000000000542e-01
8.598599999999999577e-01	4.305979999999999808e-01	7.607300000000000173e-01
8.614680000000000115e-01	4.421039999999999970e-01	7.664840000000000542e-01
8.646120000000000472e-01	4.421039999999999970e-01	7.549770000000000092e-01
8.530259999999999510e-01	3.270390000000000241e-01	7.779899999999999594e-01
8.535099999999999909e-01	3.327919999999999767e-01	7.779899999999999594e-01
8.541320000000000023e-01	3.327919999999999767e-01	7.837439999999999962e-01
8.538109999999999866e-01	3.270390000000000241e-01	7.837439999999999962e-01
8.539050000000000251e-01	3.385449999999999848e-01	7.779899999999999594e-01
8.541260000000000518e-01	3.385449999999999848e-01	7.837439999999999962e-01
8.542210000000000081e-01	3.442990000000000217e-01	7.779899999999999594e-01
8.543239999999999723e-01	3.442990000000000217e-01	7.837439999999999962e-01
8.547350000000000225e-01	3.500519999999999743e-01	7.779899999999999594e-01
8.544070000000000276e-01	3.500519999999999743e-01	7.837439999999999962e-01
8.547860000000000458e-01	3.558049999999999824e-01	7.837439999999999962e-01
8.548769999999999980e-01	3.558049999999999824e-01	7.824649999999999661e-01
8.548769999999999980e-01	3.512799999999999812e-01	7.779899999999999594e-01
8.553920000000000412e-01	3.558049999999999824e-01	7.779899999999999594e-01
8.548769999999999980e-01	3.565050000000000163e-01	7.837439999999999962e-01
8.554089999999999749e-01	3.615579999999999905e-01	7.837439999999999962e-01
8.557679999999999731e-01	3.615579999999999905e-01	7.779899999999999594e-01
8.558080000000000132e-01	3.673120000000000274e-01	7.779899999999999594e-01
8.554880000000000262e-01	3.673120000000000274e-01	7.837439999999999962e-01
8.553680000000000172e-01	3.730649999999999800e-01	7.779899999999999594e-01
8.557879999999999932e-01	3.730649999999999800e-01	7.837439999999999962e-01
8.548769999999999980e-01	3.788179999999999881e-01	7.806400000000000006e-01
8.548769999999999980e-01	3.780850000000000044e-01	7.779899999999999594e-01
8.548109999999999875e-01	3.788179999999999881e-01	7.779899999999999594e-01
8.554270000000000485e-01	3.788179999999999881e-01	7.837439999999999962e-01
8.544169999999999821e-01	3.845720000000000249e-01	7.779899999999999594e-01
8.548769999999999980e-01	3.845720000000000249e-01	7.799930000000000474e-01
8.564000000000000501e-01	3.845720000000000249e-01	7.837439999999999962e-01
8.543049999999999811e-01	3.903249999999999775e-01	7.779899999999999594e-01
8.548769999999999980e-01	3.903249999999999775e-01	7.798659999999999481e-01
8.566709999999999603e-01	3.903249999999999775e-01	7.837439999999999962e-01
8.548769999999999980e-01	3.960779999999999856e-01	7.831590000000000495e-01
8.534519999999999884e-01	3.960779999999999856e-01	7.779899999999999594e-01
8.551630000000000065e-01	3.960779999999999856e-01	7.837439999999999962e-01
8.538940000000000419e-01	4.018309999999999937e-01	7.837439999999999962e-01
8.548769999999999980e-01	3.973149999999999737e-01	7.837439999999999962e-01
8.527120000000000255e-01	4.018309999999999937e-01	7.779899999999999594e-01
8.524150000000000338e-01	4.075849999999999751e-01	7.779899999999999594e-01
8.533429999999999627e-01	4.075849999999999751e-01	7.837439999999999962e-01
8.524119999999999475e-01	4.133379999999999832e-01	7.779899999999999594e-01
8.529299999999999660e-01	4.133379999999999832e-01	7.837439999999999962e-01
8.531980000000000119e-01	4.190909999999999913e-01	7.779899999999999594e-01
8.538949999999999596e-01	4.190909999999999913e-01	7.837439999999999962e-01
8.548769999999999980e-01	4.225740000000000052e-01	7.837439999999999962e-01
8.548769999999999980e-01	4.248449999999999727e-01	7.806429999999999758e-01
8.544899999999999718e-01	4.248449999999999727e-01	7.779899999999999594e-01
8.559820000000000206e-01	4.248449999999999727e-01	7.837439999999999962e-01
8.548769999999999980e-01	4.259680000000000133e-01	7.779899999999999594e-01
8.589369999999999505e-01	4.305979999999999808e-01	7.837439999999999962e-01
8.565920000000000201e-01	4.305979999999999808e-01	7.779899999999999594e-01
8.686610000000000165e-01	4.421039999999999970e-01	8.010030000000000205e-01
8.649909999999999544e-01	4.305979999999999808e-01	7.952500000000000124e-01
8.643429999999999724e-01	4.421039999999999970e-01	7.894970000000000043e-01
8.621980000000000199e-01	4.305979999999999808e-01	7.894970000000000043e-01
8.663840000000000430e-01	4.305979999999999808e-01	7.977670000000000039e-01
8.677789999999999671e-01	4.305979999999999808e-01	8.010030000000000205e-01
8.425620000000000331e-01	1.659470000000000112e-01	8.010030000000000205e-01
8.437729999999999952e-01	1.774529999999999996e-01	8.010030000000000205e-01
8.421779999999999822e-01	1.774529999999999996e-01	8.125099999999999545e-01
8.441260000000000430e-01	1.889599999999999891e-01	8.010030000000000205e-01
8.420379999999999532e-01	1.889599999999999891e-01	8.125099999999999545e-01
8.414150000000000240e-01	2.004670000000000063e-01	8.125099999999999545e-01
8.437839999999999785e-01	1.947129999999999972e-01	8.010030000000000205e-01
8.436010000000000453e-01	2.004670000000000063e-01	8.010030000000000205e-01
8.408499999999999863e-01	2.119729999999999948e-01	8.125099999999999545e-01
8.418379999999999752e-01	2.119729999999999948e-01	8.067569999999999464e-01
8.435749999999999638e-01	2.062199999999999867e-01	8.010030000000000205e-01
8.433699999999999530e-01	2.072309999999999985e-01	8.010030000000000205e-01
8.429849999999999843e-01	2.119729999999999948e-01	8.010030000000000205e-01
8.433699999999999530e-01	2.349860000000000004e-01	8.132920000000000149e-01
8.433570000000000233e-01	2.349860000000000004e-01	8.125099999999999545e-01
8.433699999999999530e-01	2.350720000000000032e-01	8.125099999999999545e-01
8.446270000000000167e-01	2.407400000000000095e-01	8.182629999999999626e-01
8.443429999999999547e-01	2.407400000000000095e-01	8.125099999999999545e-01
8.434909999999999908e-01	2.349860000000000004e-01	8.182629999999999626e-01
8.454519999999999813e-01	2.464929999999999899e-01	8.125099999999999545e-01
8.442629999999999857e-01	2.464929999999999899e-01	8.182629999999999626e-01
8.468970000000000109e-01	2.522460000000000258e-01	8.125099999999999545e-01
8.464829999999999854e-01	2.522460000000000258e-01	8.182629999999999626e-01
8.469250000000000389e-01	2.579989999999999783e-01	8.125099999999999545e-01
8.476820000000000466e-01	2.579989999999999783e-01	8.182629999999999626e-01
8.488620000000000054e-01	2.637530000000000152e-01	8.182629999999999626e-01
8.491239999999999899e-01	2.637530000000000152e-01	8.142430000000000501e-01
8.491239999999999899e-01	2.632639999999999980e-01	8.125099999999999545e-01
8.491239999999999899e-01	2.655310000000000170e-01	8.182629999999999626e-01
8.491239999999999899e-01	2.649839999999999973e-01	8.125099999999999545e-01
8.491239999999999899e-01	2.695060000000000233e-01	8.148279999999999967e-01
8.485629999999999562e-01	2.695060000000000233e-01	8.125099999999999545e-01
8.493030000000000301e-01	2.637530000000000152e-01	8.125099999999999545e-01
8.498449999999999616e-01	2.695060000000000233e-01	8.182629999999999626e-01
8.643089999999999939e-01	3.155319999999999792e-01	8.125099999999999545e-01
8.655699999999999505e-01	3.212860000000000160e-01	8.125099999999999545e-01
8.658649999999999958e-01	3.212860000000000160e-01	8.182629999999999626e-01
8.649419999999999886e-01	3.155319999999999792e-01	8.182629999999999626e-01
8.657529999999999948e-01	3.270390000000000241e-01	8.125099999999999545e-01
8.659170000000000478e-01	3.270390000000000241e-01	8.182629999999999626e-01
8.646329999999999849e-01	3.327919999999999767e-01	8.125099999999999545e-01
8.650179999999999536e-01	3.327919999999999767e-01	8.182629999999999626e-01
8.617690000000000072e-01	3.385449999999999848e-01	8.125099999999999545e-01
8.632459999999999578e-01	3.385449999999999848e-01	8.182629999999999626e-01
8.606300000000000061e-01	3.442990000000000217e-01	8.172850000000000392e-01
8.606300000000000061e-01	3.406629999999999936e-01	8.125099999999999545e-01
8.580560000000000409e-01	3.442990000000000217e-01	8.125099999999999545e-01
8.592199999999999838e-01	3.500519999999999743e-01	8.182629999999999626e-01
8.566869999999999763e-01	3.500519999999999743e-01	8.125099999999999545e-01
8.606300000000000061e-01	3.452749999999999986e-01	8.182629999999999626e-01
8.610929999999999973e-01	3.442990000000000217e-01	8.182629999999999626e-01
8.565890000000000448e-01	3.558049999999999824e-01	8.125099999999999545e-01
8.592370000000000285e-01	3.558049999999999824e-01	8.182629999999999626e-01
8.580740000000000034e-01	3.615579999999999905e-01	8.125099999999999545e-01
8.592950000000000310e-01	3.615579999999999905e-01	8.182629999999999626e-01
