ply
format ascii 1.0
comment Created by Open3D
element vertex 1765
property double x
property double y
property double z
end_header
1.0571 -0.0194027 0.75489
0.964004 -0.155059 0.912696
0.978254 -0.164059 0.749734
0.98733 -0.160657 0.672687
0.94675 -0.18773 0.737798
0.958982 -0.224385 0.901079
0.942543 -0.246197 0.89337
0.947154 -0.189182 0.838042
1.03169 -0.0646737 0.700857
1.09005 -0.00332407 0.782441
1.01579 -0.15903 0.650852
1.01391 -0.125398 0.695317
0.93769 -0.240798 0.703954
1.02136 -0.0984532 0.645964
1.07752 0.00553774 0.846839
0.943906 -0.272666 0.907758
0.943934 -0.192682 0.728595
0.98644 -0.158805 0.915256
1.02042 -0.0690866 0.811787
0.99016 -0.137159 0.699867
0.979387 -0.133635 0.788546
1.04917 -0.0234949 0.87932
1.01002 -0.09997 0.74731
1.08426 0.00256396 0.779387
1.01742 -0.0948978 0.796179
1.04753 -0.0508152 0.7361
0.930825 -0.244026 0.820806
0.981229 -0.156003 0.878124
0.971017 -0.182953 0.700641
0.935841 -0.22105 0.665922
1.03292 -0.0473972 0.837784
0.958964 -0.20737 0.934178
0.995665 -0.122379 0.876426
0.96532 -0.19274 0.913148
0.992789 -0.142303 0.933126
0.944002 -0.239062 0.844745
1.00113 -0.117813 0.668707
0.96104 -0.133114 0.749362
0.934473 -0.238532 0.888151
0.988935 -0.17473 0.848119
1.06099 -0.030761 0.735951
1.05947 -0.0488367 0.931501
1.02375 -0.0831266 0.844956
1.03399 -0.0611496 0.742077
1.05991 -0.0693916 0.755691
0.990761 -0.152487 0.857219
0.957529 -0.170456 0.772088
0.976966 -0.191754 0.679106
0.960728 -0.201479 0.828899
1.06322 -0.0204347 0.903156
0.969959 -0.156729 0.832478
0.98608 -0.173308 0.908004
1.05442 -0.031771 0.773383
1.05276 -0.032632 0.722558
0.971128 -0.176454 0.701683
1.04232 -0.0592815 0.675709
0.967521 -0.200913 0.727266
0.939378 -0.248482 0.806119
1.01319 -0.141274 0.705515
0.933609 -0.209352 0.857998
1.04085 -0.0619975 0.748391
0.93925 -0.251167 0.649148
1.02898 -0.0905987 0.705907
0.968956 -0.175546 0.691865
1.05981 -0.0252074 0.706621
0.971789 -0.181141 0.934736
1.02579 -0.0450924 0.718717
0.959506 -0.213189 0.863374
1.08186 -0.0191703 0.690533
1.06085 -0.0500714 0.880118
1.05324 -0.0500797 0.712129
0.937848 -0.232364 0.83792
1.04946 -0.0260861 0.651921
1.01253 -0.103832 0.796826
1.01441 -0.0779685 0.631718
1.01124 -0.0970318 0.942425
0.938527 -0.223611 0.703479
0.977342 -0.164538 0.907412
0.964417 -0.209913 0.76828
0.923116 -0.25736 0.742919
0.994651 -0.139623 0.754481
0.94401 -0.25233 0.94503
1.05908 -0.00972152 0.691049
0.937548 -0.230588 0.823833
0.948513 -0.242431 0.674565
0.949623 -0.238078 0.86778
1.05463 -0.0432675 0.860531
0.938797 -0.221435 0.785026
1.01448 -0.113226 0.921551
1.02168 -0.074422 0.884508
1.01736 -0.120895 0.940793
0.951821 -0.182782 0.869719
0.994359 -0.165319 0.925454
0.962046 -0.181732 0.913267
1.01826 -0.111762 0.677395
1.00004 -0.174021 0.776654
1.00775 -0.121627 0.91117
0.976342 -0.155987 0.875797
0.965336 -0.168271 0.724631
1.02304 -0.106101 0.733023
1.05241 -0.0287482 0.867836
0.920665 -0.248353 0.755091
0.954037 -0.197772 0.813397
0.964061 -0.185687 0.916099
1.0424 -0.0649613 0.922384
0.95848 -0.19552 0.935482
0.955098 -0.214304 0.746864
1.07643 -0.0285153 0.914692
1.0128 -0.0855321 0.702004
0.95415 -0.210528 0.935455
1.04084 -0.0738769 0.677018
1.04463 -0.0890532 0.953886
1.0541 -0.0665331 0.865771
1.05414 -0.0726802 0.834166
1.0593 -0.0173195 0.821622
1.00702 -0.138342 0.818809
1.08646 0.00263974 0.786266
0.952311 -0.222275 0.918139
1.03975 -0.0749915 0.711728
1.02176 -0.121657 0.717713
1.0516 -0.0382786 0.858487
0.921873 -0.261379 0.672063
1.05989 -0.0333547 0.935726
0.984926 -0.167613 0.785851
0.932531 -0.262632 0.8814
0.990074 -0.159995 0.906136
0.922729 -0.241142 0.850132
1.00831 -0.138437 0.659344
0.995385 -0.130112 0.936704
1.02897 -0.0957066 0.770746
0.988116 -0.141208 0.901531
0.988753 -0.157406 0.649754
0.953448 -0.200682 0.723021
1.0463 -0.0536471 0.696356
0.978477 -0.158051 0.943026
0.960101 -0.210526 0.804282
0.970329 -0.196467 0.660082
0.951122 -0.226035 0.917542
0.939331 -0.264208 0.799935
1.06179 -0.0223001 0.723886
0.977989 -0.183858 0.682094
0.971869 -0.148814 0.918621
0.955887 -0.227157 0.731356
1.05047 -0.0229288 0.785431
1.00107 -0.11743 0.664233
1.02113 -0.102626 0.914442
0.948837 -0.206053 0.933127
1.07184 -0.0170157 0.646057
0.972416 -0.147303 0.759138
1.0076 -0.120319 0.923691
0.991082 -0.152174 0.72869
0.951392 -0.143765 0.916945
1.07327 -0.0338405 0.906135
0.999322 -0.13781 0.722204
1.01512 -0.0787643 0.754664
1.03517 -0.0462785 0.706912
1.02161 -0.0980441 0.803209
1.02106 -0.116865 0.828106
1.04101 -0.0638598 0.848631
1.02764 -0.0887924 0.763224
0.976948 -0.156735 0.774582
1.07548 -0.00110602 0.816262
0.997375 -0.121638 0.809905
0.95595 -0.209684 0.858424
1.01932 -0.0937683 0.645924
0.992309 -0.139163 0.864072
1.08264 -0.00609039 0.668408
0.936298 -0.204969 0.733046
1.03449 -0.0498391 0.696727
0.99959 -0.128648 0.710846
0.948605 -0.210137 0.751933
0.975174 -0.136417 0.80843
1.04414 -0.0487227 0.893047
1.02821 -0.101485 0.898743
0.993244 -0.17496 0.65261
1.0587 -0.0258324 0.672203
1.06184 -0.033872 0.696499
0.962429 -0.205313 0.686323
0.974557 -0.157478 0.714189
0.932299 -0.251249 0.859013
0.964077 -0.207134 0.808848
1.01868 -0.0773229 0.910407
0.977304 -0.155885 0.910068
0.939592 -0.219733 0.863702
0.924957 -0.228274 0.787268
0.968004 -0.179994 0.845281
0.997361 -0.107212 0.883719
0.999207 -0.143503 0.878705
0.991573 -0.147956 0.676688
0.950454 -0.214092 0.948163
0.941916 -0.247627 0.890694
0.99896 -0.147714 0.8701
1.01729 -0.0809058 0.914706
0.949373 -0.223208 0.896898
0.949174 -0.204876 0.783909
0.965694 -0.160414 0.912438
0.950721 -0.217506 0.890951
0.945646 -0.239339 0.685934
1.04947 -0.0501543 0.867814
1.08401 0.00213691 0.88204
1.01542 -0.128878 0.642739
1.0106 -0.113374 0.912109
1.05397 -0.0527775 0.658689
1.0358 -0.0569657 0.752136
1.07053 0.013837 0.931204
0.983654 -0.167346 0.791279
0.934519 -0.22874 0.874467
1.05724 -0.00564621 0.899672
1.09321 -0.00688684 0.74507
0.979678 -0.159771 0.951858
0.982064 -0.20365 0.813032
1.04727 -0.0273316 0.686026
0.928242 -0.218862 0.722631
0.947751 -0.224089 0.801949
0.994546 -0.165729 0.71304
1.00608 -0.113375 0.728541
0.946028 -0.232645 0.76272
1.04852 -0.0712234 0.896694
0.958606 -0.264549 0.785862
1.01155 -0.140699 0.937099
1.03118 -0.0868486 0.861747
1.00565 -0.11137 0.940355
1.03679 -0.0748733 0.700782
1.06728 0.0105594 0.822232
0.979611 -0.173413 0.79962
1.05788 -0.042146 0.862344
1.07391 -0.0344444 0.84122
0.923243 -0.225384 0.874268
0.936616 -0.21344 0.874737
0.986378 -0.137642 0.740928
1.05414 -0.0449153 0.927139
0.974116 -0.193288 0.86397
1.07727 -0.011241 0.696841
0.965589 -0.189055 0.923491
1.08242 -0.0200263 0.775511
1.06439 -0.0146903 0.889396
1.0624 -0.0460786 0.7264
1.01028 -0.140729 0.865176
0.987894 -0.159708 0.689384
0.960336 -0.213752 0.823553
0.938809 -0.221275 0.760909
1.05647 0.0176629 0.688027
0.960489 -0.205828 0.831397
0.981529 -0.10362 0.950657
0.983638 -0.168866 0.800633
0.972263 -0.140838 0.723551
1.08311 -0.0142585 0.878775
0.94885 -0.233417 0.805647
0.99221 -0.16261 0.748346
0.965483 -0.234779 0.844032
0.944652 -0.236687 0.784069
0.958256 -0.227251 0.768922
0.937014 -0.225871 0.933273
0.988513 -0.135164 0.676564
1.05306 -0.0332424 0.763498
0.942715 -0.216081 0.850078
0.989348 -0.147676 0.835161
0.940999 -0.235965 0.887326
1.0543 -0.031927 0.9202
0.977811 -0.193086 0.77362
0.959516 -0.174041 0.778605
1.07535 -0.00567606 0.651807
0.917502 -0.25563 0.900406
1.03044 -0.0546449 0.748895
0.999766 -0.132953 0.655393
0.947522 -0.198049 0.775454
0.960558 -0.192795 0.795054
0.94692 -0.179303 0.712717
1.00183 -0.0817705 0.790678
1.05263 -0.0327439 0.787826
0.981831 -0.160735 0.718334
0.960651 -0.22116 0.741671
0.933212 -0.264843 0.764718
1.0225 -0.0815804 0.776523
0.971397 -0.192627 0.690245
0.952347 -0.195757 0.722981
1.06157 -0.0548065 0.670234
1.04111 -0.0711189 0.742111
0.985376 -0.134108 0.675622
0.997076 -0.124627 0.801361
1.09364 0.00490596 0.862627
1.05469 -0.0151542 0.786911
1.04958 -0.0440805 0.755066
1.00596 -0.107545 0.82805
1.06936 -0.00748424 0.872761
1.01449 -0.0942175 0.725607
1.025 -0.103133 0.883213
0.948008 -0.259721 0.75853
1.05735 -0.0116606 0.659218
0.980229 -0.167331 0.792962
1.02553 -0.0895859 0.809146
1.07143 0.00971574 0.653858
1.01885 -0.106091 0.675954
1.06523 -0.0298698 0.884262
0.998633 -0.0813638 0.737072
1.0385 -0.0635661 0.749254
0.944738 -0.231553 0.870413
1.02204 -0.0609542 0.789894
1.01945 -0.1168 0.719325
0.950276 -0.199334 0.910194
1.01555 -0.0956584 0.71997
1.05013 -0.0554765 0.83202
0.988766 -0.164671 0.883104
1.06137 -0.0163805 0.766969
1.06939 -0.018878 0.692193
1.03122 -0.0692494 0.756879
0.977751 -0.146815 0.87981
0.944884 -0.196466 0.679494
0.962855 -0.146993 0.862133
0.992652 -0.156864 0.934897
1.04916 -0.043644 0.834432
0.922338 -0.268111 0.687189
0.928334 -0.237298 0.668902
0.979596 -0.168213 0.801889
0.949656 -0.20139 0.764878
0.995058 -0.147607 0.882766
0.969219 -0.180074 0.807514
1.02508 -0.102228 0.886453
0.94764 -0.279278 0.747604
0.933486 -0.270118 0.960285
0.959487 -0.229861 0.660186
1.09187 -0.000847022 0.785091
1.05249 -0.0429558 0.767664
0.979389 -0.181465 0.697635
0.998637 -0.0976553 0.846344
1.01585 -0.107167 0.780271
0.957724 -0.20746 0.902757
0.988696 -0.151145 0.73951
0.94442 -0.233314 0.916101
0.99445 -0.129594 0.96215
0.985801 -0.137636 0.891537
1.054 -0.0121595 0.927307
0.988499 -0.181075 0.766387
1.04553 -0.0572845 0.717216
0.99217 -0.155472 0.755219
1.04534 -0.0478124 0.714494
0.942804 -0.203812 0.839519
0.988472 -0.131257 0.696211
0.9948 -0.116948 0.821227
0.993804 -0.154017 0.686229
1.0124 -0.121596 0.654969
0.960879 -0.219166 0.832847
1.05491 -0.00396652 0.841
0.965729 -0.19332 0.771125
1.03087 -0.0920177 0.717651
1.05858 -0.0696524 0.859657
0.939674 -0.243173 0.67269
0.956656 -0.193225 0.853267
0.966795 -0.202657 0.741034
1.01758 -0.0912481 0.817452
0.936797 -0.254746 0.695922
0.966638 -0.195836 0.813763
0.965666 -0.190239 0.756636
1.05524 -0.0227572 0.692561
1.00439 -0.169627 0.721434
0.978513 -0.200614 0.880745
0.968037 -0.186022 0.688811
0.987309 -0.129864 0.65119
1.03439 -0.0749961 0.736238
0.942544 -0.231347 0.83968
0.925471 -0.23845 0.720473
1.03007 -0.104147 0.919516
1.08151 -0.000662382 0.748814
1.04645 -0.071378 0.799073
0.968223 -0.206312 0.676426
0.972518 -0.197884 0.916376
0.9959 -0.123961 0.90749
0.972045 -0.152448 0.704316
0.956541 -0.228053 0.787112
1.03011 -0.0931777 0.692037
0.982563 -0.139522 0.776817
0.966241 -0.20835 0.892374
1.07093 0.0057591 0.916191
1.02428 -0.104562 0.775997
1.05915 -0.061311 0.943306
1.00501 -0.0825789 0.849933
1.05776 -0.0333719 0.88981
0.970715 -0.179334 0.807915
0.98447 -0.15497 0.806385
0.949458 -0.211937 0.807182
0.994214 -0.124527 0.900699
0.928755 -0.201962 0.956742
0.987715 -0.103313 0.815205
1.00076 -0.158096 0.93138
1.07918 -0.00542818 0.83935
0.99672 -0.135365 0.780104
1.05988 -0.0153872 0.689352
0.965819 -0.171929 0.860285
1.02448 -0.0723283 0.73878
1.03387 -0.0543942 0.709867
1.00615 -0.170753 0.93995
0.979594 -0.151869 0.734824
0.996344 -0.125192 0.735873
1.01593 -0.117673 0.748063
0.994045 -0.148008 0.872379
0.938734 -0.242099 0.715534
0.998545 -0.134501 0.909794
0.927445 -0.233383 0.670066
0.984246 -0.171034 0.904682
0.960033 -0.184912 0.736687
1.04236 -0.0731551 0.758935
0.964132 -0.197976 0.89383
1.02593 -0.0808445 0.860287
0.903778 -0.247292 0.690792
1.02665 -0.0809964 0.660128
1.00824 -0.139548 0.778148
0.948464 -0.168694 0.929597
1.03544 -0.11116 0.88667
0.962618 -0.168783 0.776523
1.07279 -0.0154102 0.701844
1.07631 -0.00769047 0.717301
0.928564 -0.233207 0.836683
1.0383 -0.0647823 0.666055
1.05998 -0.0384239 0.883444
1.07057 -0.0217893 0.692886
1.05121 9.51554e-05 0.741403
1.00702 -0.103141 0.671871
1.04402 -0.0467897 0.744541
0.933242 -0.263597 0.769931
0.977518 -0.169652 0.887709
1.04991 -0.0554441 0.757108
1.05998 -0.0395859 0.840623
1.04244 -0.0532515 0.833238
1.06457 -0.00382585 0.895391
1.0119 -0.103238 0.845061
0.958161 -0.192547 0.889075
1.0635 -0.00916946 0.883288
1.01115 -0.125987 0.925798
1.04834 -0.0380861 0.879997
0.981696 -0.18656 0.654301
0.922258 -0.270756 0.919961
1.03441 -0.0827923 0.693587
1.04982 -0.0506389 0.688582
1.09643 -0.0158628 0.820161
1.03681 -0.0594682 0.88614
0.99604 -0.121285 0.801263
1.02174 -0.071646 0.949111
1.08029 0.00397164 0.831142
0.962857 -0.201312 0.937303
0.997056 -0.15298 0.761335
1.02139 -0.106489 0.952233
1.07213 -0.0242979 0.702029
1.04432 -0.0670387 0.721448
1.01219 -0.11655 0.805171
0.965085 -0.15845 0.769247
0.97694 -0.18571 0.682552
1.06758 -0.0164953 0.741312
0.93639 -0.231729 0.791579
1.01629 -0.105491 0.866504
0.980053 -0.196951 0.722213
0.941316 -0.205902 0.762071
0.947349 -0.250619 0.940936
1.02526 -0.117827 0.906247
0.958133 -0.19778 0.702331
0.971903 -0.168788 0.758577
1.00122 -0.126907 0.761902
0.94976 -0.254589 0.916186
1.0365 -0.0842178 0.822338
0.951206 -0.210821 0.680341
0.996814 -0.101181 0.8794
1.00975 -0.105702 0.697306
1.04744 -0.0463316 0.684949
0.950326 -0.21729 0.902771
1.028 -0.0991362 0.799608
0.932678 -0.221283 0.757595
1.07416 -0.00773198 0.729237
1.02257 -0.116866 0.949507
0.983497 -0.123895 0.666129
0.985746 -0.177091 0.810048
0.988842 -0.128296 0.871453
0.993664 -0.134432 0.937215
1.01605 -0.119182 0.707465
1.05945 -0.000582795 0.763976
0.946261 -0.198667 0.678298
0.991545 -0.101665 0.790655
1.02662 -0.0972521 0.879098
1.07379 -0.0118719 0.941957
1.02978 -0.0739841 0.806958
0.943516 -0.254118 0.751468
0.920047 -0.24232 0.962546
0.964018 -0.158656 0.920689
0.968049 -0.18156 0.937714
1.01425 -0.0995876 0.807143
1.02291 -0.0993351 0.69337
1.07615 -0.00710422 0.939055
0.956225 -0.218904 0.897763
0.961547 -0.22446 0.67099
0.999162 -0.112384 0.777853
0.932946 -0.241889 0.726188
0.973952 -0.177797 0.691635
1.02646 -0.0840123 0.907495
0.931356 -0.256682 0.909433
0.993768 -0.154582 0.727948
0.999138 -0.095414 0.653858
1.0744 -0.00376852 0.784631
1.0004 -0.144039 0.86264
1.0674 -0.0282851 0.684904
1.03665 -0.0473589 0.869411
1.03036 -0.0931287 0.821377
1.01051 -0.0372194 0.938251
0.977165 -0.160615 0.907415
0.949201 -0.259211 0.708837
1.00119 -0.113564 0.661044
1.02059 -0.0818564 0.64199
1.00447 -0.106447 0.801876
0.922672 -0.228881 0.880033
0.979947 -0.135274 0.856163
1.01483 -0.104037 0.767615
1.07975 0.00283461 0.776697
1.05017 -0.0054762 0.968415
1.0049 -0.142042 0.748861
1.01551 -0.0905911 0.91268
1.06233 -0.00568234 0.831422
0.992712 -0.165419 0.756553
0.948472 -0.23515 0.877229
0.979771 -0.141558 0.678312
1.06474 -0.0289024 0.851851
1.03218 -0.0175686 0.646325
0.982237 -0.154329 0.909294
1.03173 -0.0533527 0.714375
0.982266 -0.163173 0.806626
0.947258 -0.194731 0.944587
0.988297 -0.147561 0.715533
0.976376 -0.164475 0.933126
0.991422 -0.146996 0.787511
0.939256 -0.251693 0.874927
1.04241 -0.0365636 0.819704
1.06609 -0.0120689 0.803497
0.945086 -0.22901 0.835495
0.948237 -0.248987 0.942071
0.991083 -0.154432 0.72512
0.923996 -0.252502 0.863848
0.976178 -0.171599 0.831638
1.09113 -0.0124595 0.820542
1.03686 -0.0764594 0.695183
1.0509 -0.0577503 0.924703
0.938875 -0.224577 0.750142
1.05088 -0.0583345 0.903518
0.969233 -0.21427 0.930022
1.03542 -0.075505 0.859906
1.02533 -0.0849014 0.883649
1.01337 -0.139892 0.896949
0.96179 -0.160334 0.696606
0.99174 -0.135212 0.709991
1.03013 -0.0976777 0.831179
0.922906 -0.209274 0.7399
0.962167 -0.233156 0.69805
0.96406 -0.165949 0.846554
0.941989 -0.236624 0.92664
1.03927 -0.0706314 0.869076
0.968593 -0.181117 0.750101
0.929726 -0.252212 0.787599
1.03728 -0.0710761 0.748924
0.937546 -0.236366 0.911581
1.04487 -0.0384849 0.942989
0.994243 -0.137877 0.883724
0.982001 -0.173281 0.823264
1.03582 -0.115058 0.816031
1.03433 -0.0875402 0.816143
0.955766 -0.231881 0.852332
0.982415 -0.171872 0.791419
0.939634 -0.237829 0.920133
0.941108 -0.2155 0.8611
0.954519 -0.216595 0.803249
0.96927 -0.20173 0.83874
0.939602 -0.242378 0.909079
0.993632 -0.137864 0.868057
1.01129 -0.118652 0.912334
1.00401 -0.129419 0.953787
1.07039 -0.0188024 0.879652
0.992755 -0.17606 0.906138
0.978454 -0.142684 0.757215
1.04229 -0.0520067 0.72766
0.980124 -0.152057 0.718329
0.986291 -0.148666 0.868891
1.04221 -0.0747216 0.899289
0.952514 -0.190897 0.762182
1.01798 -0.101026 0.852594
0.977215 -0.158618 0.890302
1.01816 -0.0900432 0.819089
1.08859 -0.0127545 0.851302
1.02686 -0.0889809 0.939178
0.983458 -0.1659 0.819088
0.986976 -0.139778 0.857517
0.948422 -0.215495 0.752541
0.985722 -0.158326 0.685663
1.01441 -0.1011 0.819818
1.04593 -0.0772978 0.660432
0.928682 -0.211065 0.790292
1.00858 -0.0550777 0.846179
1.02357 -0.0900697 0.898805
0.917989 -0.252609 0.894031
0.957516 -0.183315 0.734598
0.936319 -0.217942 0.726204
1.00841 -0.111118 0.873208
0.963055 -0.18847 0.713855
0.993781 -0.172069 0.868504
0.973405 -0.160334 0.799153
0.929894 -0.25286 0.735367
0.983882 -0.16933 0.690128
1.02251 -0.0968672 0.837747
1.04779 -0.0535806 0.700732
0.982102 -0.150075 0.795735
1.04546 -0.0595126 0.930197
1.02897 -0.0844304 0.841022
0.998293 -0.161054 0.751945
0.949534 -0.198616 0.864114
0.96083 -0.222519 0.66268
0.934986 -0.21596 0.696163
1.02826 -0.0885523 0.879152
1.02602 -0.0932357 0.916487
0.925752 -0.239098 0.872616
0.924961 -0.235511 0.857521
1.02063 -0.0803401 0.663601
0.941873 -0.234931 0.639934
0.979011 -0.175619 0.862143
1.04122 -0.0455365 0.799015
0.949629 -0.216582 0.919992
1.02282 -0.100515 0.896537
1.00176 -0.0991335 0.900488
1.06997 -0.0435442 0.875895
0.931827 -0.232988 0.74315
1.01841 -0.0881756 0.902959
1.03468 -0.0652467 0.816224
1.00334 -0.077131 0.80393
0.96742 -0.168625 0.685289
0.918082 -0.244023 0.890758
1.0122 -0.0984498 0.699033
1.05935 -0.0510929 0.831117
0.954468 -0.198957 0.848414
1.05406 -0.0468965 0.697999
0.919708 -0.24213 0.919283
1.01471 -0.0862846 0.688272
0.958273 -0.20322 0.862984
0.974392 -0.169726 0.66827
1.03436 -0.0593082 0.927458
0.937016 -0.25012 0.929058
1.05177 -0.0546344 0.820517
0.971928 -0.185048 0.911651
1.06845 -0.00746411 0.942855
1.02979 -0.0744213 0.758251
0.927891 -0.241526 0.757131
0.93509 -0.241308 0.665131
1.05272 -0.00646791 0.762708
1.0239 -0.076126 0.926374
1.02993 -0.122765 0.746356
0.970237 -0.164453 0.861977
1.04628 -0.012791 0.802935
0.972282 -0.157464 0.778113
1.04201 -0.0477835 0.787857
0.968778 -0.17077 0.693029
0.938137 -0.230928 0.797639
0.956701 -0.190209 0.724315
1.03219 -0.0829463 0.712795
1.05691 -0.0228701 0.828909
1.01329 -0.0935824 0.705724
0.989897 -0.0893736 0.830173
1.06329 -0.0232604 0.78905
0.984594 -0.113639 0.953747
0.995833 -0.135536 0.914056
1.02437 -0.105065 0.705715
0.958114 -0.203088 0.913294
0.954939 -0.188089 0.918288
0.955654 -0.220153 0.748902
1.0319 -0.0794643 0.851795
0.951231 -0.20532 0.944845
1.02701 -0.0827917 0.861289
0.981103 -0.148909 0.700493
0.998423 -0.135272 0.941672
0.993425 -0.133433 0.802803
1.05506 -0.0332668 0.877123
1.00602 -0.10092 0.802619
1.07114 -0.00591658 0.794075
0.967914 -0.157376 0.824012
1.0532 -0.0282825 0.939543
0.951188 -0.230433 0.73187
0.956987 -0.243196 0.756375
1.05847 0.00658798 0.937975
1.027 -0.0899284 0.874451
1.08605 -0.00767002 0.76433
0.919154 -0.253488 0.807392
0.945111 -0.221929 0.739823
0.990935 -0.163849 0.80015
0.953343 -0.229758 0.686805
0.98403 -0.130116 0.695004
0.960242 -0.169385 0.910012
0.932231 -0.239104 0.701625
0.974719 -0.173497 0.853066
0.964479 -0.204902 0.675112
1.04948 -0.0484112 0.698652
1.02682 -0.0748761 0.671309
0.981608 -0.157152 0.731798
0.998453 -0.153407 0.822335
0.932907 -0.214448 0.895292
0.940162 -0.247562 0.84607
0.95727 -0.200307 0.878007
0.940812 -0.212243 0.66865
1.02065 -0.0808547 0.85527
0.956247 -0.196371 0.678544
0.952717 -0.187232 0.880834
1.0452 -0.0587241 0.859223
1.00266 -0.148318 0.720768
1.00197 -0.157893 0.69785
1.06306 -0.0208694 0.654582
0.937993 -0.245453 0.862416
0.956919 -0.214048 0.81299
0.956152 -0.177259 0.703537
1.01191 -0.0795593 0.744579
1.02639 -0.0906788 0.738696
1.00305 -0.130867 0.85995
1.01144 -0.0895775 0.783239
0.997763 -0.120676 0.69373
1.03336 -0.0932604 0.639889
0.949736 -0.232871 0.888039
1.04074 -0.0697421 0.823314
0.941265 -0.234121 0.773279
0.982937 -0.156914 0.801937
0.923725 -0.248029 0.680651
0.945804 -0.230696 0.715317
1.06213 -0.0384253 0.690743
0.985148 -0.15232 0.924954
1.06139 -0.0447976 0.909964
1.0257 -0.0557585 0.954858
0.96653 -0.198886 0.873602
1.01746 -0.0603026 0.896313
0.96967 -0.198701 0.879053
1.05215 -0.0318973 0.883178
0.944509 -0.183417 0.747201
1.05204 -0.0467194 0.841778
0.948092 -0.258494 0.877247
1.02441 -0.127065 0.941045
0.928274 -0.242974 0.948588
0.998695 -0.135512 0.73076
0.956594 -0.164894 0.947395
1.06314 -0.0152737 0.839885
0.945592 -0.206593 0.785404
1.06811 -0.00472807 0.795486
1.01099 -0.133549 0.704362
0.951215 -0.179839 0.740108
0.971204 -0.212644 0.890862
0.98451 -0.181756 0.761109
1.04265 -0.0820566 0.944107
0.972452 -0.163329 0.908715
0.979208 -0.154339 0.771166
1.03782 -0.0626349 0.912464
0.997546 -0.123609 0.707453
1.06189 -0.0324538 0.875457
1.03339 -0.0792212 0.88129
0.966703 -0.165618 0.845506
0.945093 -0.188914 0.739864
0.973844 -0.169096 0.724535
0.925255 -0.246316 0.745926
1.02135 -0.0934768 0.787689
0.940061 -0.229757 0.883831
1.05016 -0.0599731 0.817531
1.04021 -0.0577656 0.747441
1.07232 -0.0028857 0.646883
0.906145 -0.253211 0.849114
0.949995 -0.210811 0.665469
1.05598 -0.0103064 0.914864
1.07034 -0.0311719 0.936918
1.06022 -0.0472634 0.75401
0.919321 -0.247451 0.861847
1.03502 -0.04623 0.945085
0.953005 -0.156863 0.907929
0.977866 -0.172678 0.887519
0.949725 -0.226226 0.786778
1.04428 -0.0571915 0.927075
1.02223 -0.0904452 0.893048
1.04588 -0.0844674 0.725341
1.02074 -0.0841891 0.812699
0.967931 -0.193731 0.893369
0.962855 -0.20529 0.705461
0.990724 -0.134243 0.730305
1.03921 -0.0503317 0.670556
1.06284 -0.0553115 0.684228
0.987726 -0.114567 0.724154
0.951383 -0.226755 0.941516
0.939523 -0.214074 0.691493
1.03399 -0.0957025 0.873763
0.947093 -0.239439 0.877574
1.06063 -0.00829676 0.92558
1.0661 -0.0484171 0.945672
1.00967 -0.117756 0.673545
0.939314 -0.259202 0.655839
1.01126 -0.123305 0.743241
1.06348 -0.0219187 0.808104
0.98891 -0.132047 0.774662
0.977024 -0.155361 0.708209
1.01221 -0.103627 0.842128
0.944187 -0.176991 0.705579
1.02354 -0.105424 0.909567
1.03313 -0.0391895 0.942392
0.998275 -0.131843 0.944261
0.945256 -0.244587 0.84112
1.00637 -0.106922 0.907642
0.965036 -0.144071 0.91504
0.958762 -0.206333 0.749238
1.04106 -0.0617058 0.79362
0.910561 -0.258783 0.803748
1.03265 -0.0618889 0.841215
0.93436 -0.240798 0.814954
1.02828 -0.0653719 0.74186
0.94038 -0.249039 0.798178
0.99591 -0.131037 0.856238
0.930766 -0.243212 0.766591
1.04889 -0.030547 0.676039
0.982962 -0.143962 0.910068
0.971493 -0.188917 0.89858
1.00095 -0.164381 0.892649
1.01577 -0.128951 0.818801
1.02094 -0.0781304 0.774194
1.01549 -0.143825 0.765042
1.02961 -0.0432777 0.660359
1.02441 -0.0827919 0.658852
1.02911 -0.0556262 0.709584
0.98392 -0.15694 0.741478
0.962704 -0.205754 0.649776
1.01181 -0.122247 0.817833
1.01451 -0.106208 0.751646
1.04275 -0.0469699 0.883948
0.999804 -0.14448 0.88216
1.00539 -0.114416 0.742816
0.956158 -0.233038 0.908103
0.929505 -0.228456 0.83954
1.06634 -0.0356023 0.906046
1.05418 -0.0569517 0.720785
1.00761 -0.130835 0.916419
1.06981 0.0206437 0.767221
0.969985 -0.159075 0.91608
0.975258 -0.14942 0.833813
0.984634 -0.141424 0.786768
1.00216 -0.164247 0.903487
0.931182 -0.240023 0.742637
1.03831 -0.0671185 0.790191
0.966705 -0.207452 0.927268
0.981203 -0.142036 0.861214
0.962622 -0.228369 0.80424
0.997058 -0.146466 0.800808
0.994413 -0.17115 0.714528
0.939767 -0.202755 0.7243
0.99448 -0.14415 0.683718
1.02957 -0.0724087 0.652371
1.04982 -0.0157767 0.794592
0.962911 -0.207395 0.804269
0.96717 -0.184423 0.747628
0.963916 -0.176004 0.738317
1.00612 -0.111704 0.783146
0.954068 -0.211112 0.84154
0.940647 -0.23737 0.826798
0.971091 -0.167323 0.67308
1.04613 -0.0416846 0.697961
1.06084 -0.0188287 0.678853
0.950773 -0.215165 0.68831
1.02036 -0.0958934 0.925993
1.06823 -0.00566267 0.898702
1.0691 -0.00177352 0.786386
0.972307 -0.18896 0.745742
1.04656 -0.0356011 0.805054
0.935237 -0.247626 0.879598
0.988101 -0.121295 0.687508
0.958707 -0.231335 0.863221
1.01195 -0.114137 0.726757
0.956601 -0.221197 0.913507
1.02031 -0.0925091 0.753121
0.937545 -0.25149 0.843782
0.994257 -0.115591 0.819019
1.03979 -0.0890455 0.691388
1.025 -0.0709448 0.9212
1.06105 -0.0405425 0.719803
0.937258 -0.266648 0.730189
1.00582 -0.135811 0.715671
0.925198 -0.250647 0.768541
0.998603 -0.136096 0.801674
0.954592 -0.214043 0.864433
0.956854 -0.209595 0.867855
1.02721 -0.106806 0.761734
0.94472 -0.199237 0.728414
1.08566 -0.00419688 0.749238
1.0018 -0.133824 0.818891
1.0184 -0.119681 0.876671
0.969168 -0.185363 0.796172
0.937957 -0.2578 0.70307
1.05439 -0.0325366 0.8253
0.966116 -0.217073 0.713453
0.943307 -0.221171 0.960082
0.937182 -0.216523 0.868848
0.995019 -0.120933 0.951717
0.968268 -0.15794 0.850505
0.942049 -0.255943 0.830908
0.941417 -0.246389 0.740629
1.05898 -0.0552024 0.922411
1.03281 -0.0497762 0.814594
0.944794 -0.201598 0.919361
1.04634 -0.0727045 0.864798
0.937333 -0.239841 0.895165
0.975047 -0.205137 0.827712
1.04812 -0.0476842 0.73142
0.983244 -0.148902 0.932533
1.04959 -0.059078 0.907083
0.970203 -0.171108 0.761481
1.00202 -0.126062 0.748616
1.05175 -0.0533474 0.828594
1.07793 -0.0219613 0.928893
1.05648 -0.0391799 0.702765
1.05184 -0.0561434 0.767904
0.960259 -0.205859 0.816381
0.951126 -0.235625 0.751151
0.969252 -0.136748 0.666867
1.04838 -0.0558153 0.775191
1.00908 -0.0908288 0.68
0.995966 -0.129993 0.775241
1.02603 -0.115272 0.632701
0.916223 -0.246944 0.951496
0.988391 -0.132295 0.936901
1.056 -0.0507666 0.785601
0.991118 -0.148606 0.851811
0.969352 -0.185106 0.670829
0.979323 -0.119849 0.667648
1.0592 -0.052011 0.86775
1.00918 -0.113505 0.789171
1.04971 -0.0358337 0.710791
1.06435 -0.0445583 0.849682
1.04306 -0.0288263 0.673001
0.943265 -0.220604 0.718309
1.05357 -0.0216391 0.660989
0.983925 -0.179834 0.683272
1.01126 -0.144286 0.857125
1.00994 -0.125558 0.705544
1.06496 -0.0218304 0.855741
1.03514 -0.0408988 0.696236
1.02017 -0.081753 0.69053
1.00585 -0.128639 0.904117
0.954266 -0.199616 0.869202
0.982441 -0.153448 0.914575
1.047 -0.0209531 0.681236
0.992953 -0.113757 0.702396
1.04847 -0.012093 0.932388
1.06897 -0.0128726 0.871979
1.00415 -0.145211 0.686676
1.03519 -0.0689573 0.946046
1.00223 -0.0866066 0.804497
1.00289 -0.104119 0.71871
0.970245 -0.181341 0.880425
1.01574 -0.0877732 0.647831
1.05927 -0.0237978 0.885297
0.970556 -0.1481 0.875632
1.04669 -0.0294063 0.914485
0.985881 0.158098 0.67182
0.94736 0.221233 0.816965
0.971693 0.149177 0.762877
0.986604 0.189669 0.65849
1.05101 0.0347087 0.740982
1.01475 0.116839 0.771472
0.995043 0.136323 0.927305
0.979589 0.169181 0.715517
1.04941 0.0360827 0.953369
1.05553 0.0170972 0.907386
1.04424 0.0905793 0.659458
1.01275 0.110433 0.89507
0.996875 0.144916 0.852376
0.975611 0.181197 0.812309
1.00738 0.113152 0.835564
1.03447 0.066049 0.824337
0.937132 0.235881 0.814537
1.01612 0.126958 0.88804
1.03796 0.0775541 0.680922
0.937982 0.240414 0.815822
1.05899 0.0440394 0.649314
1.04737 0.0669307 0.88315
1.06027 0.0344887 0.914325
1.09223 0.00297461 0.800859
0.983757 0.129903 0.82487
1.07064 0.000149595 0.748905
1.05074 0.0429334 0.677407
0.986449 0.133813 0.75537
0.999132 0.155051 0.7982
0.993681 0.130987 0.647649
1.0019 0.123212 0.85416
1.02652 0.103415 0.682667
0.950398 0.182193 0.905207
0.977566 0.189593 0.706526
0.957356 0.172953 0.691592
0.952621 0.207684 0.710742
1.00818 0.109767 0.749423
0.924218 0.236704 0.750924
0.981165 0.136817 0.846576
1.05629 0.0325927 0.786163
1.01277 0.116403 0.799918
0.987699 0.176729 0.927025
1.01677 0.097572 0.675607
0.947292 0.194228 0.904863
1.01306 0.0993874 0.858557
1.01279 0.125953 0.895079
0.979086 0.172143 0.905395
0.980755 0.19657 0.798982
1.04775 0.0211571 0.726685
1.04444 0.0790101 0.955024
1.00645 0.111221 0.900827
0.99212 0.156116 0.916327
0.912259 0.237723 0.736096
1.03165 0.0995261 0.907919
1.00562 0.105552 0.744729
1.01522 0.0988867 0.684168
1.04997 0.0451821 0.74663
1.05601 0.0555351 0.892772
1.07532 0.0226935 0.896619
1.04611 0.0527997 0.815618
0.947858 0.19768 0.692989
0.93066 0.255049 0.771873
1.01387 0.122888 0.663398
1.00431 0.137023 0.687822
1.0559 0.0300367 0.705646
0.985161 0.154342 0.63237
0.918985 0.26028 0.862294
1.09063 -0.00491743 0.909784
1.02983 0.0619771 0.741285
1.01868 0.12722 0.925762
0.967203 0.167184 0.782642
1.04182 0.126824 0.696973
1.02239 0.119486 0.785075
0.942453 0.246974 0.850318
0.978892 0.175234 0.754737
0.934774 0.259079 0.770555
0.984783 0.157795 0.799435
0.950493 0.207961 0.731512
1.07142 0.00556987 0.810008
1.01043 0.0833993 0.867867
1.03292 0.0804971 0.696966
1.06572 0.0450705 0.668848
0.94668 0.216387 0.856919
1.05322 0.0236158 0.94283
0.985955 0.113509 0.891953
1.01577 0.0780877 0.898047
1.00614 0.118474 0.933122
1.0584 0.0408148 0.846109
0.978334 0.158582 0.665838
1.00495 0.103557 0.752542
1.05184 0.0459786 0.90422
1.00589 0.0789225 0.85162
0.938133 0.220487 0.715143
0.952785 0.221235 0.930606
0.968671 0.169693 0.827774
0.981264 0.175463 0.752412
0.944896 0.232705 0.772462
1.00799 0.111123 0.84986
1.01811 0.0873906 0.774101
1.03551 0.0569318 0.705694
1.05796 0.0682975 0.828938
0.916988 0.248336 0.910528
1.02126 0.0866667 0.822431
1.02205 0.110356 0.899749
0.939034 0.211386 0.787066
0.951043 0.208269 0.744402
1.03388 0.0967332 0.721919
0.952274 0.187149 0.680197
1.03934 0.0542091 0.738475
1.0741 0.010454 0.800746
1.004 0.124087 0.709683
1.04176 0.0460479 0.845525
0.944733 0.194124 0.742882
1.07243 0.0115232 0.661416
0.98398 0.17553 0.721399
1.04271 0.0855158 0.677316
0.909516 0.241899 0.70588
1.03485 0.0603611 0.929845
0.929735 0.212281 0.711176
1.0613 0.0514063 0.877343
0.92171 0.257224 0.681594
0.959148 0.189962 0.885739
0.948951 0.218252 0.724696
1.04862 0.0330837 0.861024
0.924176 0.221649 0.66303
0.988736 0.165883 0.814112
0.997534 0.179687 0.637762
0.971459 0.154384 0.953603
1.04617 0.0315076 0.687267
1.01867 0.102821 0.927027
1.04122 0.055992 0.751712
1.05288 0.0216213 0.733658
0.997529 0.13593 0.747279
1.05142 0.0233841 0.922124
0.936413 0.23863 0.710032
1.04782 0.030364 0.798811
1.06268 0.025749 0.683802
1.05766 0.0278687 0.880877
0.942941 0.238804 0.879021
1.05852 0.0384606 0.783841
0.995725 0.1441 0.916906
0.968767 0.183515 0.906508
1.0014 0.142089 0.947887
1.03344 0.0719666 0.855525
1.01543 0.0922835 0.916357
1.05595 0.0806777 0.9387
0.991623 0.156251 0.670723
1.0308 0.0949199 0.787818
0.984733 0.152824 0.893167
1.01566 0.112555 0.852007
1.03354 0.0791151 0.719276
0.976905 0.163924 0.724696
0.936156 0.228 0.87797
1.05992 0.00604617 0.761275
1.04125 0.0667805 0.79733
1.03807 0.0788358 0.927816
0.97115 0.174938 0.913416
1.03993 0.0647928 0.919042
1.0421 0.0690187 0.765002
0.928859 0.23004 0.904317
0.990689 0.176504 0.723893
1.05845 0.0456017 0.921684
0.946292 0.203126 0.677023
0.965051 0.182559 0.925648
0.971988 0.201791 0.868514
0.951964 0.18955 0.825208
0.941371 0.236618 0.825264
1.00356 0.122253 0.81255
0.924039 0.274133 0.786153
1.05948 0.0304927 0.924666
0.963628 0.172695 0.742039
0.99946 0.16551 0.750802
0.940774 0.227807 0.861538
1.07499 -0.000778758 0.662049
0.940829 0.21465 0.942207
1.01478 0.104142 0.78426
1.08867 0.00172496 0.843545
1.0063 0.102619 0.907872
1.04623 0.0121976 0.833557
0.995055 0.121992 0.667692
1.01271 0.154143 0.935768
0.975161 0.168174 0.763702
1.00025 0.107342 0.874244
1.02339 0.100587 0.627217
1.04203 0.0528462 0.730083
0.973009 0.196861 0.680766
1.0101 0.0920066 0.92219
1.0446 0.0540299 0.818479
1.03464 0.0825509 0.654893
1.03565 0.0385415 0.911299
1.06414 0.017371 0.808923
0.950281 0.234072 0.74587
1.03428 0.0814251 0.69641
1.02512 0.100905 0.888677
1.04708 0.0443162 0.758414
0.940462 0.229538 0.79168
0.990006 0.158956 0.675119
0.974952 0.159788 0.921492
1.0605 0.0456476 0.943604
0.940441 0.23017 0.64208
1.02425 0.101272 0.749261
0.966079 0.163617 0.934478
1.01062 0.111604 0.691122
1.02306 0.0883614 0.9173
0.930175 0.22369 0.889979
1.01517 0.124375 0.709098
0.977231 0.165181 0.756264
0.952341 0.197097 0.698029
0.965001 0.166723 0.791203
0.988451 0.13812 0.810518
0.953503 0.202351 0.850946
0.985037 0.183926 0.759929
0.995978 0.0996709 0.75701
0.923298 0.254631 0.841417
0.999418 0.139661 0.817254
1.05891 0.069255 0.855275
0.988603 0.182795 0.69296
1.00726 0.102747 0.870383
0.941409 0.242985 0.66968
1.04442 0.0579251 0.716611
0.956689 0.197981 0.719233
0.99536 0.115376 0.71796
1.03801 0.0482429 0.75181
1.00159 0.105131 0.827435
0.938516 0.220017 0.902259
0.985499 0.143469 0.915344
1.01513 0.089506 0.660206
0.945752 0.219749 0.681735
0.95937 0.23645 0.716305
1.039 0.0646817 0.662247
1.03252 0.110054 0.73413
1.0689 0.0167822 0.863782
1.03528 0.0560765 0.827003
0.96832 0.200557 0.922666
1.02455 0.110229 0.905075
1.04247 0.0441329 0.847589
1.04829 0.0390563 0.775084
1.03938 0.0782029 0.836916
1.00384 0.135859 0.88362
0.997178 0.147284 0.869084
1.0137 0.0933722 0.67339
1.05133 0.0336555 0.945185
1.06629 0.0195581 0.873527
1.00726 0.102373 0.883189
0.970661 0.176585 0.923923
1.06675 0.0475551 0.899791
1.04414 0.0440415 0.792394
1.00807 0.0945508 0.90242
1.04376 0.0181005 0.913964
1.03887 0.0338011 0.689819
0.958558 0.224277 0.867532
0.917845 0.251002 0.877468
1.00139 0.145048 0.653557
0.99745 0.142314 0.911767
0.942163 0.199053 0.655161
0.964173 0.184668 0.77412
0.925521 0.248174 0.934211
1.01117 0.09148 0.769377
1.06083 0.0574404 0.867329
0.939785 0.269663 0.903751
0.917374 0.244295 0.759367
1.02844 0.0782758 0.965327
1.03422 0.0745529 0.81532
0.937486 0.242119 0.66789
1.05613 0.0398376 0.738086
1.06008 0.0216938 0.783171
1.01774 0.100931 0.709173
0.989482 0.141386 0.755473
1.05362 0.0115298 0.758005
0.980601 0.172429 0.887304
1.05592 0.00549943 0.778242
1.02151 0.108465 0.914216
0.988914 0.172046 0.847475
0.982042 0.138702 0.942205
0.961603 0.180676 0.703975
0.924103 0.254248 0.827269
1.02955 0.102217 0.830254
0.940989 0.194186 0.849073
0.935758 0.215153 0.847851
1.06782 0.0280715 0.8678
1.05231 0.0516739 0.869007
1.01596 0.113672 0.743566
0.944679 0.223952 0.929096
1.02708 0.0614446 0.861797
0.919851 0.261886 0.701032
1.03797 0.0659581 0.916845
0.917832 0.23798 0.763506
0.935912 0.223072 0.895498
0.949452 0.214803 0.722953
0.98321 0.102137 0.88032
0.99409 0.113024 0.682685
1.0273 0.0744123 0.812324
1.05024 0.0371756 0.779961
0.942897 0.252976 0.693906
1.0478 0.0553502 0.832511
1.00502 0.120532 0.93677
1.0223 0.103249 0.800602
1.00047 0.119801 0.745011
0.935774 0.231719 0.884705
1.0621 0.0363643 0.811354
1.00249 0.108164 0.732783
1.03978 0.0368499 0.859369
1.0446 0.0321456 0.791483
1.05163 0.0464339 0.782187
1.04434 0.0177485 0.949702
0.997667 0.129602 0.660789
0.946562 0.229779 0.763316
1.04216 0.0596756 0.839368
1.01607 0.101039 0.859323
1.06854 0.0170915 0.894558
0.951564 0.223092 0.926693
1.03677 0.0441194 0.766959
1.03991 0.0777256 0.788353
0.937068 0.248471 0.662621
1.08485 -0.00371341 0.891268
0.957056 0.193259 0.730525
1.00259 0.146897 0.65868
1.06304 0.0604171 0.778531
1.031 0.0696414 0.804496
1.03883 0.0780555 0.698768
0.97895 0.167796 0.780208
0.948602 0.211636 0.78825
1.02851 0.106168 0.717492
1.05349 0.036779 0.752232
1.06458 -0.00137169 0.761213
0.964655 0.179879 0.777493
1.02337 0.0693862 0.702117
1.03235 0.0643838 0.730948
0.952872 0.228011 0.659789
0.965422 0.197939 0.747869
1.00128 0.132753 0.686509
0.991636 0.117875 0.792393
0.924845 0.242562 0.853195
0.943347 0.23445 0.804691
0.956851 0.215562 0.763467
0.999184 0.140821 0.851343
0.935208 0.274282 0.877956
0.985136 0.165303 0.716403
0.978332 0.163898 0.864335
1.09375 0.00140208 0.757913
0.941642 0.248734 0.656321
1.00665 0.0889582 0.796465
0.97892 0.168305 0.789524
0.938257 0.269295 0.646697
1.0003 0.137187 0.677839
0.932818 0.228892 0.892843
0.985163 0.182325 0.70193
0.964452 0.199112 0.754869
1.05274 0.0397275 0.888381
0.943886 0.19061 0.761421
0.986327 0.141911 0.702951
1.05631 0.0404914 0.904997
0.982826 0.158456 0.726768
0.945773 0.194616 0.817551
1.01484 0.120146 0.870653
0.940027 0.235935 0.768739
0.951733 0.262694 0.6844
0.96552 0.190294 0.783882
1.02404 0.10758 0.876012
1.03855 0.0367055 0.685086
1.04064 0.0773264 0.892625
1.00533 0.115197 0.957016
0.948076 0.217283 0.826646
1.07142 -0.00505055 0.704396
1.07156 0.0140942 0.682461
1.01391 0.0948581 0.802042
1.03481 0.0499674 0.77558
1.00351 0.114941 0.85813
1.01251 0.0971881 0.812104
0.990575 0.152419 0.893665
1.05804 0.00883187 0.721563
1.06319 0.0186988 0.946624
1.05242 0.0519937 0.698115
0.934689 0.264078 0.794502
0.948218 0.219914 0.786956
1.03209 0.0854122 0.683507
0.996248 0.129379 0.859698
0.978631 0.15398 0.771015
1.02926 0.0780753 0.906063
1.01439 0.106423 0.731757
1.06309 0.0339833 0.895668
1.00808 0.120567 0.936533
1.00555 0.11543 0.894226
0.937725 0.228607 0.906613
1.04043 0.0791905 0.765486
0.951446 0.217553 0.730838
0.998401 0.0985758 0.779484
0.952649 0.201783 0.692698
1.04364 0.0512457 0.850001
1.02213 0.148162 0.665343
0.978592 0.136952 0.819059
1.01078 0.0808683 0.696684
0.987209 0.155004 0.672628
1.0473 0.0370809 0.844815
0.943049 0.216225 0.84395
1.02903 0.0825367 0.767843
0.982698 0.17407 0.738682
0.959425 0.219293 0.849354
1.06493 0.0179366 0.688496
1.04072 0.0673891 0.854251
1.01843 0.061838 0.755891
0.982094 0.186863 0.829948
1.06477 0.0213861 0.698039
1.05199 0.0884741 0.821422
1.03994 0.0790065 0.763755
0.941728 0.243408 0.678589
0.998138 0.107642 0.73272
1.04519 0.0748794 0.900417
1.02348 0.0806795 0.66322
1.01957 0.131182 0.657105
0.9662 0.162541 0.717012
1.05193 0.0213383 0.826192
1.06695 0.0186254 0.718708
0.972732 0.157647 0.927047
0.912052 0.248091 0.771281
0.952287 0.190384 0.787651
1.03823 0.0508944 0.668836
1.04312 0.0445328 0.890806
0.997245 0.119872 0.921566
1.02764 0.091061 0.67477
1.07484 0.0308799 0.797418
0.992209 0.173427 0.670828
0.998114 0.103893 0.765737
1.02698 0.0654692 0.884269
0.926883 0.243546 0.913013
0.972634 0.176494 0.773127
0.966152 0.214154 0.944884
0.978063 0.163846 0.830706
0.953518 0.210795 0.883398
1.02927 0.0768545 0.798895
1.02631 0.10264 0.802357
1.0765 0.0302625 0.82896
1.00553 0.135589 0.888505
1.05509 0.042014 0.937338
0.997119 0.145633 0.80992
1.01754 0.110549 0.9276
0.917777 0.247391 0.848065
1.01817 0.104798 0.7759
0.935166 0.217905 0.675343
1.04931 0.0899547 0.857554
0.966458 0.190172 0.752058
0.962716 0.205747 0.687956
1.01466 0.0820877 0.916901
1.00344 0.0989685 0.732398
0.987865 0.142585 0.748609
0.999638 0.145311 0.752304
1.0064 0.108926 0.896259
1.054 0.0231539 0.716383
1.00576 0.137432 0.912571
1.06565 0.0178587 0.656202
1.02882 0.108868 0.917207
1.04879 0.0785928 0.72925
0.961376 0.176936 0.793372
1.02647 0.0730183 0.916552
0.955819 0.178417 0.865205
1.06621 -0.00523517 0.677888
0.970597 0.174375 0.683451
0.99342 0.13034 0.786812
1.01115 0.0630468 0.931274
0.990758 0.138722 0.875903
1.02756 0.0917266 0.744416
0.921176 0.23642 0.699291
0.924051 0.270258 0.731321
1.07164 0.0182498 0.844287
0.97289 0.190065 0.67283
0.927916 0.201584 0.898881
0.936178 0.218436 0.710928
0.943279 0.24456 0.724641
0.992333 0.147107 0.681846
0.953086 0.220027 0.740001
1.09161 0.022521 0.76899
1.02341 0.0821115 0.877164
0.959439 0.225332 0.768481
0.964605 0.2123 0.83749
0.949836 0.218612 0.850504
0.919395 0.240388 0.874075
0.984941 0.164771 0.844932
1.05656 0.0662615 0.861617
0.919321 0.243158 0.868872
0.997967 0.12244 0.925877
0.950102 0.198216 0.8965
1.03751 0.0683724 0.668255
1.07173 0.0170539 0.904045
0.97479 0.198571 0.684928
0.954953 0.22049 0.685736
0.938015 0.250378 0.81915
0.961333 0.211365 0.901569
1.00153 0.145576 0.790879
0.978099 0.171278 0.944353
0.929504 0.25999 0.811914
1.05155 0.0733394 0.941766
1.02455 0.116827 0.763555
0.981813 0.158601 0.943979
0.944547 0.227452 0.700361
0.9417 0.222005 0.73962
0.992757 0.150156 0.810669
1.0441 0.0728848 0.739597
1.02664 0.0616952 0.699764
0.944241 0.242145 0.769804
1.05573 0.0321449 0.794423
0.994251 0.144243 0.859947
1.05115 0.0486139 0.717701
1.04496 0.0350142 0.758458
1.06754 0.00714346 0.940093
0.995652 0.143024 0.906352
1.04209 0.0647674 0.689522
1.04666 0.108196 0.781756
1.00664 0.131923 0.762982
1.07804 -0.0178153 0.915644
0.95931 0.183897 0.802229
1.04986 0.0340211 0.684112
0.968349 0.159834 0.845216
0.970587 0.145324 0.69113
0.952129 0.221292 0.697024
1.04095 0.0416367 0.902848
0.981779 0.175208 0.802029
1.03353 0.0332978 0.775695
0.933596 0.267922 0.73274
0.983228 0.145465 0.946705
1.01031 0.141918 0.662906
0.995994 0.0933559 0.828378
0.999247 0.117603 0.870829
0.99361 0.136892 0.934271
0.987502 0.143185 0.696741
0.930696 0.240676 0.769554
1.03153 0.0583806 0.679265
0.982005 0.151922 0.794447
0.980449 0.168692 0.878151
0.920641 0.234759 0.955056
0.98248 0.17972 0.802962
1.07357 0.017654 0.736309
1.0616 0.0194172 0.930927
1.04057 0.0659325 0.918598
1.05109 0.0723662 0.946946
0.978817 0.170668 0.829019
0.987024 0.18964 0.703517
0.945253 0.240212 0.943925
1.06416 0.0564244 0.880494
1.03021 0.0378282 0.669511
0.998948 0.130446 0.771245
1.05776 0.0197457 0.727774
1.01853 0.076782 0.709687
0.977832 0.169853 0.888952
1.07657 -0.00370214 0.91875
1.02531 0.109859 0.717374
0.998676 0.16423 0.647338
0.946497 0.256482 0.770746
0.992344 0.129478 0.868873
0.953902 0.219741 0.680716
0.949211 0.220017 0.844164
0.965037 0.184936 0.83342
0.944933 0.213484 0.951414
0.995445 0.111298 0.903908
1.03931 0.0100047 0.714499
1.00226 0.148752 0.689488
0.950198 0.2094 0.639739
1.00376 0.137556 0.811692
1.07977 0.00196644 0.869805
1.00107 0.109237 0.848151
0.984288 0.136324 0.759969
0.953069 0.260714 0.7866
0.925882 0.233882 0.961429
1.0053 0.110905 0.768533
0.981595 0.168365 0.910609
0.943145 0.254181 0.814135
1.04304 0.109572 0.752288
1.05027 0.0207284 0.900345
0.998 0.112497 0.680161
0.934265 0.233811 0.841454
0.93982 0.245421 0.656197
1.01894 0.104499 0.879328
0.9764 0.199117 0.709051
1.01064 0.124786 0.81044
1.05769 0.0549576 0.928494
1.01025 0.126419 0.713341
1.02404 0.108292 0.932151
1.01712 0.113677 0.789599
1.06429 0.0310451 0.890008
0.928919 0.224758 0.829849
0.910357 0.252366 0.782725
1.04948 0.0194087 0.809587
1.06997 0.042332 0.926841
1.01565 0.117726 0.729479
1.05396 0.00591805 0.882902
1.01014 0.10995 0.80931
0.928434 0.239269 0.804014
0.981073 0.178698 0.693916
0.967002 0.18356 0.91931
1.05316 0.0353536 0.748693
0.957931 0.211633 0.926984
1.03634 0.0416336 0.925904
0.96226 0.194372 0.866577
0.973588 0.193979 0.882696
0.996036 0.133622 0.882585
1.0048 0.0951575 0.68894
1.03097 0.0965141 0.711101
0.964147 0.163545 0.824746
1.08066 0.0475394 0.754773
1.05294 0.0195307 0.686848
1.0247 0.0826901 0.862616
1.03758 0.0317978 0.950143
0.965534 0.190833 0.853802
1.04125 0.0703849 0.748957
1.06681 0.0129932 0.766505
0.970526 0.162141 0.72964
1.0545 0.0254622 0.934385
0.955717 0.211073 0.910785
0.99285 0.130821 0.902942
1.01993 0.0969874 0.838097
0.974494 0.149445 0.818568
0.992626 0.195716 0.846627
1.04525 0.0377761 0.84747
1.00377 0.103099 0.792143
1.05939 0.0257128 0.924656
1.04338 0.045869 0.868649
1.0306 0.039304 0.81122
1.03085 0.0635052 0.841923
1.05564 0.0311239 0.902964
1.0198 0.134608 0.872072
0.980989 0.145809 0.902821
0.997941 0.108836 0.942742
0.935338 0.253722 0.885443
1.01827 0.108741 0.907715
0.999831 0.1395 0.749227
0.96109 0.217963 0.726222
1.01306 0.0949257 0.747942
0.999878 0.105299 0.84958
0.954582 0.190098 0.92033
1.07352 0.0413097 0.769457
0.978845 0.151054 0.854497
1.01302 0.107626 0.887978
0.991402 0.175495 0.821215
0.932487 0.259711 0.839495
0.962216 0.165401 0.951083
1.02689 0.0808501 0.815131
0.99708 0.134856 0.877097
1.03572 0.0453888 0.744453
0.996502 0.104486 0.666565
0.976126 0.1693 0.856516
0.950482 0.204107 0.674424
1.05574 0.0349521 0.777453
0.961445 0.174832 0.849772
0.97118 0.164406 0.903698
1.05573 0.0107352 0.894386
1.03024 0.0824945 0.745154
1.04206 0.0580285 0.716602
0.996933 0.151237 0.89347
1.04735 0.0613745 0.712977
1.02394 0.0940261 0.884715
1.01983 0.112074 0.830366
1.0667 0.00971935 0.73245
1.01731 0.101027 0.692698
0.975998 0.171053 0.843913
0.948144 0.228991 0.701421
1.00596 0.119149 0.807847
0.96552 0.185811 0.93327
0.971966 0.169946 0.844841
1.00583 0.110043 0.733827
1.03043 0.0464071 0.867171
1.03163 0.0537482 0.649825
1.06765 0.0274497 0.690707
0.981435 0.17439 0.876914
0.991889 0.155631 0.895508
1.07427 0.0141537 0.87214
1.07032 0.0098204 0.863119
0.967978 0.157243 0.67846
1.05247 0.0202589 0.647165
1.02413 0.0785025 0.872802
0.945994 0.173236 0.79633
1.03565 0.0444052 0.906149
0.972842 0.155859 0.898224
0.979511 0.135745 0.895282
0.94477 0.19603 0.873255
1.05718 0.0280551 0.762006
0.966563 0.175586 0.882172
0.96894 0.201938 0.815114
0.979192 0.17108 0.799097
1.03223 0.0705138 0.65911
1.06295 0.0218343 0.863842
0.97273 0.166128 0.70373
0.945795 0.218951 0.831329
1.03634 0.0363687 0.823058
0.965033 0.207633 0.710619
1.06684 0.0264597 0.927233
1.0038 0.164013 0.694322
1.04616 0.0506847 0.882729
1.02427 0.0823769 0.65827
0.962316 0.199855 0.913833
1.07754 0.0149246 0.93529
0.938733 0.220049 0.831212
1.05066 0.0794681 0.902821
0.925398 0.239812 0.926522
0.982816 0.168142 0.756269
1.06533 -0.00524414 0.771118
1.06692 0.00935539 0.669691
0.942272 0.229459 0.782739
0.971169 0.172257 0.922892
0.999126 0.137808 0.73132
1.00676 0.0908009 0.838459
0.928993 0.269904 0.830764
1.02658 0.0793026 0.786942
0.9579 0.178145 0.760741
1.00767 0.106409 0.713771
1.07034 0.0265524 0.782868
1.03015 0.0724247 0.720427
0.942519 0.194766 0.710747
0.938028 0.231883 0.814176
0.9894 0.147281 0.65369
0.976355 0.158613 0.842918
0.931582 0.244785 0.75913
1.00595 0.123162 0.957221
1.00102 0.138155 0.917294
0.993763 0.139871 0.719171
1.03892 0.0447154 0.90928
1.03852 0.0872589 0.910528
1.05507 0.0513762 0.759596
0.962792 0.205155 0.853217
1.06072 0.0260745 0.946161
0.960492 0.163541 0.813348
1.02047 0.129976 0.677589
0.99816 0.119941 0.941681
1.00076 0.128359 0.816702
0.949018 0.202825 0.91342
0.988878 0.155273 0.792435
0.945664 0.239845 0.801702
1.02012 0.0998758 0.847829
0.920693 0.216263 0.935508
1.0589 0.0372362 0.703539
1.07435 0.007874 0.757839
0.91724 0.253882 0.958116
0.965111 0.18059 0.871738
0.925524 0.249753 0.776917
1.05781 -0.00155609 0.812921
1.06904 0.0411073 0.739595
1.02398 0.0929477 0.788755
1.04986 0.00701706 0.685768
1.01543 0.125647 0.699134
1.02165 0.0688357 0.907892
1.0782 0.0246888 0.699802
1.0204 0.0828339 0.872584
1.049 0.049516 0.688199
0.946436 0.230542 0.693286
0.97385 0.186725 0.689137
0.977708 0.127646 0.740127
0.998292 0.119194 0.826529
1.05879 0.0452452 0.897798
1.07323 0.00564742 0.85167
1.03188 0.0656797 0.867766
1.03963 0.0388474 0.665737
0.990082 0.151275 0.876631
1.02619 0.0628062 0.684617
1.06614 0.0519521 0.886223
0.949594 0.204788 0.88016
1.00126 0.135985 0.724671
1.02031 0.126069 0.691028
0.937657 0.239912 0.685974
1.05262 0.00996804 0.846376
1.05725 0.0377752 0.800423
1.02147 0.0512812 0.701915
0.968689 0.164377 0.744371
0.982125 0.165948 0.750205
0.991179 0.135323 0.877011
0.995506 0.144594 0.783829
1.00771 0.120202 0.699096
0.967685 0.173097 0.642998
1.06846 0.0283572 0.87845
0.970582 0.207667 0.803918
1.03956 0.0285546 0.758626
1.01377 0.10192 0.792363
1.08926 -0.00503053 0.673851
1.05505 0.0325051 0.736726
0.957664 0.221944 0.687221
0.997144 0.110572 0.924385
0.953992 0.221481 0.909129
0.959575 0.21705 0.933315
1.04697 0.0706888 0.867576
0.983522 0.171502 0.900714
1.02707 0.0854991 0.892431
0.927528 0.231738 0.87938
1.02732 0.0511077 0.743462
0.944321 0.235451 0.86151
1.06534 0.0134646 0.901001
0.968577 0.136723 0.948529
1.08312 0.0142786 0.948344
1.01443 0.106852 0.720898
1.03637 0.085995 0.94782
0.933731 0.223247 0.866002
1.05585 0.0220802 0.805887
0.94945 0.26463 0.817411
1.00113 0.136566 0.724417
1.03577 0.0683617 0.727212
1.02426 0.0505655 0.918256
1.01762 0.105059 0.780536
0.977005 0.187601 0.938225
1.03747 0.0842488 0.914087
1.04327 0.0791814 0.761721
0.959823 0.184244 0.912872
0.99469 0.145708 0.697432
0.952243 0.218113 0.882994
0.978066 0.188353 0.892431
1.02794 0.112087 0.837406
1.03928 0.0635279 0.741112
1.03204 0.103798 0.730344
1.07345 0.00395853 0.71957
0.98988 0.151792 0.779869
1.05334 -0.0020212 0.900552
0.979241 0.205403 0.841005
0.957391 0.170071 0.740984
0.925668 0.257696 0.647148
1.08616 -0.00737468 0.842791
1.01826 0.050523 0.651508
0.939909 0.2428 0.915797
0.917593 0.237927 0.926751
0.9586 0.21571 0.773449
1.05213 0.00211242 0.870155
0.941398 0.22267 0.942589
1.02699 0.09802 0.907539
