ply
format ascii 1.0
comment Created by Open3D
element vertex 1734
property double x
property double y
property double z
end_header
0.990918 -0.112842 0.795591
0.95924 -0.066723 0.784353
0.944229 -0.0210062 0.897759
0.98304 -0.105065 0.684474
0.975261 -0.0845802 0.719729
0.965903 -0.0656258 0.92702
0.992725 -0.113653 0.766899
0.963759 -0.0654137 0.88338
1.04424 -0.210464 0.834346
0.952253 -0.0466136 0.854964
0.942008 -0.0262009 0.930404
1.02169 -0.164759 0.838467
0.953134 -0.0531292 0.892189
0.979421 -0.107045 0.937339
1.06187 -0.231756 0.698668
1.0294 -0.183815 0.892427
0.95089 -0.0515117 0.674623
0.941769 -0.0245904 0.729967
1.06508 -0.236806 0.708805
1.04346 -0.201359 0.861901
0.964881 -0.0648498 0.909402
0.974015 -0.0812932 0.853969
0.937351 -0.0190866 0.900075
1.05682 -0.232037 0.920924
0.997795 -0.116032 0.770674
1.05238 -0.211705 0.876314
0.946528 -0.0416618 0.926799
0.982532 -0.0977136 0.926452
1.03495 -0.180869 0.689062
1.05903 -0.223972 0.775741
0.925621 -0.00601707 0.781194
1.00164 -0.123685 0.920979
0.982681 -0.0883917 0.730516
1.00425 -0.136955 0.883192
1.00018 -0.133351 0.66972
0.98787 -0.106878 0.949863
1.037 -0.194054 0.805771
0.974099 -0.0877861 0.948967
0.95394 -0.0471013 0.692692
0.947714 -0.0527215 0.863608
1.05597 -0.227944 0.740594
0.926458 -0.00696873 0.917069
0.943051 -0.0308112 0.837214
1.02713 -0.183804 0.897332
1.06527 -0.239303 0.93109
0.995072 -0.123304 0.854805
1.03606 -0.196181 0.810164
1.05119 -0.208394 0.6774
1.06827 -0.238181 0.88583
1.06977 -0.258465 0.915722
1.04106 -0.206232 0.651519
1.05106 -0.213951 0.9127
0.997711 -0.12209 0.810013
0.983297 -0.106819 0.664822
1.03179 -0.168716 0.80109
0.986513 -0.10501 0.78333
1.00286 -0.12952 0.715566
0.926642 -0.00497062 0.798374
0.991403 -0.107146 0.676659
1.02687 -0.180851 0.678527
1.03401 -0.188019 0.941897
0.965691 -0.0763253 0.660783
0.981627 -0.0980173 0.696785
1.07546 -0.251066 0.658976
0.924824 -0.00831555 0.669186
0.991737 -0.116723 0.836571
0.996631 -0.126411 0.775486
1.03117 -0.181459 0.836494
1.02176 -0.163416 0.803122
1.00988 -0.150474 0.860179
1.04675 -0.210763 0.914038
1.02565 -0.174795 0.933075
0.958794 -0.0641499 0.823181
1.05598 -0.226996 0.84458
1.02301 -0.17029 0.792142
0.930258 -0.0135453 0.92198
0.968696 -0.0742983 0.741699
0.96053 -0.0680292 0.732678
1.01373 -0.146371 0.760977
0.970893 -0.077296 0.892634
1.07085 -0.252379 0.8214
0.937946 -0.0166143 0.903881
0.997857 -0.122839 0.831533
0.962397 -0.0693905 0.905205
1.00458 -0.154274 0.846065
0.936127 -0.0130869 0.763493
1.01902 -0.154479 0.919896
0.99142 -0.118568 0.683252
1.05477 -0.228295 0.818615
1.02863 -0.186147 0.744858
0.973173 -0.0855388 0.715891
1.01985 -0.163536 0.717604
0.924994 0.000398447 0.707977
1.02155 -0.172916 0.710748
1.0702 -0.245567 0.872097
1.04121 -0.211547 0.667101
0.989398 -0.109688 0.817424
1.04889 -0.216023 0.728464
1.04333 -0.210989 0.855609
1.02926 -0.194181 0.843359
0.94898 -0.0502354 0.908807
1.05532 -0.218534 0.701946
0.941456 -0.0322794 0.853601
0.940081 -0.0344296 0.822861
1.02382 -0.167081 0.902914
1.00821 -0.137988 0.907086
1.04597 -0.206233 0.864517
0.977003 -0.0817779 0.876919
1.00425 -0.136306 0.90593
0.993205 -0.119133 0.785641
1.02943 -0.187651 0.720222
1.00874 -0.150892 0.704079
1.03267 -0.186454 0.845135
0.992729 -0.113939 0.800687
0.984326 -0.089183 0.824261
1.01092 -0.14404 0.748288
1.01226 -0.142673 0.89566
1.03949 -0.194806 0.841152
0.934232 -0.0219573 0.753907
0.925547 -0.00666855 0.789945
0.994001 -0.117119 0.897276
0.938459 -0.0200877 0.939202
1.01349 -0.149126 0.790025
1.04804 -0.207166 0.658082
1.02139 -0.17531 0.944818
0.935212 -0.009589 0.943057
1.04096 -0.203806 0.864536
0.93482 -0.0165124 0.87507
0.949793 -0.0392347 0.937324
0.976034 -0.0879867 0.654629
0.931443 -0.0257913 0.910244
1.00042 -0.14062 0.713908
0.994527 -0.126331 0.706456
0.962548 -0.0648651 0.784492
0.940326 -0.037006 0.853327
0.959322 -0.0670462 0.943444
1.05276 -0.227394 0.82597
0.972221 -0.0711161 0.948687
0.980981 -0.112787 0.685636
0.960975 -0.0660093 0.686034
1.0114 -0.153726 0.946276
0.962173 -0.0637886 0.887928
1.0496 -0.213481 0.691035
1.03863 -0.198809 0.939511
1.0699 -0.255585 0.820052
0.997236 -0.129969 0.797896
1.07209 -0.254101 0.688085
0.996313 -0.122027 0.696178
1.06214 -0.236863 0.670216
1.03146 -0.17745 0.659089
1.05072 -0.22367 0.65377
0.964246 -0.0644357 0.898841
1.04399 -0.208568 0.813651
1.02024 -0.154726 0.753052
1.06947 -0.2457 0.692697
0.949175 -0.0504003 0.880132
1.03343 -0.191387 0.731168
0.963459 -0.0626567 0.825262
0.951858 -0.0502365 0.83185
0.953962 -0.0418166 0.724791
1.03876 -0.186405 0.850248
0.926617 -0.00150817 0.673077
0.949288 -0.0394939 0.7452
1.00197 -0.129356 0.838132
1.00228 -0.139531 0.723113
0.988265 -0.132449 0.756155
0.980069 -0.0928571 0.884699
1.04342 -0.203267 0.811146
0.992917 -0.116123 0.736274
1.06921 -0.243491 0.707846
1.01407 -0.150914 0.748436
1.07181 -0.257052 0.693729
0.928858 -0.0122876 0.93882
1.01516 -0.156856 0.699288
1.04916 -0.209747 0.807915
1.0214 -0.168646 0.747868
0.957112 -0.0401316 0.697834
1.03696 -0.189348 0.910386
1.07493 -0.250608 0.681227
0.988061 -0.11894 0.741927
0.940053 -0.026357 0.891547
1.03879 -0.196233 0.867409
1.07236 -0.250402 0.94413
1.00281 -0.129894 0.776325
1.00991 -0.159919 0.819509
0.995176 -0.124324 0.740199
0.973519 -0.0921809 0.893737
1.02604 -0.169258 0.855432
0.923322 -0.00433211 0.740553
0.972839 -0.0793667 0.665848
1.04268 -0.205354 0.88733
0.974013 -0.0854153 0.841807
0.968128 -0.0779515 0.687942
1.035 -0.195234 0.862656
0.942644 -0.0258576 0.858965
0.994815 -0.110828 0.874981
0.968817 -0.0740008 0.706525
1.00266 -0.140793 0.743486
0.955426 -0.0563147 0.880858
0.969185 -0.0750261 0.770131
0.992314 -0.116955 0.867535
1.02873 -0.180896 0.741819
0.99773 -0.128204 0.892584
0.988153 -0.112716 0.869078
1.05818 -0.225183 0.659672
1.04111 -0.212343 0.797961
0.966309 -0.0816991 0.903371
1.06372 -0.238367 0.88697
1.01408 -0.147903 0.896065
0.995023 -0.127869 0.945678
1.05438 -0.226101 0.808032
1.0184 -0.163461 0.782236
0.97825 -0.0836826 0.947084
0.959359 -0.0590085 0.746993
1.01416 -0.151274 0.65437
0.944564 -0.0298212 0.781751
0.974314 -0.0857001 0.805674
1.05357 -0.218673 0.910373
0.978596 -0.0866544 0.819922
0.95543 -0.0516911 0.651686
1.02456 -0.16897 0.819229
1.03715 -0.194578 0.876086
1.02028 -0.159251 0.750423
1.06444 -0.252446 0.932222
0.94475 -0.0378071 0.915912
1.05099 -0.212665 0.842909
1.02266 -0.168321 0.908042
0.997278 -0.130877 0.729795
0.953769 -0.0547136 0.711897
1.04234 -0.199642 0.75496
1.04317 -0.203508 0.734667
0.950843 -0.0496485 0.945961
1.00118 -0.135345 0.89945
1.02283 -0.172289 0.917903
0.976126 -0.0843084 0.736098
0.992545 -0.111661 0.893844
1.00853 -0.147927 0.691615
1.01522 -0.148553 0.835135
1.06776 -0.25104 0.810345
1.07957 -0.260187 0.80785
0.982674 -0.103682 0.789138
0.941782 -0.0285263 0.6809
1.00884 -0.15055 0.863161
1.04212 -0.199078 0.888599
0.943289 -0.0449998 0.845915
1.02145 -0.170849 0.702297
0.96354 -0.0712164 0.842119
0.990683 -0.117986 0.924506
1.04075 -0.198778 0.932794
0.963054 -0.0639626 0.780044
1.02187 -0.158931 0.923584
0.955277 -0.0455965 0.923633
0.968316 -0.0879485 0.900496
0.963438 -0.0731143 0.880075
1.06165 -0.238589 0.683361
0.954499 -0.0608844 0.645809
1.05807 -0.23283 0.864988
0.923857 1.23927e-06 0.76148
1.07828 -0.250232 0.670703
0.971686 -0.0805421 0.928432
0.995914 -0.130657 0.817935
1.00473 -0.136014 0.662641
0.933395 -0.0206721 0.917208
1.02713 -0.171779 0.759591
1.02735 -0.171691 0.780585
0.96312 -0.0633122 0.803362
0.959539 -0.0580893 0.80983
0.963103 -0.064509 0.837426
0.953954 -0.0447464 0.788558
0.972991 -0.0855271 0.659654
0.950161 -0.0429051 0.699035
0.959581 -0.0758145 0.927102
0.944055 -0.0357137 0.808634
0.959964 -0.0582483 0.754331
0.948853 -0.0400682 0.736336
1.03946 -0.205533 0.66131
0.970767 -0.0782654 0.680195
1.05446 -0.221916 0.740199
1.05616 -0.226236 0.780417
0.946741 -0.0286081 0.908574
0.937172 -0.0170862 0.947193
1.00593 -0.144346 0.765741
1.06805 -0.237364 0.696951
1.07284 -0.248256 0.898732
0.969847 -0.0829471 0.724188
0.950783 -0.0431209 0.835514
1.02887 -0.176607 0.767432
0.961945 -0.0577089 0.676502
1.05816 -0.228631 0.906828
1.04479 -0.212288 0.774225
0.974345 -0.0826975 0.85369
1.0501 -0.227076 0.685433
0.980689 -0.0966787 0.761736
0.972498 -0.0887017 0.89163
0.969179 -0.0683961 0.669554
0.997213 -0.118032 0.749772
0.972534 -0.0808848 0.706737
1.00035 -0.124686 0.824428
1.03923 -0.206179 0.732006
0.960989 -0.0693876 0.792126
1.00873 -0.14677 0.656853
1.04731 -0.215599 0.732509
1.02413 -0.177079 0.784792
1.07181 -0.255077 0.942678
1.01862 -0.166734 0.78931
1.01068 -0.152271 0.92276
1.00277 -0.131792 0.882435
1.02059 -0.165793 0.753214
0.951938 -0.0551777 0.900919
1.0347 -0.184771 0.844731
0.992293 -0.115725 0.812595
0.950193 -0.0386458 0.908829
0.996048 -0.120716 0.889238
1.02847 -0.184008 0.857317
1.03794 -0.193233 0.788313
1.02588 -0.171726 0.664559
1.06054 -0.242036 0.90129
1.00445 -0.135851 0.692442
1.00788 -0.138451 0.808198
1.05444 -0.229042 0.854668
1.04166 -0.204817 0.76445
0.963646 -0.0612752 0.915799
0.942716 -0.0367123 0.740816
0.982137 -0.105662 0.754217
1.06417 -0.239443 0.707011
1.02175 -0.169886 0.915397
1.06212 -0.229566 0.7413
1.03104 -0.183549 0.742387
0.966118 -0.0836094 0.664369
1.05567 -0.22026 0.882737
0.956322 -0.0546872 0.798285
1.06776 -0.24604 0.896352
0.957324 -0.0568455 0.822031
0.921073 0.00159569 0.71619
0.954125 -0.0574101 0.810564
0.946593 -0.0412077 0.856521
0.936633 -0.0212451 0.741181
1.07034 -0.260381 0.812794
0.946344 -0.0428048 0.780955
1.07502 -0.252817 0.886941
1.02158 -0.162555 0.718976
0.991868 -0.116175 0.903686
1.02085 -0.165487 0.876092
0.941521 -0.0239574 0.720935
1.06943 -0.255395 0.833525
1.04213 -0.193414 0.781662
1.04624 -0.203704 0.867619
1.00297 -0.138531 0.800585
1.00254 -0.146617 0.762079
1.03296 -0.188327 0.840365
1.03334 -0.178394 0.92414
0.949192 -0.0366595 0.685778
1.03089 -0.190592 0.686125
0.995768 -0.113536 0.837166
1.06688 -0.247198 0.862199
1.02277 -0.167061 0.670799
1.06129 -0.241622 0.776443
1.04786 -0.208109 0.879501
0.969507 -0.0717373 0.904448
0.961856 -0.0627385 0.926194
1.048 -0.21383 0.661871
0.97265 -0.0871695 0.913245
1.05714 -0.221195 0.866067
0.981587 -0.104082 0.858342
1.05744 -0.235484 0.812436
0.934248 -0.00462242 0.666488
0.990409 -0.114333 0.717328
0.985031 -0.0996539 0.944972
1.0541 -0.223936 0.859767
1.01876 -0.157884 0.711875
1.02597 -0.174407 0.881301
0.953702 -0.0492457 0.742448
0.941785 -0.0233787 0.849442
0.97889 -0.0820131 0.688719
0.932556 -0.0213868 0.659521
0.938603 -0.0255754 0.915342
0.953737 -0.0556723 0.719293
1.05278 -0.229923 0.762012
0.996845 -0.127586 0.677462
1.00996 -0.145665 0.802454
0.964176 -0.071217 0.908255
0.964649 -0.0807149 0.769211
0.974491 -0.0896712 0.868769
0.944617 -0.0294628 0.817854
0.924107 0.000312453 0.653501
1.04823 -0.225002 0.870548
0.979319 -0.0830802 0.815471
0.943678 -0.0236499 0.898267
1.00473 -0.142774 0.695476
0.953776 -0.0507773 0.652563
1.05092 -0.212734 0.673611
0.956801 -0.0523949 0.786867
0.970073 -0.0817517 0.850864
1.05974 -0.231726 0.757999
1.00256 -0.136274 0.735098
1.03818 -0.196474 0.94317
0.947532 -0.0365226 0.765378
0.996612 -0.114055 0.749312
0.984049 -0.0967299 0.946538
0.96363 -0.0666592 0.818048
0.985349 -0.100811 0.803983
0.963864 -0.0701352 0.672526
0.954491 -0.0557712 0.871731
0.981119 -0.0977495 0.806414
1.02733 -0.172522 0.816596
1.04804 -0.208855 0.766801
1.06736 -0.238288 0.945449
0.964052 -0.0684501 0.739991
1.07974 -0.258101 0.865832
0.948152 -0.0490072 0.729878
0.966575 -0.069926 0.743193
0.977039 -0.0875771 0.919645
1.03421 -0.184521 0.760405
0.972191 -0.0719715 0.881128
1.00195 -0.131825 0.93016
0.97163 -0.0840983 0.703584
1.00568 -0.144173 0.76551
0.987264 -0.10516 0.89868
0.928754 -0.00494518 0.943501
0.926071 -0.00655504 0.713184
1.06009 -0.223794 0.733426
0.948907 -0.0396127 0.81012
0.988261 -0.10076 0.760748
1.0656 -0.240446 0.713971
0.993363 -0.120337 0.835339
1.05068 -0.210054 0.687408
0.965835 -0.0803089 0.734903
1.00438 -0.137106 0.943666
0.9652 -0.071949 0.85823
0.953964 -0.0494161 0.820958
0.960311 -0.0593033 0.712285
1.03643 -0.193853 0.855407
1.02483 -0.165423 0.810297
0.970331 -0.0707984 0.739932
0.986865 -0.102289 0.702994
0.984097 -0.0965859 0.926067
0.927781 -0.0131985 0.678147
1.03044 -0.182521 0.770346
1.05179 -0.218351 0.732393
0.954813 -0.0520571 0.940742
1.02821 -0.188234 0.865388
1.01399 -0.152049 0.724648
0.949189 -0.0490866 0.669867
1.04559 -0.209285 0.673337
0.972816 -0.0874636 0.863571
0.984658 -0.110471 0.768321
1.011 -0.157397 0.651657
1.06924 -0.251008 0.766036
0.966718 -0.0656541 0.778893
1.04407 -0.217741 0.711353
1.03569 -0.201708 0.80271
0.941319 -0.0207026 0.937701
1.07022 -0.253024 0.900533
1.06213 -0.235032 0.662721
1.02392 -0.170893 0.708854
0.974836 -0.0840786 0.938242
0.97682 -0.104301 0.718572
0.980694 -0.106405 0.712797
0.978495 -0.088783 0.738585
1.02673 -0.181823 0.691589
0.998597 -0.124851 0.813124
0.9566 -0.0539563 0.837859
0.928868 -0.00941664 0.847831
1.00347 -0.1425 0.84093
1.0564 -0.228677 0.65254
1.06748 -0.243653 0.814063
0.934901 -0.000866193 0.904302
0.985195 -0.101835 0.849615
0.991212 -0.118746 0.920999
0.99123 -0.109388 0.896348
0.958773 -0.0503895 0.659576
0.967054 -0.0708296 0.69391
1.06021 -0.23374 0.875198
1.06224 -0.237212 0.740756
1.03901 -0.198931 0.768176
0.982404 -0.0966403 0.76166
0.95479 -0.0550448 0.842283
0.969929 -0.0805638 0.812807
1.05105 -0.218143 0.748081
1.02327 -0.160714 0.713699
1.04376 -0.20257 0.914916
1.04356 -0.196088 0.840866
0.976751 -0.0876446 0.805017
0.986918 -0.111404 0.754818
1.0681 -0.241338 0.838375
0.926293 -0.0087372 0.841544
0.943688 -0.0276622 0.859425
1.07121 -0.241557 0.748349
0.991307 -0.123089 0.925591
0.938328 -0.0247319 0.684772
1.07222 -0.260075 0.689739
0.94178 -0.0400596 0.685442
0.939879 -0.0217016 0.698685
1.06667 -0.24396 0.712935
1.06091 -0.236406 0.661547
1.03781 -0.196139 0.654103
1.0681 -0.250027 0.859115
1.05948 -0.236581 0.650924
1.03644 -0.189735 0.830775
0.977301 -0.102012 0.87233
0.933595 -0.0187832 0.679032
1.00479 -0.137268 0.670753
0.964134 -0.0616519 0.77809
0.94399 -0.0232284 0.775563
1.03734 -0.197645 0.701504
0.986372 -0.103427 0.90127
0.981185 -0.101578 0.702168
1.01606 -0.172629 0.68965
0.999059 -0.117561 0.875615
1.00962 -0.141671 0.656752
0.932121 -0.0120541 0.910076
1.00875 -0.153882 0.819279
0.979489 -0.0871856 0.831794
1.00055 -0.131572 0.762559
1.01092 -0.145244 0.815343
0.959218 -0.0691158 0.667905
0.998757 -0.127668 0.950423
0.989253 -0.105773 0.944928
1.00536 -0.137562 0.717102
1.07611 -0.2563 0.861497
1.06874 -0.239712 0.915344
0.950762 -0.0391942 0.904057
1.05168 -0.212033 0.752187
0.993041 -0.113791 0.95043
0.972844 -0.0777698 0.797325
1.00901 -0.153883 0.73387
0.961846 -0.0656349 0.826947
0.933277 -0.0115791 0.729557
1.06766 -0.24345 0.661343
0.965255 -0.0704125 0.81238
0.987842 -0.10009 0.848512
1.05305 -0.21694 0.759616
0.944058 -0.0330852 0.777619
1.00076 -0.13716 0.890871
0.99436 -0.114318 0.761648
1.03746 -0.203627 0.751314
1.05794 -0.229031 0.796128
0.984186 -0.10937 0.82392
1.01728 -0.152136 0.694293
0.937311 -0.0276187 0.834858
1.05722 -0.239913 0.902918
1.04885 -0.215552 0.649657
1.05905 -0.23941 0.726929
0.954065 -0.0418304 0.675397
1.07621 -0.262921 0.913133
0.928318 -0.0147864 0.777321
0.987586 -0.111263 0.918191
0.938524 -0.0208119 0.676815
0.955914 -0.0617602 0.7794
0.932563 -0.0114178 0.733055
1.01165 -0.156099 0.902194
1.0311 -0.181556 0.889535
1.05344 -0.220406 0.870024
0.966207 -0.074776 0.790528
0.941456 -0.0268197 0.654759
1.05369 -0.222482 0.673015
0.981066 -0.0994762 0.773623
0.94505 -0.0448162 0.869999
1.03422 -0.190694 0.838372
1.00977 -0.148886 0.690553
1.06984 -0.247683 0.922873
1.05716 -0.227797 0.910337
0.938696 -0.0206417 0.707283
0.973764 -0.0837516 0.817856
1.01085 -0.152455 0.813806
1.06216 -0.248842 0.666198
0.937465 -0.0132565 0.823432
0.995627 -0.126302 0.786032
0.945901 -0.0464599 0.944262
1.04312 -0.193527 0.675538
0.969251 -0.0763278 0.766726
1.00093 -0.14123 0.928894
0.976178 -0.0836477 0.915747
1.04069 -0.206928 0.683843
1.00315 -0.13168 0.731148
0.987592 -0.109714 0.839505
1.05653 -0.23237 0.67605
1.00253 -0.135189 0.750911
0.955668 -0.0576228 0.792116
0.980081 -0.0990346 0.942347
0.930306 0.0017199 0.895666
1.00611 -0.145826 0.719568
1.07278 -0.249002 0.897797
1.0283 -0.172666 0.822663
1.02728 -0.180056 0.86043
1.0271 -0.170902 0.945422
0.996931 -0.122317 0.782308
0.950549 -0.04342 0.935798
1.02122 -0.164385 0.930934
0.984721 -0.108493 0.727275
0.975886 -0.0867144 0.918211
1.03022 -0.181115 0.886499
1.06557 -0.247038 0.699489
1.02636 -0.178875 0.857131
1.05115 -0.215405 0.799233
1.0023 -0.136084 0.710045
1.00866 -0.14286 0.72615
1.0439 -0.200678 0.69716
0.978341 -0.0934831 0.839975
0.997242 -0.138099 0.751953
1.01373 -0.144472 0.888369
0.9463 -0.0396083 0.662192
0.966615 -0.0730949 0.920858
1.02524 -0.184401 0.791455
1.0307 -0.185169 0.769506
1.04625 -0.215163 0.896089
0.993982 -0.10223 0.89819
0.961654 -0.066675 0.919524
0.972388 -0.0787291 0.708643
1.03365 -0.191916 0.714717
0.97823 -0.0913895 0.946564
0.983126 -0.104894 0.681791
0.968791 -0.0760485 0.849213
1.03031 -0.187299 0.894043
0.974001 -0.0930041 0.646012
0.966567 -0.0740865 0.926317
0.97141 -0.0795408 0.851498
1.01082 -0.149573 0.689446
0.993597 -0.120176 0.67638
1.0465 -0.20778 0.711522
0.96884 -0.078132 0.66245
0.985808 -0.105866 0.797192
1.03248 -0.186059 0.772431
1.03228 -0.181964 0.702034
1.02396 -0.164842 0.674083
0.925014 -0.00226795 0.914777
1.01363 -0.161438 0.71529
1.02902 -0.169167 0.680984
1.04984 -0.203628 0.750818
1.0521 -0.210155 0.845783
0.984016 -0.0889765 0.910442
1.02406 -0.175196 0.939561
1.06165 -0.248284 0.714381
1.02692 -0.17474 0.656576
0.967427 -0.0777684 0.801364
0.977905 -0.0907764 0.909375
1.03094 -0.18855 0.944737
0.931293 -0.0131128 0.792928
0.996366 -0.127346 0.857971
0.986152 -0.118451 0.73801
1.07081 -0.249608 0.682609
1.04529 -0.207226 0.772151
0.990333 -0.107668 0.899238
1.00416 -0.133978 0.863314
0.955459 -0.0521708 0.948826
1.04267 -0.198699 0.916493
1.04122 -0.195459 0.831589
1.04565 -0.214159 0.789006
1.07097 -0.259687 0.916397
1.05313 -0.225055 0.841168
0.958569 -0.0642256 0.920883
0.973324 -0.0850992 0.746666
0.945713 -0.0367128 0.81893
0.981558 -0.110014 0.678545
0.979762 -0.0988637 0.924514
0.946075 -0.0258542 0.755314
1.07349 -0.251599 0.760859
0.988421 -0.108333 0.751727
1.06393 -0.234732 0.880777
0.997015 -0.122495 0.827271
1.0532 -0.216045 0.693692
0.981706 -0.104398 0.647468
0.985397 -0.103632 0.883765
1.06493 -0.253544 0.678928
0.994275 -0.120199 0.665875
0.98199 -0.106604 0.838715
0.967563 -0.0708919 0.857719
1.06943 -0.254842 0.701
0.99874 -0.130439 0.818114
1.01647 -0.166059 0.794797
0.93069 -0.01261 0.918886
1.06201 -0.231466 0.714019
0.992625 -0.11494 0.771565
1.04435 -0.208223 0.747475
1.01204 -0.150346 0.911132
1.07145 -0.254479 0.827584
0.993891 -0.122242 0.728682
0.959581 -0.0605997 0.857482
1.06255 -0.236387 0.724174
0.957639 -0.0473942 0.876797
1.02902 -0.186616 0.869566
0.977381 -0.0794502 0.778913
1.06547 -0.237629 0.878486
0.975241 -0.0896025 0.910835
1.01384 -0.153445 0.820247
1.06872 -0.248262 0.801846
1.06182 -0.243315 0.91032
0.937661 -0.0205173 0.9104
1.04384 -0.205738 0.864077
1.02689 -0.175291 0.768215
0.983082 -0.103797 0.654972
1.07214 -0.248653 0.889521
0.930488 -0.0107018 0.943504
0.944995 -0.0418401 0.860985
0.937112 -0.02117 0.671494
1.06371 -0.249004 0.892884
0.945406 -0.0261826 0.745641
1.00359 -0.127095 0.746972
1.04698 -0.211478 0.732241
0.975732 -0.0860756 0.811153
1.0282 -0.178851 0.741435
1.00344 -0.129056 0.826988
0.981785 -0.105248 0.947108
1.06085 -0.235394 0.880094
1.0269 -0.163825 0.773278
0.982272 -0.105926 0.73955
1.06598 -0.239779 0.938632
1.05852 -0.2286 0.762578
0.946815 -0.0397863 0.848705
0.975855 -0.0755177 0.698403
0.966627 -0.0739313 0.674937
0.934682 -0.0154646 0.753682
1.05854 -0.228336 0.905049
0.978991 -0.0998784 0.689077
1.0234 -0.16945 0.77984
1.01755 -0.150368 0.686027
0.959279 -0.0557746 0.817089
0.958391 -0.0596394 0.698382
1.04054 -0.204101 0.866871
1.04192 -0.191481 0.926608
1.042 -0.202655 0.874312
1.05473 -0.22068 0.805014
1.00272 -0.132732 0.865014
1.00992 -0.145288 0.903285
1.00098 -0.134909 0.949379
1.05997 -0.241179 0.744005
1.06014 -0.244536 0.861862
0.961933 -0.0521369 0.746244
0.961016 -0.0712989 0.904759
1.00505 -0.124709 0.871779
0.938321 -0.0309281 0.924986
1.01606 -0.161838 0.776959
0.985938 -0.113005 0.916712
1.01145 -0.146627 0.91841
1.02157 -0.169322 0.709618
1.01299 -0.155576 0.759255
0.961643 -0.060706 0.85178
1.05338 -0.224862 0.66286
0.992631 -0.11793 0.848597
1.01961 -0.166114 0.77443
0.928693 -0.00996533 0.828377
1.05164 -0.218794 0.763022
1.02421 -0.176692 0.713559
0.990808 -0.117663 0.733952
0.974477 -0.093009 0.812989
1.0052 -0.142555 0.775915
0.983311 -0.0987438 0.719338
1.00598 -0.133437 0.701425
0.97768 -0.0949965 0.67439
0.99627 -0.115538 0.951693
1.02651 -0.177717 0.781897
1.00618 -0.123151 0.831641
0.960884 -0.0591659 0.852262
0.925533 -0.00647148 0.933529
0.935118 -0.0204035 0.930371
0.994661 -0.121891 0.794924
1.0352 -0.196759 0.676466
1.03169 -0.1839 0.936954
1.03079 -0.189631 0.69798
0.9775 -0.0930011 0.819713
1.03212 -0.196471 0.777035
0.99176 -0.131829 0.752348
0.931308 -0.0170679 0.827714
0.940578 -0.0311178 0.887973
0.982242 -0.0969355 0.752054
0.963316 -0.0714551 0.722068
0.998968 -0.123615 0.662023
0.938852 -0.0269055 0.833263
0.962313 -0.067153 0.85747
1.00088 -0.129605 0.809197
0.928833 -0.0108758 0.830229
1.07182 -0.258201 0.813638
1.0751 -0.25134 0.904058
1.06461 -0.23773 0.912213
0.952348 -0.0426918 0.731779
1.0251 -0.183609 0.901898
0.949906 -0.0252897 0.834637
1.00654 -0.136827 0.748559
0.951527 -0.047126 0.718679
0.971134 -0.086059 0.820297
0.969469 -0.079729 0.711054
0.96572 -0.0672818 0.729932
1.0415 -0.190626 0.777836
0.939733 -0.0290327 0.90599
1.02292 -0.175706 0.735616
1.07531 -0.253002 0.765693
1.01026 -0.149995 0.772052
0.944088 -0.0361673 0.697063
1.05105 -0.218777 0.816877
0.982625 -0.0970933 0.744034
0.958844 -0.061154 0.791186
0.982866 -0.105091 0.905256
0.973863 -0.0834605 0.813999
0.927067 -0.000952725 0.93551
1.00125 -0.128107 0.922778
1.03999 -0.203541 0.762509
1.04265 -0.192868 0.887569
1.01595 -0.157911 0.701027
0.968476 -0.0781443 0.690611
0.927994 -0.0141494 0.816821
0.951852 -0.0382787 0.928126
1.03604 -0.190012 0.847151
1.06823 -0.250105 0.905893
1.05256 -0.207821 0.802113
1.03353 -0.195662 0.675477
0.990443 -0.111536 0.757811
1.06901 -0.246832 0.707806
0.984854 -0.108354 0.676453
0.97532 -0.0867118 0.701213
0.96009 -0.0579426 0.730541
1.02792 -0.185504 0.664225
1.05203 -0.220258 0.652094
0.959757 -0.0654531 0.822015
0.994365 -0.128802 0.702978
0.979829 -0.0987599 0.879379
1.02651 -0.176854 0.786819
0.948957 -0.0405742 0.892544
0.984154 -0.103527 0.815118
0.979445 -0.0984246 0.861213
0.978511 -0.0855348 0.831579
0.99637 -0.119977 0.922529
0.929231 0.000773898 0.848572
1.00512 -0.126542 0.784666
0.982738 -0.108696 0.939227
0.93697 -0.0212083 0.825159
0.997467 -0.125987 0.673707
1.03523 -0.18355 0.847908
1.05269 -0.222517 0.945149
1.06272 -0.230998 0.757029
1.07363 -0.253869 0.794071
0.945164 -0.0473028 0.815704
1.00464 -0.144634 0.808651
1.05667 -0.225248 0.815993
0.942923 -0.0394295 0.739578
1.04981 -0.228521 0.937505
1.0712 -0.252044 0.783256
1.05322 -0.231629 0.688464
0.973655 -0.0835501 0.669121
1.00556 -0.135923 0.673251
1.01033 -0.147072 0.799946
1.04843 -0.231113 0.691619
0.99135 -0.119059 0.699942
0.925803 -0.00560747 0.702706
0.954084 -0.0451666 0.790447
1.07202 -0.25527 0.83995
0.970752 -0.0768086 0.865193
0.984853 -0.115426 0.785989
1.0128 -0.154784 0.854947
0.932454 -0.0206758 0.825073
1.05253 -0.220721 0.76227
0.973331 -0.0805508 0.868544
1.02371 -0.17501 0.944811
1.00057 -0.133006 0.869602
0.934555 -0.0127619 0.873063
1.03652 -0.198518 0.952968
1.03751 -0.187618 0.804997
1.02918 -0.190677 0.936715
0.973999 -0.0848592 0.784214
0.968657 -0.0789493 0.816602
1.0017 -0.125471 0.756556
0.947083 -0.0384744 0.692533
0.953963 -0.0419355 0.667204
0.937642 -0.0161631 0.894293
0.98005 -0.0897006 0.886282
1.00956 -0.136224 0.732787
1.05051 -0.2193 0.675216
1.04838 -0.215667 0.761708
1.03599 -0.186529 0.91684
0.93098 -0.0129805 0.733242
0.983617 -0.106316 0.837478
0.958793 -0.0616332 0.813375
0.985131 -0.115683 0.899245
0.949386 -0.033697 0.824153
1.06814 -0.247065 0.691229
1.03638 -0.19656 0.790083
1.07393 -0.252766 0.911194
1.03523 -0.193699 0.753708
0.967791 -0.0794728 0.92452
1.00848 -0.141343 0.708982
0.98186 -0.102498 0.856505
0.968345 -0.0703694 0.926014
1.02553 -0.168961 0.685224
0.963364 -0.0798324 0.766908
0.925437 -0.0047753 0.749508
1.04774 -0.215552 0.787001
1.02671 -0.173104 0.895713
0.968166 -0.0767709 0.785839
0.926209 -0.00273906 0.856929
1.05607 -0.233707 0.656972
0.98661 -0.097174 0.810797
0.947057 -0.0360136 0.726391
0.978256 -0.0936142 0.712387
1.06678 -0.25023 0.831353
0.955998 -0.0635194 0.924028
0.971404 -0.0899948 0.747518
1.05407 -0.219898 0.944984
0.931021 -0.0178372 0.67184
0.965034 -0.0746865 0.811751
0.961794 -0.0595298 0.838226
1.02259 -0.172035 0.711985
1.05479 -0.225308 0.859548
1.05354 -0.233827 0.772389
1.01042 -0.138917 0.875448
1.01908 -0.156374 0.923678
0.994007 -0.116 0.810133
0.942421 -0.0229065 0.892797
1.07442 -0.253643 0.759121
0.923131 -0.00215555 0.777312
1.01905 -0.168584 0.788545
0.979554 -0.0848227 0.716197
1.06832 -0.251946 0.700664
0.95007 -0.0458779 0.783252
1.0768 -0.25699 0.721275
1.01512 -0.157417 0.692608
0.989912 -0.118918 0.694828
0.981082 -0.103747 0.916586
1.06401 -0.239716 0.852289
1.01299 -0.153177 0.931229
1.03656 -0.197381 0.793325
0.992998 -0.110551 0.798064
1.01052 -0.14831 0.743603
0.971162 -0.0799904 0.914175
0.958142 -0.0575336 0.811301
1.03766 -0.191549 0.678308
1.06704 -0.242068 0.91034
1.01382 -0.149429 0.854779
1.06173 -0.23952 0.93417
0.960628 -0.0593414 0.792159
0.943959 -0.0384292 0.858372
0.981749 -0.0966714 0.797408
1.00387 -0.139204 0.763544
0.947956 -0.0411646 0.73967
0.989338 -0.116984 0.778037
0.963372 -0.0672806 0.941811
0.944725 -0.030479 0.678803
0.969518 -0.0785647 0.724563
0.982473 -0.0954122 0.761587
0.973215 -0.078768 0.650427
0.974026 -0.0829499 0.76531
1.03311 -0.187027 0.949148
0.933519 -0.0202467 0.82138
1.03205 -0.194919 0.729973
1.04256 -0.1968 0.795798
1.00001 -0.127312 0.692539
0.965426 -0.0773522 0.800741
1.03458 -0.18945 0.689024
0.993747 -0.124086 0.746972
0.951238 -0.0503407 0.753348
0.941221 -0.0205056 0.672056
0.980613 -0.0852754 0.881399
0.940099 -0.0285466 0.941816
0.955282 -0.0548719 0.779913
0.981836 -0.102761 0.789379
0.92577 -0.000662275 0.790235
1.05129 -0.228538 0.764369
0.991517 -0.104269 0.734227
0.987296 -0.0987551 0.805961
1.05898 -0.225743 0.780432
1.01161 -0.151977 0.671349
0.971271 -0.0731546 0.76188
0.933722 -0.0169122 0.842071
1.07103 -0.248797 0.668905
1.05663 -0.216662 0.918375
1.07894 -0.251059 0.866167
1.03756 -0.192219 0.721415
1.03886 -0.20219 0.926608
1.00323 -0.131175 0.938401
0.969028 -0.0799312 0.906549
1.06098 -0.239924 0.824477
0.995071 -0.125815 0.834467
1.05569 -0.22854 0.901248
1.06061 -0.229174 0.846384
1.00443 -0.132957 0.666545
1.01007 -0.141524 0.667511
0.946558 -0.0407028 0.744992
0.961884 -0.0680082 0.765748
0.938887 -0.0215329 0.848747
0.934798 -0.0212592 0.729538
0.967261 -0.0737761 0.746717
0.945938 -0.0381746 0.785088
1.06124 -0.236243 0.695495
0.978036 -0.106089 0.809838
0.950623 -0.0497405 0.840053
1.02221 -0.166226 0.901663
1.03787 -0.194812 0.775586
0.948052 -0.0482445 0.884328
0.942615 -0.0290433 0.832333
1.04114 -0.199841 0.778048
0.993113 -0.108501 0.658132
0.942621 -0.0337343 0.770684
1.06322 -0.242235 0.659815
0.992419 -0.108687 0.935875
1.05385 -0.223215 0.671481
1.06492 -0.246297 0.912247
1.02884 -0.18625 0.714061
0.936538 -0.0166549 0.668989
1.01833 -0.164803 0.755132
0.987164 -0.105478 0.694661
1.04581 -0.201077 0.750585
0.964506 -0.0594909 0.741974
0.935113 -0.0217889 0.727855
1.04307 -0.215056 0.875144
1.07588 -0.256034 0.877519
0.974778 -0.0845758 0.718118
1.02048 -0.166306 0.934741
0.951309 -0.0466307 0.905597
0.934043 -0.0252526 0.743853
0.943821 -0.0305562 0.908749
0.934587 -0.0245147 0.805623
1.06819 -0.251265 0.854147
0.984475 -0.107772 0.843296
1.0236 -0.178657 0.720653
0.974146 -0.0752355 0.948478
0.932368 -0.00720023 0.900333
1.03804 -0.203992 0.782799
1.05803 -0.219161 0.808452
0.937854 -0.0348263 0.780709
1.06246 -0.2349 0.68014
0.926314 -0.00488412 0.82463
0.953459 -0.0524454 0.92377
1.04448 -0.204452 0.742259
0.989784 -0.116299 0.897045
1.05184 -0.22514 0.862491
1.06339 -0.232689 0.81685
1.00144 -0.133136 0.905756
0.928865 0.000885944 0.912999
0.933263 -0.0117244 0.845516
0.925748 -0.00517155 0.888014
1.0688 -0.244702 0.947292
1.02083 -0.156222 0.935009
0.989003 -0.106843 0.723024
1.02186 -0.167047 0.786145
0.940262 -0.0265794 0.817186
1.06281 -0.245639 0.930415
1.06394 -0.25006 0.665334
1.01411 -0.16224 0.935798
1.03685 -0.201505 0.705438
1.04127 -0.204712 0.696227
0.975612 -0.0854361 0.726136
0.982022 -0.090814 0.865326
1.01981 -0.158895 0.93188
1.00081 -0.137644 0.665099
1.04453 -0.210612 0.924376
0.971811 -0.0835507 0.941266
0.999191 -0.141287 0.763497
1.05972 -0.239623 0.712806
1.03073 -0.174033 0.948672
0.940859 -0.0186865 0.765129
0.925413 -0.00398253 0.871423
1.01032 -0.150595 0.897876
1.04828 -0.22311 0.655017
1.01203 -0.151324 0.73463
1.03712 -0.192286 0.67941
0.969668 -0.0695863 0.816956
1.06661 -0.244002 0.81331
1.07089 -0.254966 0.688959
0.971127 -0.0777288 0.87519
0.935022 -0.017254 0.878632
1.0734 -0.257751 0.83651
0.928097 -0.0116472 0.884449
0.969404 -0.0845273 0.66197
1.07487 -0.265197 0.652196
1.06746 -0.251478 0.682161
0.963377 -0.0635822 0.758665
0.985974 -0.0991954 0.699532
1.06728 -0.251718 0.77129
0.986794 -0.121669 0.677448
1.06015 -0.229484 0.945351
0.986674 -0.112922 0.70082
0.954569 -0.0497553 0.893508
1.01461 -0.154723 0.668463
1.01345 -0.145729 0.92925
0.972623 -0.0746893 0.776916
0.94144 -0.025204 0.812925
1.04206 -0.191657 0.865197
1.05505 -0.225228 0.816189
1.045 -0.20762 0.774478
0.932974 -0.0178565 0.731915
0.993709 -0.118749 0.820909
1.02254 -0.150107 0.900362
0.949733 -0.0422987 0.712293
0.937741 -0.0206908 0.901863
0.935586 -0.0300309 0.75142
1.03237 -0.178997 0.717816
1.0219 -0.171365 0.650897
1.03151 -0.171208 0.743858
1.04902 -0.215054 0.781751
1.05329 -0.214797 0.751672
1.02914 -0.177532 0.807755
1.04532 -0.200045 0.838217
1.04012 -0.195962 0.683231
0.950948 -0.0377798 0.824964
0.930819 0.00335269 0.689921
0.950233 -0.0418217 0.717148
0.970623 -0.0819219 0.880682
1.06728 -0.246437 0.704816
1.06536 -0.233554 0.934928
0.964589 -0.0681209 0.655549
1.01136 -0.154726 0.687236
1.0776 -0.258754 0.688358
1.05838 -0.231583 0.78894
0.994537 -0.113253 0.874226
0.981976 -0.0934504 0.662279
1.00277 -0.13809 0.906318
0.943143 -0.0214232 0.9139
1.03934 -0.198927 0.665279
1.04279 -0.208985 0.883107
0.985614 -0.113528 0.815635
0.968681 -0.0735371 0.770355
1.02699 -0.168052 0.76207
0.977341 -0.082543 0.741665
1.06926 -0.249133 0.908762
1.04276 -0.205502 0.78853
1.00438 -0.138975 0.66394
0.977111 -0.0921486 0.666446
0.994269 -0.114529 0.734726
1.07264 -0.263045 0.684751
1.03315 -0.188223 0.732976
1.03016 -0.178463 0.695232
1.0099 -0.140887 0.834596
0.962076 -0.0639565 0.848371
0.944842 -0.0320484 0.832087
0.942274 -0.0242818 0.822048
0.95871 -0.0645994 0.722825
0.926744 -0.0100142 0.769482
1.0411 -0.192413 0.758472
0.983075 -0.103524 0.658322
0.936263 -0.0295388 0.789832
1.05917 -0.23013 0.836843
0.968218 -0.0717752 0.88222
0.985905 -0.107988 0.826421
0.944688 -0.0371667 0.86156
1.02508 -0.163213 0.822617
0.970753 -0.0713041 0.827998
0.963114 -0.0657864 0.887013
1.05245 -0.22495 0.656632
1.0493 -0.227567 0.787214
0.93843 -0.0189856 0.833167
1.03085 -0.179478 0.832852
0.92592 -0.00575136 0.870947
0.9529 -0.0488446 0.784668
1.07456 -0.253291 0.746553
0.94116 -0.0238692 0.938488
1.03911 -0.184325 0.942507
1.05264 -0.211866 0.797864
1.05384 -0.231946 0.804167
1.01688 -0.160786 0.769735
0.955867 -0.0534241 0.859058
1.00004 -0.132053 0.855679
0.93903 -0.0185626 0.711334
0.965922 -0.0849277 0.907367
0.977042 -0.0887886 0.859164
0.978049 -0.089422 0.694062
1.01205 -0.155722 0.696355
0.968931 -0.0717369 0.800463
0.978981 -0.0915024 0.678953
0.920424 0.0022239 0.794912
0.965494 -0.0721737 0.659837
1.03194 -0.179943 0.740246
0.98545 -0.101633 0.828947
0.930453 -0.0107303 0.844219
1.00813 -0.141392 0.790532
0.98414 -0.107494 0.686716
1.05977 -0.228902 0.924587
0.964606 -0.0670662 0.758041
0.948625 -0.0462522 0.932639
0.951569 -0.0410394 0.706425
1.02808 -0.177394 0.722992
0.934206 -0.00775221 0.799523
0.951592 -0.0417168 0.845129
0.95951 -0.069368 0.92362
1.0174 -0.15277 0.844287
1.04859 -0.218947 0.705224
1.04584 -0.210431 0.761225
1.02325 -0.171533 0.9417
0.97853 -0.088472 0.939187
0.953035 -0.0439595 0.778112
0.978235 -0.0895017 0.780601
0.964613 -0.068029 0.685346
1.03675 -0.191865 0.866254
1.04906 -0.222096 0.904205
1.02167 -0.171705 0.674728
1.07587 -0.255839 0.751227
0.955895 -0.0504346 0.749448
1.03429 -0.19689 0.729065
0.995648 -0.122283 0.91399
1.00405 -0.137319 0.722311
1.04702 -0.210583 0.919119
0.939455 -0.0283746 0.735753
1.03324 -0.18924 0.652425
1.03631 -0.187357 0.674972
0.957042 -0.0505946 0.693891
0.944874 -0.0318509 0.877996
1.06971 -0.2429 0.750581
1.03799 -0.202602 0.891427
0.96573 -0.0771 0.769215
1.02014 -0.161985 0.746254
1.01211 -0.146492 0.835294
1.05821 -0.235683 0.648325
0.954013 -0.0406203 0.900846
0.922 0.00170354 0.673588
1.00697 -0.14026 0.896258
1.03485 -0.206581 0.729115
0.929894 -0.0062215 0.793747
1.04813 -0.21928 0.912284
0.926802 0.00112799 0.675091
1.02267 -0.170773 0.840954
0.920635 -0.00239507 0.886051
0.99906 -0.130898 0.890823
1.04912 -0.203412 0.768905
0.960981 -0.0611234 0.758452
0.931371 -0.00625559 0.787135
1.06904 -0.257568 0.894721
1.03329 -0.183095 0.952066
0.976982 -0.0944123 0.915287
0.979535 -0.0996775 0.809154
1.0497 -0.221975 0.944832
1.04091 -0.204127 0.844955
0.986142 -0.107264 0.792339
1.02801 -0.173655 0.917563
1.0208 -0.157855 0.825404
1.02928 -0.185355 0.841328
0.944829 -0.0302368 0.664476
0.965342 -0.0652683 0.870643
0.958938 -0.0632124 0.862103
0.934017 -0.0170189 0.724331
0.974674 -0.0884599 0.711701
1.07449 -0.253187 0.787786
1.00621 -0.141264 0.879187
0.941442 -0.0271539 0.684735
1.00377 -0.141237 0.894385
1.04394 -0.213527 0.854884
1.05017 -0.209261 0.71741
0.976319 -0.0981806 0.836609
0.965256 -0.0651005 0.890831
0.930406 -0.00863011 0.880484
1.01413 -0.152216 0.901539
0.938911 -0.0265422 0.933879
0.982112 -0.0993027 0.68064
1.05941 -0.223062 0.840865
1.01953 -0.169796 0.862064
1.02113 -0.171755 0.788944
1.02827 -0.179604 0.775659
1.03436 -0.202874 0.768095
0.928098 -0.00533006 0.727343
1.04997 -0.21347 0.948311
1.00013 -0.126662 0.880731
0.9402 -0.0326519 0.758374
1.0161 -0.153228 0.882073
0.930819 -0.00585321 0.801483
0.975677 -0.0881354 0.91198
1.02264 -0.163799 0.822024
1.05513 -0.22774 0.836786
1.01543 -0.150886 0.831208
1.05345 -0.233812 0.761628
0.996231 -0.123229 0.926248
1.03842 -0.199757 0.898177
0.993035 -0.110891 0.902089
1.05865 -0.224918 0.918704
0.988953 -0.105334 0.940215
0.951604 -0.0415909 0.807586
1.03199 -0.190983 0.668724
1.07154 -0.255243 0.819063
1.06302 -0.234058 0.731383
1.01682 -0.157307 0.845018
1.02761 -0.179161 0.924062
1.04848 -0.216612 0.653803
1.03368 -0.19553 0.770127
1.04865 -0.217968 0.718552
1.0556 -0.224429 0.718769
0.928775 -0.000616557 0.664349
0.99217 -0.116545 0.938379
1.03795 -0.19322 0.939433
1.01724 -0.162899 0.868713
1.00211 -0.134873 0.905945
0.988699 -0.105158 0.939356
0.965294 -0.0747237 0.868932
0.980213 -0.102431 0.714181
1.05362 -0.21798 0.93803
0.979924 -0.0863665 0.881269
0.939567 -0.0180059 0.69954
0.933919 -0.0107544 0.782204
0.994206 -0.122593 0.721314
1.03077 -0.186135 0.938402
1.0297 -0.175694 0.821015
0.998684 -0.129405 0.733443
1.04616 -0.217494 0.799615
0.977175 -0.0940001 0.934677
0.959392 -0.0451696 0.872979
0.926301 -0.00570171 0.723531
0.944587 -0.0231992 0.653425
0.992386 -0.116235 0.780611
1.06993 -0.250459 0.812445
0.967647 -0.0795163 0.913664
0.986216 -0.1086 0.788797
0.946908 -0.0317567 0.684528
0.964439 -0.0747797 0.867334
0.995368 -0.126277 0.682153
1.01794 -0.161284 0.939211
0.925452 -0.00623082 0.903701
1.04023 -0.19004 0.916076
0.934525 -0.0136117 0.883536
1.05564 -0.219843 0.842291
0.936904 -0.0209305 0.823435
0.990407 -0.107084 0.691395
0.975817 -0.0820754 0.871494
1.00806 -0.145031 0.937929
1.03357 -0.199456 0.868092
0.998233 -0.11384 0.665001
0.945235 -0.0330094 0.696881
1.06606 -0.235374 0.744977
0.93963 -0.0208787 0.647848
1.01223 -0.162655 0.677718
0.969612 -0.0778939 0.708672
1.03238 -0.188292 0.752965
0.980035 -0.0998201 0.749406
1.05665 -0.234896 0.734022
0.964412 -0.0684742 0.809104
1.06348 -0.240056 0.838729
1.02864 -0.172121 0.940602
0.954416 -0.0390079 0.701254
1.07486 -0.258741 0.723357
0.983889 -0.105136 0.933006
1.01979 -0.151641 0.855471
0.949916 -0.0358612 0.683707
0.93872 -0.0239354 0.690841
1.06462 -0.247254 0.798216
1.03659 -0.203633 0.861199
1.03926 -0.199288 0.918645
1.06321 -0.231986 0.83205
0.9685 -0.0743131 0.77968
1.0645 -0.251717 0.938856
1.04241 -0.211226 0.865728
1.035 -0.192336 0.672102
1.05032 -0.222712 0.648333
1.03937 -0.196306 0.81364
0.997146 -0.135707 0.874583
1.06369 -0.238346 0.828555
1.05345 -0.224158 0.733306
1.03528 -0.194403 0.829654
1.0619 -0.247725 0.720512
0.987666 -0.108241 0.711332
0.929354 0.00106771 0.695076
1.00113 -0.128431 0.811778
0.955901 -0.0616106 0.776972
0.997991 -0.129251 0.853092
1.04529 -0.210266 0.922028
0.936161 -0.0316258 0.730111
0.959538 -0.0516821 0.651158
1.0529 -0.229455 0.715606
1.06751 -0.241964 0.708038
1.05433 -0.228853 0.663212
0.969529 -0.0780621 0.75943
0.999994 -0.137221 0.785283
1.06727 -0.241132 0.819136
0.992202 -0.112306 0.868714
1.07513 -0.257267 0.767411
1.06905 -0.24395 0.821381
1.05099 -0.2134 0.939539
0.941375 -0.0276302 0.830074
1.06296 -0.23658 0.830084
0.99232 -0.116099 0.822517
0.992714 -0.119269 0.68391
1.07994 -0.25965 0.847893
0.965128 -0.0659199 0.818494
0.962458 -0.0707185 0.860336
0.947258 -0.0328033 0.892332
0.934151 -0.022526 0.77427
0.981523 -0.105843 0.901986
0.943339 -0.0263479 0.824551
1.03574 -0.191609 0.783225
1.009 -0.138479 0.745331
0.953064 -0.0550009 0.749942
1.06105 -0.23297 0.804979
0.942534 -0.0241461 0.719287
1.01226 -0.149026 0.709872
1.00157 -0.144197 0.859462
0.991613 -0.112043 0.902617
1.01595 -0.155132 0.786039
0.93161 -0.0148459 0.9086
0.949847 -0.041261 0.6593
0.930563 -0.00558416 0.883524
0.970492 -0.0705294 0.93206
1.06837 -0.240305 0.868296
1.01653 -0.17402 0.871744
0.920848 0.00236171 0.935381
1.04452 -0.215775 0.756243
0.959863 -0.0534757 0.814445
1.02533 -0.165563 0.680195
1.03761 -0.206276 0.796125
0.953554 -0.0331546 0.940302
0.925082 -0.00526135 0.888091
1.01856 -0.14751 0.915124
0.962563 -0.0650569 0.749528
0.950588 -0.0500843 0.752186
0.979912 -0.0991747 0.701634
0.935746 -0.0193513 0.703068
1.01847 -0.16231 0.743952
1.06528 -0.23466 0.812373
1.03037 -0.194237 0.907766
0.952443 -0.045853 0.903598
1.01033 -0.153354 0.743637
1.0373 -0.197709 0.787808
1.00181 -0.125725 0.660342
1.07279 -0.255672 0.717925
0.987784 -0.112115 0.73182
1.05168 -0.229542 0.71614
0.97661 -0.0793066 0.882113
1.0523 -0.224217 0.862577
0.959266 -0.0558602 0.802298
1.05126 -0.221001 0.672683
0.983055 -0.0950768 0.923632
1.04124 -0.197472 0.863033
0.971124 -0.0755449 0.786824
0.99276 -0.125845 0.841801
1.02807 -0.173161 0.873742
0.995286 -0.119965 0.737622
0.926257 -0.00587044 0.915127
0.979646 -0.0971373 0.748161
1.04037 -0.198575 0.920808
0.969884 -0.0916388 0.921577
0.975926 -0.0857308 0.7651
1.03718 -0.195293 0.68769
0.941476 -0.0264865 0.890601
0.938258 -0.0374775 0.757362
0.938628 -0.029702 0.716675
1.07158 -0.25942 0.900011
0.986621 -0.110252 0.689683
1.0627 -0.238757 0.796402
1.05739 -0.23868 0.713643
0.974468 -0.0851727 0.68274
0.957241 -0.05563 0.783471
0.988507 -0.112772 0.891784
0.959444 -0.0601132 0.774007
0.956198 -0.0454488 0.852294
0.986794 -0.111464 0.857517
1.06981 -0.245054 0.801366
1.07628 -0.251286 0.698074
1.05572 -0.221395 0.756544
1.07519 -0.25792 0.856531
1.04328 -0.205985 0.655532
1.05536 -0.228913 0.847678
1.00416 -0.137599 0.758495
0.977878 -0.0873861 0.82598
0.960145 -0.0635221 0.73191
0.991968 -0.113806 0.759285
0.945799 -0.0347832 0.8427
0.936646 -0.0217843 0.864906
0.957938 -0.0566627 0.834303
1.04867 -0.215804 0.777221
1.01949 -0.174003 0.875167
0.96494 -0.0722567 0.731584
0.964682 -0.0735273 0.845352
1.01846 -0.163515 0.933413
0.932787 -0.0206578 0.748553
0.963284 -0.0711761 0.799938
1.05136 -0.21288 0.813976
1.01246 -0.159448 0.845322
1.01082 -0.143538 0.687311
0.965616 -0.0720304 0.938019
1.01895 -0.154645 0.682322
0.997114 -0.130594 0.920993
1.04043 -0.192682 0.870135
0.934032 -0.0132647 0.711926
0.963138 -0.066799 0.710952
1.04744 -0.21508 0.928731
0.956737 -0.0619765 0.863441
1.03894 -0.195848 0.795891
1.06021 -0.241723 0.868832
1.06982 -0.249203 0.768316
0.944159 -0.0275962 0.808098
0.961251 -0.0684103 0.764701
1.03595 -0.19498 0.688402
1.02186 -0.165421 0.715617
1.07367 -0.259619 0.653488
0.944436 -0.0352158 0.852707
1.04916 -0.219891 0.697789
0.929444 -0.00800424 0.84751
1.05359 -0.225509 0.939963
1.0609 -0.22959 0.710211
1.03509 -0.199098 0.872763
0.960201 -0.0606947 0.865282
1.0198 -0.15693 0.814162
1.04387 -0.202316 0.929473
1.07048 -0.244586 0.774892
1.01822 -0.167203 0.944638
1.02732 -0.173439 0.655922
0.994404 -0.111823 0.769177
0.984798 -0.105382 0.729603
0.933091 -0.00923055 0.897183
1.02006 -0.161616 0.781332
0.980467 -0.0988029 0.84754
0.965362 -0.0761339 0.763763
1.034 -0.192463 0.771631
0.930202 -0.00923395 0.770183
0.971798 -0.0745252 0.746592
0.93846 -0.0255367 0.656106
1.04059 -0.2064 0.656231
1.0187 -0.158037 0.680643
0.973769 -0.0912596 0.704305
0.968188 -0.0748112 0.679751
0.958907 -0.049248 0.868983
1.06015 -0.228545 0.726901
0.938872 -0.0332378 0.863983
0.948932 -0.0393643 0.810113
0.999838 -0.14005 0.735967
0.995606 -0.126501 0.682788
1.04338 -0.210149 0.806711
0.990092 -0.116729 0.721706
1.07687 -0.251904 0.689092
1.07336 -0.251992 0.657846
1.05482 -0.22964 0.867361
0.983467 -0.0899542 0.724458
0.92679 -0.00559962 0.784296
0.972016 -0.0815196 0.69904
1.04873 -0.211514 0.826366
1.06441 -0.235687 0.859672
1.0242 -0.176921 0.836858
1.0533 -0.228553 0.762411
1.02085 -0.177479 0.672702
0.949947 -0.044272 0.900807
1.05686 -0.231817 0.891933
1.06681 -0.243135 0.820395
1.03114 -0.17572 0.8261
0.964902 -0.0770362 0.798908
1.07459 -0.252916 0.790535
1.0717 -0.254031 0.704686
0.965659 -0.0771021 0.923665
1.05596 -0.221714 0.846822
0.965429 -0.0824996 0.729661
1.07161 -0.248293 0.80852
0.927316 -0.0086188 0.938129
0.997149 -0.12188 0.86945
1.04567 -0.203554 0.733132
0.996219 -0.128578 0.891599
1.01692 -0.163707 0.896809
0.971158 -0.0815365 0.699464
0.954984 -0.0566212 0.8466
1.06849 -0.242788 0.765856
1.01225 -0.151634 0.88042
1.0497 -0.209683 0.69675
1.06901 -0.254767 0.834376
0.925878 0.00244281 0.707632
1.04588 -0.213122 0.852203
0.975259 -0.0817716 0.721754
1.03524 -0.185331 0.729422
0.925503 -0.00496795 0.909746
1.07384 -0.258089 0.834604
1.02565 -0.172089 0.927663
0.955545 -0.0540793 0.702349
1.06698 -0.24904 0.901754
0.926308 -0.00763222 0.871791
1.03995 -0.187374 0.777508
1.06961 -0.240958 0.94464
0.966513 -0.0715259 0.818386
1.02343 -0.16242 0.766186
0.940028 -0.025748 0.78977
1.03246 -0.189082 0.810157
0.98427 -0.110413 0.73258
1.04957 -0.217954 0.767221
1.06113 -0.237291 0.912924
1.07611 -0.255978 0.778947
0.947246 -0.0480133 0.918045
0.970166 -0.0816008 0.915907
1.0369 -0.193231 0.913957
0.950593 -0.0516444 0.931495
0.980393 -0.0912631 0.75708
1.03679 -0.194363 0.9227
1.04139 -0.204857 0.765511
1.02029 -0.168205 0.899845
1.07477 -0.246665 0.889602
0.948439 -0.0427127 0.871537
0.93664 -0.0205119 0.883342
0.941881 -0.0403634 0.774858
0.969034 -0.0850298 0.697094
0.961393 -0.0660364 0.768064
1.0109 -0.15544 0.761093
1.01356 -0.164281 0.654116
0.946674 -0.0335001 0.715235
0.948631 -0.0437948 0.907752
0.939012 -0.025618 0.657142
1.03977 -0.199825 0.767501
1.02777 -0.183724 0.820498
1.00752 -0.144777 0.745148
1.06715 -0.237752 0.88461
0.968059 -0.0758312 0.772196
1.05447 -0.225782 0.816349
1.01749 -0.169104 0.810568
1.06631 -0.244037 0.671256
0.981601 -0.107397 0.81072
0.947466 -0.0489791 0.783502
0.958274 -0.0552389 0.817774
0.929911 -0.000972357 0.766237
1.05435 -0.221054 0.680285
0.931355 -0.0142055 0.753896
1.03706 -0.195389 0.695672
0.924235 -0.00221938 0.681074
0.985874 -0.116672 0.760703
0.989497 -0.103003 0.784403
0.946957 -0.0283196 0.845949
0.976241 -0.0885619 0.935013
0.942056 -0.0395911 0.697926
1.05048 -0.229176 0.82365
1.00769 -0.148971 0.736244
1.05904 -0.233002 0.901877
1.02896 -0.180999 0.898853
1.05839 -0.225901 0.774161
0.952552 -0.0314595 0.88591
0.988745 -0.1126 0.924017
1.01632 -0.156792 0.662555
1.05119 -0.211597 0.911745
1.03716 -0.19515 0.812453
0.954485 -0.0557975 0.747333
0.989634 -0.120737 0.932711
1.0255 -0.173565 0.744615
0.984202 -0.105305 0.763265
0.99582 -0.113903 0.663592
0.953602 -0.0530038 0.759941
0.990519 -0.106392 0.899339
1.03501 -0.192655 0.675182
1.06629 -0.25119 0.823503
0.99127 -0.121822 0.773032
0.993064 -0.131327 0.792629
0.950875 -0.0495752 0.793643
1.01986 -0.1603 0.930309
1.01728 -0.162654 0.762336
1.02206 -0.167078 0.811118
0.95098 -0.0456632 0.811268
1.02808 -0.186024 0.682832
1.04317 -0.201932 0.666785
0.960088 -0.0538484 0.871614
1.04745 -0.222299 0.865745
0.956686 -0.0563316 0.916383
0.993251 -0.11689 0.728696
0.927509 -0.0042421 0.756417
1.05424 -0.225145 0.75871
1.06058 -0.239171 0.757953
1.06581 -0.246899 0.741003
1.07572 -0.258569 0.70706
1.00767 -0.14076 0.869241
0.956112 -0.0452074 0.680695
1.06781 -0.252849 0.737106
1.02679 -0.174884 0.735087
1.0079 -0.147524 0.659649
0.952239 -0.0564691 0.796883
0.945786 -0.0292964 0.694155
0.994016 -0.108192 0.670951
1.03826 -0.189527 0.859376
1.05285 -0.215603 0.947112
0.954599 -0.0531599 0.849426
0.999033 -0.123111 0.839582
0.925436 -0.0136515 0.663146
0.977488 -0.093045 0.749906
1.05002 -0.217925 0.930204
0.984112 -0.104395 0.826177
0.981467 -0.0980619 0.665178
0.933222 -0.0234395 0.888092
1.02208 -0.157506 0.761609
1.02579 -0.180992 0.948378
1.0398 -0.207287 0.683264
1.03638 -0.194507 0.834609
0.986427 -0.10311 0.883765
1.03999 -0.201013 0.868944
1.03734 -0.193923 0.729658
1.00129 -0.1361 0.927759
0.995495 -0.119233 0.813576
0.943339 -0.0417134 0.779083
0.96212 -0.0652189 0.802594
0.976992 -0.0844303 0.886607
0.976135 -0.0871621 0.876868
1.0674 -0.250929 0.726468
0.997175 -0.131395 0.809813
1.01904 -0.170144 0.785783
0.996794 -0.120511 0.779594
0.949857 -0.0472347 0.938612
1.0608 -0.233788 0.929285
0.929577 -0.0093784 0.857459
1.03904 -0.195003 0.900762
0.922505 -0.00581669 0.747158
0.931052 -0.00573033 0.858104
1.04672 -0.214576 0.778637
1.0566 -0.220194 0.756933
1.01426 -0.148649 0.903122
0.996805 -0.119301 0.836704
1.06623 -0.253774 0.766345
1.06128 -0.239019 0.862301
0.967743 -0.0699464 0.837547
1.05793 -0.238475 0.6909
0.970336 -0.0792128 0.923055
1.01332 -0.150612 0.932936
0.960632 -0.0589045 0.705559
1.03467 -0.180532 0.902096
0.957389 -0.0591736 0.876424
0.955646 -0.0600913 0.874163
0.94152 -0.0246254 0.908264
0.948277 -0.0380644 0.788515
1.00373 -0.132251 0.941265
0.927416 -0.0190473 0.687781
1.0399 -0.201795 0.923458
1.00117 -0.135264 0.777289
0.932311 -0.00694227 0.738964
1.00555 -0.140289 0.81835
0.947252 -0.0288981 0.8845
0.939477 -0.0149098 0.890348
0.953814 -0.0493388 0.909611
1.02459 -0.166098 0.687355
1.07125 -0.248831 0.706175
0.98212 -0.0935767 0.712731
1.06819 -0.24649 0.84763
1.07241 -0.254793 0.840569
1.01625 -0.157098 0.796779
1.01641 -0.16135 0.70747
1.01174 -0.149392 0.930912
0.949473 -0.0364357 0.709525
1.03549 -0.189802 0.861841
0.958635 -0.0482793 0.942984
0.937155 -0.0307238 0.694445
1.02008 -0.170158 0.829905
0.995887 -0.134113 0.748989
0.932175 -0.01601 0.70952
0.942558 -0.0190493 0.91737
0.923791 -0.000257204 0.827182
0.936473 -0.0154931 0.662611
1.06875 -0.241236 0.773895
1.02908 -0.193395 0.92484
0.9257 0.00024449 0.662784
1.0167 -0.161694 0.711005
0.938538 -0.024848 0.822694
0.987896 -0.108586 0.675305
0.941195 -0.0255434 0.66723
0.960514 -0.048383 0.91577
1.07776 -0.256334 0.79161
0.954953 -0.0488834 0.668087
1.02551 -0.177377 0.775306
