ply
format ascii 1.0
comment Created by Open3D
element vertex 1765
property double x
property double y
property double z
end_header
1.04437 0.192978 0.743474
1.06388 0.257158 0.746004
1.00991 0.13498 0.74854
1.04599 0.219502 0.947842
0.952395 0.0301014 0.687026
1.04982 0.227652 0.813603
1.05832 0.219029 0.671797
1.06456 0.242635 0.885476
0.927096 0.0411871 0.861633
1.06817 0.226899 0.779535
0.996659 0.10894 0.891183
0.972963 0.0966071 0.902708
0.983263 0.117158 0.949029
1.02962 0.177595 0.867214
1.02968 0.152108 0.911886
1.03606 0.198448 0.930566
0.99214 0.108434 0.686027
1.01317 0.183142 0.784466
0.995866 0.115741 0.888946
1.01609 0.142391 0.851161
1.02857 0.184421 0.723522
0.972301 0.108064 0.751141
0.933055 0.0318038 0.860086
1.07187 0.234223 0.762982
1.03242 0.195444 0.811786
1.02837 0.208412 0.93802
0.958122 0.0713815 0.928158
1.03108 0.204655 0.914711
1.04707 0.202365 0.768461
0.925634 0.0187611 0.92725
0.977505 0.0771148 0.732175
1.05996 0.226552 0.925534
0.966676 0.0753933 0.663636
0.970476 0.0822643 0.934077
0.945283 0.0613775 0.857254
0.949401 0.0783831 0.821628
0.934246 0.028491 0.833512
1.01032 0.150559 0.812712
0.943725 0.0151334 0.767458
1.06001 0.232372 0.916872
0.952332 0.064416 0.732551
1.00036 0.0944199 0.748324
0.945466 0.00951552 0.850692
1.075 0.248081 0.667323
0.943398 0.026064 0.933157
1.02134 0.165656 0.768912
1.08433 0.258123 0.847922
1.00663 0.148573 0.915576
1.06034 0.213997 0.814635
1.01294 0.120943 0.662469
0.994491 0.128927 0.932589
0.957645 0.0877208 0.759654
0.996977 0.174512 0.893556
1.03316 0.147974 0.651213
1.02638 0.208028 0.737919
0.950184 0.0405976 0.692277
1.0046 0.164591 0.919074
1.05145 0.191985 0.817243
1.03086 0.183807 0.658624
1.06165 0.216343 0.912169
1.05931 0.250538 0.787397
0.950433 0.0223796 0.717058
1.01748 0.174076 0.672022
1.03582 0.171535 0.892473
1.0576 0.209924 0.735826
0.934199 0.035485 0.793854
0.986447 0.122642 0.655447
0.994619 0.0964922 0.891526
1.05725 0.200001 0.929845
0.941919 0.0217097 0.657044
1.01702 0.152603 0.764712
0.992618 0.104863 0.942281
1.02013 0.156033 0.728594
1.03229 0.175334 0.910152
0.937841 0.0146113 0.903984
0.994198 0.156397 0.708705
0.988426 0.11998 0.729993
0.945079 0.0439355 0.712261
0.963943 0.0984496 0.804439
0.999183 0.102238 0.829508
0.94243 0.0421685 0.842736
0.968896 0.0834091 0.776844
0.984179 0.140811 0.760731
0.926151 0.0149135 0.840876
1.00936 0.112159 0.81564
1.05199 0.204545 0.84598
0.980513 0.0817172 0.666466
1.00646 0.136581 0.886795
0.942309 -0.00772968 0.672351
1.03705 0.202542 0.71198
0.967578 0.0600493 0.707196
1.0179 0.134044 0.714817
1.04265 0.212441 0.748191
1.01323 0.165365 0.816397
0.971789 0.0271972 0.915256
0.992333 0.112413 0.904767
1.00381 0.166284 0.669344
0.956784 0.0289624 0.665427
0.935382 0.0360215 0.708563
1.04542 0.181602 0.667099
1.00774 0.145519 0.727923
1.06492 0.272116 0.85255
1.05226 0.201331 0.815958
0.97715 0.0537195 0.921579
1.03101 0.14126 0.905347
1.05136 0.234501 0.838474
1.0778 0.231866 0.776313
1.0173 0.181446 0.813351
0.988738 0.112341 0.890694
1.00221 0.132114 0.880816
1.00351 0.186963 0.671858
1.05705 0.234337 0.936276
1.08138 0.264163 0.890648
1.01859 0.153361 0.91101
0.966694 0.0947397 0.920283
1.03998 0.216023 0.921312
1.0458 0.225241 0.797885
1.00674 0.161191 0.90552
1.06949 0.217859 0.904696
1.06432 0.220662 0.695763
0.944027 0.0352825 0.842251
0.91731 -0.00241225 0.855541
0.995301 0.110122 0.657222
0.991421 0.106471 0.911824
0.965612 0.0656425 0.65131
0.952381 0.0665049 0.759674
0.937246 0.00446084 0.949012
1.00984 0.155532 0.769628
1.06643 0.210953 0.879855
0.929864 0.0162201 0.912835
0.916393 0.016581 0.749971
1.03423 0.19176 0.933682
1.01536 0.182239 0.800635
0.936268 0.0443423 0.672564
1.05704 0.198887 0.748025
1.05719 0.248368 0.783981
1.02249 0.166337 0.720237
0.986407 0.132028 0.751132
1.08108 0.231689 0.753773
0.956773 0.0753493 0.910543
1.04764 0.227897 0.774819
1.02323 0.136826 0.935802
0.974126 0.114676 0.873282
0.977895 0.118967 0.948737
0.965734 0.0866484 0.704032
0.932171 -0.0179811 0.821992
1.01268 0.187654 0.80905
0.950243 0.0439364 0.860797
0.940462 0.030633 0.846563
1.06934 0.215925 0.859706
1.05366 0.241449 0.896858
1.00027 0.148941 0.725041
0.939346 0.0374002 0.914965
1.03664 0.180491 0.884186
0.93274 -0.000241081 0.708375
1.02111 0.181275 0.913009
0.90952 -0.00639056 0.777543
0.940721 0.00532301 0.903727
0.963956 0.055951 0.736888
1.00239 0.146636 0.889323
1.01859 0.184829 0.702175
1.04802 0.192471 0.811193
1.05285 0.219032 0.778324
0.920915 0.0256338 0.701284
1.06231 0.213037 0.838158
1.0011 0.119138 0.965908
1.03227 0.170727 0.776586
0.998619 0.151596 0.721119
0.938079 0.0321832 0.890521
1.07266 0.232095 0.818353
1.01895 0.142136 0.735593
1.05574 0.219829 0.84889
1.07257 0.236536 0.791006
1.03037 0.210036 0.772178
1.07828 0.221629 0.953669
1.00591 0.119434 0.680922
0.939742 0.0295593 0.762437
1.05261 0.213798 0.849576
1.01029 0.150455 0.854218
1.06541 0.219979 0.885952
0.945207 0.0321514 0.908129
1.03359 0.210119 0.766044
1.03408 0.197916 0.773685
0.930899 0.0129906 0.688176
1.04473 0.253786 0.910794
0.973433 0.0821431 0.735095
0.98958 0.113332 0.657788
1.04236 0.191513 0.787344
1.04477 0.192705 0.784249
1.01925 0.192129 0.717144
0.985345 0.0985524 0.783892
0.944028 0.0404883 0.795417
1.02064 0.157657 0.713921
1.07108 0.230804 0.731113
1.06608 0.241483 0.766162
0.966878 0.0842844 0.791241
1.02109 0.186681 0.706175
1.04821 0.17815 0.707785
0.955775 0.0204834 0.659604
0.968782 0.0555433 0.723008
1.00353 0.119478 0.69156
0.99725 0.11256 0.783116
0.914382 -0.00182133 0.869971
0.932344 0.033902 0.80232
0.945356 0.0611393 0.777413
0.985906 0.107988 0.820573
0.924335 0.00549158 0.889069
0.98157 0.0968149 0.717591
0.966813 0.105003 0.867065
1.07092 0.254843 0.758982
0.944113 0.013538 0.653601
1.03251 0.167418 0.800475
0.966287 0.0877642 0.815815
0.923941 -0.000664616 0.660682
0.986462 0.105626 0.659249
0.945532 0.0267938 0.901265
0.998299 0.0988345 0.721345
0.960987 0.0698719 0.762427
1.05071 0.244452 0.895931
0.961537 0.0597301 0.798948
0.988736 0.102729 0.712962
1.04336 0.177925 0.879902
0.979378 0.107794 0.727904
0.922068 0.0478095 0.819897
0.998683 0.138164 0.872926
0.935458 0.0189782 0.789492
0.937712 0.000296759 0.688479
0.980342 0.0619237 0.752975
1.00711 0.166495 0.877386
1.05643 0.236285 0.682058
1.00336 0.15719 0.896172
1.02581 0.162258 0.950522
0.959087 0.0570165 0.818341
1.07105 0.254759 0.663932
1.0515 0.274747 0.674176
1.00215 0.160084 0.799263
1.04923 0.201134 0.757208
0.993923 0.128921 0.886035
1.02525 0.163008 0.813851
0.974673 0.0983238 0.892074
1.08616 0.255039 0.747373
1.08546 0.249238 0.945176
1.06359 0.229544 0.676954
0.913689 -0.0179435 0.78126
0.939111 0.0306889 0.771714
1.0218 0.169014 0.699089
1.0016 0.114026 0.85595
0.970294 0.0860045 0.779884
1.03249 0.204192 0.902357
1.00678 0.163508 0.728997
1.03422 0.203452 0.894849
1.008 0.145586 0.947542
1.00582 0.153724 0.890196
0.944784 0.0164703 0.903678
1.00944 0.191883 0.76505
0.965072 0.0394577 0.71999
1.01411 0.167475 0.763828
0.959975 0.0441489 0.694486
1.05669 0.226281 0.857432
1.01125 0.127149 0.661524
1.00747 0.112619 0.824554
1.03429 0.183134 0.68859
0.987799 0.125877 0.654532
1.05075 0.224738 0.837338
0.924122 0.0219761 0.829094
1.02507 0.17321 0.79449
0.968675 0.091202 0.733517
0.946525 0.0414579 0.842102
1.0703 0.263613 0.687377
1.02875 0.177401 0.8368
1.02863 0.202333 0.77125
0.988168 0.0968794 0.838919
1.08115 0.246847 0.702572
1.03469 0.17838 0.826557
1.03306 0.176988 0.773031
0.93839 0.0260215 0.700718
1.00776 0.144612 0.706042
1.02903 0.166578 0.894404
1.02147 0.185668 0.681335
0.985725 0.126797 0.65243
0.961693 0.0782482 0.717562
1.05802 0.228335 0.840885
1.07125 0.245318 0.72347
0.987739 0.10096 0.927497
0.93159 -0.00094266 0.756148
0.988135 0.0825511 0.805922
1.05469 0.210062 0.66355
1.03642 0.194645 0.928095
0.989618 0.121939 0.922683
1.01015 0.18038 0.689595
1.05126 0.244464 0.809494
0.994971 0.0846882 0.690924
1.01611 0.138808 0.727951
1.02567 0.196718 0.888644
0.93602 -0.0108795 0.911623
0.967819 0.0976046 0.781668
0.93733 0.0460846 0.943216
0.97144 0.117337 0.837711
0.956735 0.0379284 0.8997
1.01911 0.177313 0.777044
1.03365 0.158188 0.786493
1.04747 0.250046 0.816745
0.988182 0.11099 0.889251
1.06025 0.211859 0.92747
0.986325 0.103074 0.825738
0.990686 0.136736 0.908774
0.92604 0.0114333 0.848619
1.01879 0.153116 0.782866
0.944276 0.0206103 0.687821
1.03903 0.169242 0.859802
0.964929 0.0745366 0.728224
0.964105 0.0610219 0.688281
1.02113 0.16009 0.91538
1.02475 0.151826 0.732334
1.00445 0.136055 0.763644
0.99691 0.13546 0.745189
1.00718 0.14729 0.883795
1.07592 0.244531 0.717339
1.04096 0.140966 0.920107
1.08342 0.24562 0.647541
1.02294 0.161963 0.919147
1.03686 0.19912 0.741615
0.962715 0.0808641 0.7577
1.05457 0.190083 0.90479
0.958838 0.0781952 0.834482
1.07746 0.248768 0.677774
0.950672 0.103181 0.677396
0.985079 0.121319 0.791244
1.0515 0.17371 0.919001
0.994712 0.123163 0.881058
1.01431 0.182903 0.789156
0.932457 0.024601 0.695593
0.907349 -0.00713985 0.708302
1.07928 0.235167 0.840142
0.970121 0.079655 0.694598
0.945239 0.0312273 0.892037
0.940158 0.00929459 0.701205
0.933377 0.0317718 0.730241
1.00377 0.119449 0.665162
0.961627 0.0422762 0.752213
1.05272 0.254061 0.765126
1.00436 0.167925 0.879053
0.943663 0.0399294 0.765014
0.935193 0.0443023 0.852913
0.9571 0.058015 0.830343
0.929548 0.0224062 0.890086
0.995769 0.0884143 0.816557
1.04533 0.190468 0.871712
0.929448 0.0222383 0.871171
1.0121 0.137884 0.935252
0.943312 0.0726774 0.882534
1.03162 0.172755 0.638411
1.07095 0.275052 0.912113
0.978836 0.0713886 0.695899
0.94394 0.0497264 0.6686
0.938356 0.0147104 0.821998
0.951638 0.0646642 0.905542
0.998216 0.11047 0.812444
0.963046 0.0612685 0.972629
0.920565 -0.00314464 0.819903
1.04108 0.192628 0.973393
1.01396 0.166719 0.771572
1.00536 0.11699 0.920091
0.949738 0.0332017 0.697174
0.958051 0.0498085 0.727102
0.992751 0.110746 0.79335
1.02681 0.195881 0.777285
1.02202 0.183512 0.684703
0.944409 0.0146261 0.751998
1.06531 0.230893 0.780809
0.986446 0.113913 0.85959
1.04961 0.183233 0.712341
1.04393 0.23639 0.770267
1.07699 0.243752 0.969327
0.992658 0.119497 0.925464
1.04091 0.201529 0.670586
1.02862 0.172489 0.780528
0.999122 0.112438 0.757354
1.04969 0.251581 0.911756
0.986963 0.0504377 0.828506
1.06997 0.221776 0.688416
0.99026 0.109347 0.851936
0.9884 0.103271 0.714925
0.958151 0.0422524 0.680242
1.06372 0.220487 0.917346
0.976352 0.0952536 0.790309
1.05673 0.222016 0.770545
0.928127 -0.00793078 0.737203
0.973132 0.128638 0.925443
1.00431 0.116996 0.673831
1.03767 0.171017 0.82559
0.994191 0.128811 0.867291
1.00101 0.122165 0.936473
0.984247 0.121842 0.719705
0.937314 0.0402726 0.771462
1.0526 0.213816 0.666545
0.988245 0.109211 0.796187
0.986234 0.111316 0.886933
0.925495 0.00866533 0.944746
0.961035 0.0785651 0.799392
1.07039 0.260798 0.756406
1.0695 0.260341 0.957653
1.03979 0.185466 0.927091
1.02465 0.196385 0.911749
0.977718 0.0996551 0.829122
0.963641 0.0873175 0.693667
0.941571 0.0260452 0.912414
1.05972 0.231592 0.891513
1.04791 0.224256 0.686535
0.989953 0.110569 0.78452
1.0614 0.245533 0.720802
1.02247 0.167577 0.703645
0.970603 0.0808536 0.90823
1.06323 0.236678 0.913121
1.0028 0.134807 0.737344
0.982316 0.095637 0.660164
0.930913 -0.014136 0.74861
0.994995 0.134727 0.865312
0.924616 0.0384432 0.691239
0.930231 0.0476367 0.838064
0.965782 0.0763709 0.836951
0.945203 0.0541382 0.949552
1.01849 0.159751 0.905399
1.06384 0.222959 0.700228
0.990841 0.126251 0.646379
0.956356 0.0640849 0.668155
0.994802 0.128126 0.806408
1.08092 0.244351 0.884514
1.00842 0.138784 0.842027
0.992582 0.101533 0.786641
0.934077 0.0111072 0.781233
0.928552 0.00537426 0.957542
1.01083 0.136398 0.756743
0.978934 0.117718 0.905494
0.93261 0.00756535 0.815838
1.02809 0.163801 0.774883
1.07153 0.235677 0.890627
0.997573 0.152138 0.670705
0.950238 0.0139314 0.849248
0.939967 0.0288491 0.668574
1.00681 0.156758 0.887054
0.948866 0.0754691 0.71583
1.02841 0.149524 0.805265
1.0375 0.218357 0.928798
0.97964 0.138273 0.721959
1.01319 0.135341 0.929026
1.01734 0.16417 0.787429
1.06795 0.235622 0.884849
0.934403 0.0396811 0.81985
0.920395 -0.000180812 0.80019
1.05514 0.242031 0.80183
1.06754 0.232612 0.936849
1.00803 0.143494 0.733567
1.06202 0.249372 0.884908
1.01726 0.15379 0.828568
0.940116 0.0171267 0.815242
0.962126 0.0770072 0.6793
0.969085 0.0446504 0.912539
1.05434 0.221762 0.7428
0.952117 0.0772621 0.91876
1.04875 0.220458 0.920934
0.966301 0.0632785 0.855906
0.98362 0.108644 0.894457
1.00428 0.125727 0.889713
0.99391 0.162643 0.679207
1.00609 0.134028 0.70822
0.950093 0.0763429 0.833872
1.05537 0.207596 0.737995
1.06554 0.247295 0.700857
1.04022 0.178324 0.849949
1.05636 0.22957 0.942655
0.969827 0.0740925 0.85186
1.02724 0.172679 0.723097
1.07349 0.273568 0.771078
0.979658 0.0712493 0.730382
1.06097 0.230914 0.90404
0.938169 0.0626935 0.916816
0.999799 0.121204 0.887783
1.03032 0.153166 0.831575
0.966257 0.108627 0.841716
0.986596 0.0823505 0.830902
1.04594 0.2341 0.857298
1.02865 0.160377 0.796734
1.07084 0.235573 0.901712
1.05603 0.214213 0.850634
1.05509 0.225175 0.797774
1.03216 0.178559 0.859982
1.05661 0.239239 0.882094
0.989249 0.150481 0.871469
0.994399 0.0924867 0.903575
1.02166 0.131218 0.960321
0.914039 0.0221443 0.882828
1.01425 0.157924 0.908878
1.02479 0.140273 0.75088
0.939978 0.0565501 0.737876
1.01235 0.164472 0.744362
1.01748 0.158132 0.861933
0.966001 0.0762781 0.903417
1.05203 0.214259 0.734165
0.980768 0.0949087 0.881508
1.01699 0.169173 0.885595
0.980679 0.0974548 0.819656
0.944855 0.0144394 0.840862
0.968038 0.0933519 0.941377
1.03169 0.161237 0.822567
0.997142 0.138063 0.881044
1.03161 0.230033 0.742445
1.01284 0.131722 0.682443
0.981906 0.0743461 0.830981
0.962911 0.0635336 0.673948
1.06185 0.221945 0.780165
0.979301 0.0543852 0.866375
0.983092 0.0936762 0.90156
1.07019 0.257859 0.900633
1.0273 0.185392 0.734648
1.03314 0.206087 0.728128
0.973206 0.116809 0.905482
1.03301 0.173781 0.706474
1.02686 0.164275 0.882088
1.03212 0.171727 0.82665
1.06926 0.244132 0.736169
1.03263 0.174456 0.694785
0.991173 0.0835987 0.823535
0.933478 0.0317817 0.694427
1.01307 0.147676 0.817597
0.953647 0.0650086 0.940746
0.967175 0.0668295 0.830493
1.0266 0.16824 0.734597
1.05166 0.204933 0.878166
1.04583 0.210594 0.636583
1.07294 0.235115 0.698207
0.971112 0.0886655 0.887203
0.977042 0.0964035 0.904934
1.07249 0.249027 0.89386
1.0768 0.251847 0.868072
0.967909 0.102297 0.67344
1.05377 0.231202 0.636946
1.02166 0.175545 0.879169
0.963881 0.0491116 0.799006
1.04206 0.235946 0.913816
0.970692 0.0878922 0.909203
0.98044 0.12433 0.909156
0.938592 0.0437995 0.887124
1.08332 0.245841 0.753014
0.97905 0.0946199 0.890404
0.964279 0.0757316 0.810744
0.978766 0.093025 0.786083
1.02876 0.190024 0.669371
1.07584 0.238592 0.882672
0.977173 0.109842 0.702507
0.943963 0.0273967 0.839836
1.05583 0.227583 0.845832
0.948016 0.06826 0.717282
1.04754 0.249984 0.919776
0.980858 0.119029 0.675468
1.04807 0.188575 0.867476
1.02633 0.187502 0.662491
0.975723 0.0456703 0.93104
1.07891 0.253339 0.925768
0.963871 0.0448632 0.809067
1.04586 0.155606 0.900882
0.938982 0.0397919 0.948592
0.946062 0.0581116 0.761177
1.07831 0.256932 0.784754
1.06524 0.25509 0.662933
0.949783 0.00875112 0.780684
0.965787 0.0710501 0.903036
0.995649 0.0872558 0.711189
1.03448 0.174251 0.843985
0.925252 -0.00323128 0.8227
1.04555 0.163574 0.792824
0.94547 0.0575572 0.776563
1.01127 0.151145 0.705622
1.07856 0.254397 0.8069
1.04484 0.1904 0.719918
0.960171 0.0632965 0.708715
0.940658 0.0276423 0.826693
0.974634 0.0993506 0.688786
0.990855 0.0971846 0.855776
0.951667 0.0407193 0.772482
0.994135 0.13384 0.961704
1.00677 0.13311 0.906761
0.978196 0.130935 0.720498
1.05536 0.21174 0.906015
1.02327 0.195745 0.929162
1.04928 0.213883 0.766793
0.971711 0.0839246 0.848851
1.04941 0.204652 0.936958
0.984289 0.0784918 0.812996
1.0063 0.147348 0.688135
0.991764 0.131185 0.925482
0.989746 0.110514 0.818707
0.933119 0.0482209 0.891776
0.972286 0.114253 0.794935
0.934535 0.0374707 0.801804
1.03252 0.177411 0.839406
0.957277 0.0438872 0.939546
1.05548 0.230212 0.705328
1.06148 0.229914 0.748272
0.931704 0.000231741 0.923759
0.952468 0.0819349 0.876148
0.926277 0.011413 0.783883
1.07178 0.232094 0.800565
1.04575 0.212034 0.717734
1.01523 0.153918 0.773291
1.05447 0.232001 0.694435
1.03302 0.13336 0.710648
1.04522 0.172557 0.905336
1.0646 0.226358 0.68734
1.03651 0.17441 0.866176
1.03443 0.212799 0.660376
0.939975 0.0536854 0.687063
0.954758 0.0651352 0.689633
1.00497 0.105731 0.735386
1.00509 0.15387 0.821272
1.0683 0.206179 0.881348
1.0747 0.240388 0.864086
1.03486 0.193232 0.870351
1.03912 0.224552 0.689395
0.973669 0.100568 0.893618
1.04405 0.196561 0.664927
1.04593 0.200137 0.886156
0.958976 0.0444386 0.855352
1.00664 0.118005 0.732824
1.00326 0.142222 0.694149
0.942369 0.0100858 0.683221
1.06035 0.243742 0.856464
1.06003 0.204197 0.798811
1.0314 0.198583 0.717811
0.969133 0.0996192 0.73359
0.978694 0.0761535 0.727247
1.01076 0.134427 0.839822
0.975301 0.122765 0.790982
1.00445 0.140169 0.694913
0.986557 0.0928293 0.64892
1.03703 0.22593 0.893814
0.974816 0.0512288 0.817394
1.04525 0.222072 0.764831
1.01811 0.162429 0.78829
1.08015 0.251564 0.685374
1.04094 0.213935 0.725059
0.950868 0.0358497 0.672846
1.00998 0.145281 0.928964
0.94894 0.0307324 0.898888
0.952788 0.0521284 0.942144
1.04114 0.175198 0.864005
0.982722 0.0806263 0.88944
1.03877 0.186426 0.891794
0.95537 0.0310472 0.876843
1.03675 0.19643 0.722496
0.949456 0.0134409 0.864783
1.0702 0.250855 0.891022
0.992809 0.108296 0.931889
1.0421 0.245311 0.951411
1.01188 0.150206 0.747845
1.02635 0.168645 0.93927
0.930988 0.0207818 0.852575
1.03526 0.214342 0.804575
0.932771 0.00948471 0.791394
0.996161 0.107746 0.72236
1.05772 0.210071 0.725805
1.04888 0.185698 0.897455
1.02503 0.154873 0.769008
0.976174 0.0750167 0.928566
1.02639 0.177003 0.909754
1.0195 0.172505 0.743474
0.95762 0.0887716 0.909985
1.00732 0.124328 0.700476
0.951749 0.0458786 0.890223
0.968398 0.0881404 0.893989
1.0239 0.204629 0.830472
1.03027 0.201356 0.75271
1.015 0.161838 0.722193
1.07191 0.229606 0.742184
0.988715 0.0874602 0.771435
1.07036 0.251261 0.885423
0.954801 0.0477221 0.820724
0.963548 0.0934794 0.760171
0.929208 0.0114047 0.661645
1.07954 0.246062 0.835398
1.04328 0.206548 0.658134
0.954609 0.0160826 0.922341
0.92822 0.0136186 0.944662
0.945286 0.0504442 0.781431
1.08659 0.253836 0.894482
0.951464 0.0505729 0.936018
1.02791 0.152681 0.910797
1.01683 0.183609 0.911502
1.03865 0.217265 0.777192
0.957554 0.0590643 0.923746
0.960577 0.100019 0.886246
0.963993 0.0650789 0.715218
0.978928 0.0749367 0.804248
1.01898 0.193842 0.893367
1.02502 0.196789 0.687549
1.01785 0.137415 0.75304
0.969811 0.0744377 0.676014
0.968139 0.0624921 0.688147
0.986803 0.114691 0.731867
1.03135 0.213955 0.938204
1.05944 0.227015 0.671563
0.980124 0.088837 0.85287
1.04344 0.205018 0.870905
0.91836 0.0216752 0.928573
0.936614 0.0241273 0.922148
0.986 0.143211 0.653135
1.06424 0.252894 0.66901
0.992023 0.119188 0.739817
0.931854 0.0188992 0.814618
1.03139 0.133118 0.759464
1.02816 0.148514 0.720667
0.9977 0.105392 0.830799
1.04267 0.166631 0.711624
1.00424 0.0989122 0.908851
0.95351 0.0541708 0.942072
1.01689 0.144255 0.93325
1.04738 0.234382 0.822947
0.99228 0.0921798 0.916163
1.01838 0.151797 0.903673
1.02968 0.203256 0.730408
0.966303 0.065359 0.785086
1.06389 0.246136 0.777734
0.957223 0.0633493 0.85283
1.0533 0.252027 0.805432
0.966815 0.0794842 0.732422
1.06298 0.2534 0.791957
1.00466 0.162143 0.846043
1.05765 0.249197 0.768433
0.941886 0.0298865 0.695216
1.01913 0.138548 0.879632
1.01724 0.184739 0.884053
1.00851 0.171649 0.913221
0.99268 0.106322 0.815993
0.96682 0.108902 0.749558
1.01324 0.138594 0.795412
0.963136 0.0649379 0.679652
0.964711 0.100558 0.651423
0.958946 0.0613251 0.728004
1.00856 0.139048 0.751988
1.04119 0.187004 0.647615
0.995186 0.106837 0.825598
0.983676 0.120723 0.753563
0.963184 0.0588584 0.905783
1.01566 0.148731 0.873916
0.993974 0.107471 0.739674
1.05981 0.253554 0.919074
1.05681 0.248171 0.851749
0.944933 0.0235403 0.919931
0.949326 0.0485042 0.732357
1.00322 0.116375 0.902955
0.927855 0.0112427 0.76257
1.02339 0.187663 0.909676
1.03221 0.165402 0.843758
0.991778 0.142093 0.78221
1.00153 0.149893 0.877369
1.07136 0.254288 0.741239
0.955432 0.0657523 0.788059
1.03157 0.192775 0.897113
1.01399 0.15271 0.843665
1.06231 0.213927 0.811236
1.01863 0.152961 0.809305
1.02761 0.178581 0.698175
1.04357 0.250827 0.729276
1.01824 0.125447 0.674884
0.979195 0.101642 0.655855
0.913802 0.0410026 0.810612
1.02497 0.201408 0.804047
1.04006 0.189528 0.754681
1.04324 0.18348 0.732787
0.99991 0.111587 0.799925
1.04429 0.20838 0.860398
1.05674 0.230887 0.802271
1.02699 0.184831 0.697982
0.952758 0.050349 0.712327
0.953374 0.0173519 0.684123
1.04236 0.225287 0.718087
0.986209 0.114598 0.928178
0.919474 -0.0124589 0.917239
0.926365 0.0219947 0.811715
1.04068 0.19406 0.727446
0.933299 0.0431781 0.804739
1.06392 0.236223 0.859007
0.982961 0.134573 0.677515
1.06513 0.232224 0.854647
0.98242 0.114705 0.74349
1.0714 0.210482 0.938897
0.984642 0.100196 0.766027
1.08411 0.245566 0.835396
0.997178 0.115277 0.810794
0.977558 0.0815615 0.681402
0.957592 0.0558593 0.915517
0.942301 0.0330204 0.693851
1.05833 0.258606 0.736335
1.00473 0.126505 0.727993
1.06562 0.262789 0.770035
0.996821 0.150246 0.781602
1.0323 0.208114 0.871895
1.04441 0.19584 0.85493
0.979604 0.12798 0.74276
1.06063 0.186682 0.745851
0.934591 0.00112056 0.758652
1.00769 0.160781 0.806694
1.00202 0.126229 0.884425
1.0556 0.216779 0.792133
1.07021 0.242099 0.694536
0.942866 0.0356555 0.830726
1.04005 0.202699 0.723475
1.05299 0.204947 0.922708
1.04787 0.210705 0.847309
0.987602 0.131078 0.931147
1.01194 0.144646 0.838386
1.07304 0.258736 0.829116
1.09966 0.237485 0.745421
0.957437 0.037419 0.95238
0.959739 0.0687063 0.779805
1.04704 0.207274 0.915757
0.966488 0.0557471 0.853911
1.06282 0.242861 0.90262
1.03273 0.190692 0.837835
0.960824 0.02026 0.743755
1.02333 0.151904 0.921886
0.96515 0.0399899 0.897406
1.02485 0.158235 0.742038
1.00074 0.110837 0.750697
0.941914 0.0316898 0.836231
0.937828 0.0324314 0.933512
0.940276 0.0266675 0.685649
0.948009 0.0245962 0.76877
1.06815 0.219408 0.807884
1.04431 0.221017 0.753156
1.01706 0.151328 0.650699
0.946272 0.0427449 0.790231
0.984156 0.105385 0.66615
0.983257 0.129456 0.787951
0.993599 0.130045 0.646234
1.07249 0.249325 0.943883
0.984866 0.130426 0.944927
0.955557 0.0495855 0.806017
1.01818 0.174834 0.869586
1.05084 0.191923 0.667061
0.996432 0.138459 0.660816
0.959362 0.0685352 0.858696
0.997968 0.101205 0.805669
0.93986 0.0452787 0.709869
0.939744 0.0124483 0.84003
0.96357 0.0347976 0.674705
1.05928 0.209503 0.737134
0.937877 0.00801569 0.657454
1.04783 0.186623 0.686537
0.987369 0.132425 0.867457
0.998408 0.106947 0.702044
0.93841 -0.00397553 0.86317
0.965163 0.0470799 0.694212
0.953078 0.0718941 0.670544
0.998321 0.13197 0.895958
1.05438 0.214449 0.876184
1.00553 0.141489 0.909009
0.920597 0.0508673 0.701724
0.979991 0.091244 0.707873
0.919973 0.0231833 0.934831
0.918463 -0.00109805 0.871516
1.00178 0.115499 0.686243
0.949082 0.0643289 0.943342
0.987551 0.104736 0.800789
1.01563 0.132292 0.706723
1.02902 0.147925 0.884605
0.970695 0.0746289 0.684678
0.930095 0.0374497 0.905345
1.02033 0.156657 0.854632
0.966014 0.0319734 0.915931
0.998561 -0.143008 0.678394
1.05126 -0.223731 0.812356
1.02513 -0.165643 0.782494
1.02466 -0.191308 0.634899
0.952011 -0.0431416 0.749126
1.00297 -0.135802 0.770444
1.00746 -0.137003 0.937438
1.02034 -0.163814 0.72554
0.946174 -0.0502215 0.947033
0.936966 -0.040294 0.907529
0.993766 -0.0694802 0.649272
0.982078 -0.100843 0.902413
1.01156 -0.162432 0.83117
1.0245 -0.187043 0.829646
0.978103 -0.116163 0.833162
0.961463 -0.0893831 0.85173
1.06558 -0.241479 0.803683
1.01191 -0.130057 0.872637
0.965209 -0.0677424 0.673449
1.06686 -0.270529 0.795702
0.955983 -0.0384199 0.664651
0.974908 -0.0772313 0.895217
0.949132 -0.0160258 0.89679
0.927426 -0.00742324 0.818183
1.01449 -0.126819 0.835321
0.949852 -0.0160831 0.756371
0.931085 -0.0346069 0.655391
1.00759 -0.137668 0.785468
0.999493 -0.149441 0.810227
0.992456 -0.112881 0.642627
1.01555 -0.119847 0.848371
0.982584 -0.0966939 0.68584
1.02465 -0.173342 0.88631
1.0427 -0.206842 0.714618
1.0374 -0.184387 0.688622
1.04651 -0.199053 0.706347
0.993229 -0.10568 0.77276
1.0793 -0.254313 0.747991
1.01488 -0.13661 0.859963
0.942884 -0.0343037 0.772383
0.989936 -0.0994612 0.79884
1.02797 -0.172777 0.9164
0.995264 -0.116007 0.699061
1.03466 -0.204975 0.890695
0.983926 -0.100135 0.864163
0.991677 -0.130043 0.912657
1.01201 -0.181448 0.9329
1.01849 -0.196036 0.827185
0.958331 -0.0252922 0.716427
0.961578 -0.0639668 0.952573
0.98863 -0.111099 0.88832
1.01171 -0.181793 0.925184
1.06915 -0.240649 0.740632
0.962545 -0.0829858 0.923915
0.960678 -0.100014 0.759891
0.985894 -0.1164 0.691569
0.929397 -0.0712507 0.756056
0.972741 -0.0502508 0.8994
0.924384 -0.0155025 0.891468
0.95138 -0.0359071 0.844845
1.04443 -0.212026 0.684677
1.08111 -0.275882 0.771696
1.00597 -0.116929 0.673215
1.00027 -0.1295 0.687857
0.937991 -0.0329204 0.701038
1.00743 -0.157595 0.658851
1.05731 -0.234995 0.846634
0.924192 -0.0139324 0.923032
0.946499 -0.0602189 0.73939
1.00045 -0.10427 0.91988
1.03348 -0.176419 0.791396
0.98485 -0.116716 0.69896
0.99574 -0.0998547 0.801616
1.06348 -0.222358 0.876331
1.00933 -0.162818 0.742032
1.0912 -0.246153 0.780804
1.01262 -0.169342 0.783428
1.03385 -0.193576 0.73854
0.908135 0.0191744 0.800193
0.966024 -0.0596074 0.871865
0.970803 -0.0828813 0.68778
0.961701 -0.0279253 0.645361
1.04794 -0.197953 0.852776
0.959149 -0.0368632 0.946885
0.996342 -0.119163 0.889149
0.976773 -0.0903857 0.901393
0.989667 -0.130216 0.92486
0.944055 -0.0365555 0.86299
1.0155 -0.159587 0.671598
0.981846 -0.0932782 0.752917
0.959466 -0.043652 0.878176
0.98705 -0.0881369 0.88143
1.05816 -0.217166 0.726266
1.05455 -0.232095 0.947126
1.01143 -0.194157 0.837349
1.02793 -0.186877 0.725801
1.04619 -0.20969 0.761505
1.00728 -0.108391 0.837197
0.970487 -0.0623167 0.762249
0.970329 -0.0484292 0.665463
0.963381 -0.0620271 0.847615
1.08185 -0.237226 0.900167
0.982007 -0.0868229 0.806575
0.989459 -0.0997298 0.921036
1.05508 -0.235717 0.790105
1.0535 -0.210907 0.728478
0.963612 -0.0724668 0.70074
1.0376 -0.202001 0.65719
0.964061 -0.0505394 0.71741
0.920811 -0.00799081 0.810401
1.00758 -0.132787 0.710941
0.983935 -0.0605666 0.858217
1.02717 -0.190695 0.746064
0.911394 -0.00447604 0.675343
1.01148 -0.139558 0.688619
0.979816 -0.0995501 0.681875
1.06314 -0.255533 0.695603
0.971311 -0.0694802 0.921087
1.0357 -0.203106 0.72066
0.955653 -0.0447382 0.855516
1.08674 -0.28386 0.697099
1.04339 -0.200614 0.882131
1.03539 -0.205555 0.736056
0.938187 -0.0215408 0.831136
1.04272 -0.214676 0.674178
1.02546 -0.140021 0.803116
1.02643 -0.164489 0.664203
1.01189 -0.159954 0.952478
0.947905 -0.0353949 0.689221
0.986322 -0.0971917 0.925581
0.952339 -0.0548941 0.740506
0.938198 -0.025022 0.73138
0.997645 -0.137302 0.742827
0.92895 -0.020528 0.937927
1.06882 -0.247264 0.696618
0.945978 -0.0161832 0.80415
0.93749 -0.0302832 0.684681
0.926244 -0.0058349 0.864952
1.03959 -0.224209 0.877588
0.934908 -0.0251402 0.778439
1.03354 -0.169559 0.90171
1.03122 -0.179034 0.891133
1.00421 -0.132645 0.954709
0.97345 -0.0900276 0.856275
0.985853 -0.0850012 0.937642
0.961641 -0.0576893 0.927234
1.00797 -0.149729 0.678585
0.963041 -0.0769885 0.778977
1.0088 -0.131049 0.907149
0.989342 -0.113321 0.852487
0.967494 -0.0703784 0.721521
1.03219 -0.175458 0.734735
1.05903 -0.241107 0.878526
0.949357 -0.00483548 0.752794
0.948177 -0.0476002 0.796994
0.942951 -0.0715166 0.925623
1.0427 -0.187438 0.908638
0.962232 -0.0489405 0.9096
0.956752 -0.0493491 0.774691
1.05778 -0.228149 0.91767
1.02975 -0.171878 0.728456
0.934174 -0.0357001 0.92403
1.02788 -0.198362 0.683362
1.02668 -0.171677 0.949586
1.03239 -0.190181 0.85788
1.02069 -0.201695 0.826829
1.07072 -0.233252 0.814814
1.00546 -0.129027 0.814341
1.05899 -0.254448 0.775111
0.942413 -0.0410436 0.907654
1.02084 -0.193771 0.747229
1.01368 -0.134895 0.736571
1.06608 -0.231772 0.864353
0.932398 -0.0305301 0.676432
1.05276 -0.222573 0.936701
0.969143 -0.0986015 0.754014
0.904882 0.00246575 0.840509
0.984723 -0.10313 0.935512
0.936475 -0.00958278 0.831635
1.00106 -0.126913 0.680702
1.01216 -0.135074 0.9311
1.0056 -0.156746 0.753948
1.00505 -0.112202 0.866388
0.986261 -0.0949501 0.659562
0.951104 -0.0575888 0.750587
1.03243 -0.195784 0.703488
0.979894 -0.102684 0.943997
0.967047 -0.0721875 0.818573
0.969297 -0.092876 0.656218
0.939917 -0.0433478 0.924246
0.928692 -0.0354581 0.799609
1.06169 -0.223673 0.736012
0.959382 -0.109449 0.680461
0.989954 -0.0855555 0.892407
0.948953 -0.0264614 0.736258
1.06447 -0.240381 0.786607
1.00393 -0.149048 0.657806
1.01453 -0.1811 0.902405
0.957265 -0.0578967 0.954585
1.08776 -0.25268 0.664282
0.98832 -0.117015 0.756855
1.0147 -0.162305 0.928876
0.982515 -0.121667 0.699066
0.983319 -0.0702753 0.92915
1.06318 -0.229035 0.8963
0.988343 -0.115577 0.722251
1.03296 -0.163554 0.737481
1.04268 -0.210256 0.692784
1.03579 -0.161975 0.804333
1.00583 -0.166872 0.835025
1.03703 -0.213996 0.848031
1.02301 -0.177947 0.780939
0.992027 -0.11208 0.770194
1.08494 -0.265358 0.823275
0.994315 -0.123734 0.808585
0.972861 -0.0603161 0.865249
1.00703 -0.176455 0.662971
0.979946 -0.141211 0.885601
1.07596 -0.244659 0.660174
0.962112 -0.0224376 0.713972
1.04091 -0.211492 0.707043
0.978337 -0.122225 0.709325
0.955856 -0.0316513 0.762452
0.984229 -0.0969663 0.812979
1.06371 -0.249103 0.908677
1.01494 -0.147344 0.914771
0.993054 -0.0954641 0.65601
1.06804 -0.222772 0.666993
1.04264 -0.222346 0.697847
0.963538 -0.0594556 0.675328
0.982813 -0.106711 0.732446
0.931499 -0.00776386 0.858684
0.947536 -0.0236621 0.825625
1.02989 -0.18605 0.924159
0.986635 -0.105111 0.887822
0.942666 -0.0545637 0.860399
0.940897 -0.0342351 0.773534
0.983716 -0.095081 0.824437
1.00073 -0.133663 0.902824
1.00398 -0.123059 0.889353
0.992409 -0.105923 0.665629
0.943746 -0.0388823 0.934809
0.935841 -0.0329123 0.87425
0.984109 -0.0797861 0.875353
1.03284 -0.17652 0.894949
0.948589 -0.0287263 0.907897
0.938217 -0.0517663 0.808756
0.961881 -0.10511 0.886062
0.940152 -0.0409781 0.913484
0.932639 -0.0580888 0.70055
1.04585 -0.216671 0.862899
1.07265 -0.254717 0.870515
1.02042 -0.132345 0.648979
1.02148 -0.158868 0.907101
1.0487 -0.191327 0.657623
1.02816 -0.197046 0.74395
1.08269 -0.262285 0.931288
0.973469 -0.0994363 0.757967
0.953095 -0.0467297 0.864354
1.07309 -0.255331 0.903476
1.05416 -0.254443 0.740289
0.973038 -0.0643589 0.95256
0.975519 -0.0843437 0.819538
1.05347 -0.223312 0.674025
0.937983 -0.044133 0.728131
0.943882 -0.0418609 0.779428
0.989549 -0.107423 0.73023
1.00324 -0.130241 0.721826
0.951211 -0.0377891 0.757159
1.02486 -0.179356 0.907893
0.937471 -0.0224057 0.803459
0.989935 -0.121751 0.924999
1.02413 -0.182609 0.866388
1.02672 -0.131984 0.940822
1.02517 -0.183133 0.698153
1.07041 -0.268823 0.828476
0.975309 -0.0882426 0.819379
1.06189 -0.214995 0.857622
1.0521 -0.225495 0.832266
0.949739 -0.0146468 0.862325
0.961252 -0.00346146 0.898481
1.00136 -0.127569 0.734778
1.05455 -0.219736 0.88433
0.982488 -0.0763079 0.892532
1.06939 -0.234493 0.704539
0.962663 -0.0748345 0.929062
1.06973 -0.249212 0.754343
1.07464 -0.234594 0.888764
1.05642 -0.208731 0.753802
0.998459 -0.116185 0.873686
0.973078 -0.0971092 0.696353
0.973955 -0.0603468 0.812921
0.966078 -0.0450927 0.782526
1.06195 -0.259307 0.689343
0.954955 -0.0576509 0.828571
1.00581 -0.108628 0.946375
0.975568 -0.0928403 0.79799
0.997417 -0.123542 0.723801
1.06304 -0.25329 0.887369
0.926181 -0.0312412 0.812136
1.00685 -0.108417 0.73374
0.93681 -0.0457977 0.856561
0.935632 -0.0444568 0.784152
0.959544 -0.0449646 0.737646
0.971689 -0.0239643 0.95187
0.989683 -0.136426 0.675505
1.0622 -0.219637 0.765
0.943549 -0.0457795 0.83333
0.984465 -0.102355 0.832676
0.924522 -0.0181598 0.878645
1.04964 -0.20941 0.929862
0.947726 -0.0492228 0.762993
0.976828 -0.0653267 0.781572
1.08435 -0.264755 0.672308
0.917891 -0.00461136 0.8976
1.03462 -0.180752 0.733958
1.01749 -0.146564 0.65138
0.946857 -0.0876548 0.764806
0.956523 -0.0840136 0.799992
0.968629 -0.0758398 0.698627
1.01798 -0.167166 0.779674
1.04186 -0.235807 0.789577
0.982406 -0.114173 0.727951
0.958352 -0.0351094 0.755856
0.923674 -0.00779464 0.776198
1.02678 -0.175175 0.768858
0.965668 -0.0915185 0.699989
0.945952 -0.0506348 0.723954
1.06524 -0.232595 0.650234
1.01985 -0.188163 0.74906
0.995648 -0.143325 0.687341
1.02094 -0.144271 0.803852
1.0885 -0.256722 0.856308
1.04752 -0.244192 0.795865
1.02439 -0.225301 0.771983
1.02946 -0.142572 0.853897
1.07144 -0.248249 0.877703
1.02415 -0.179667 0.727584
1.00697 -0.172168 0.868105
0.944654 -0.00650076 0.773656
1.06942 -0.256801 0.64981
0.977772 -0.0976424 0.803288
1.01026 -0.157364 0.831193
1.08141 -0.259525 0.638029
1.01083 -0.13813 0.655914
1.05789 -0.245255 0.91095
1.01598 -0.162617 0.713104
1.05145 -0.182346 0.735443
0.93089 -0.0138288 0.898209
1.04007 -0.204806 0.775126
1.01829 -0.157365 0.712764
0.960833 -0.0517901 0.905919
1.03486 -0.169008 0.73114
1.05508 -0.215406 0.821591
0.988583 -0.0838104 0.881112
1.06708 -0.212339 0.758292
1.07758 -0.231859 0.690719
1.037 -0.184453 0.769514
0.978983 -0.106745 0.874906
0.940999 -0.0332249 0.68965
1.00137 -0.0912101 0.883778
0.964185 -0.0982864 0.939052
1.04615 -0.225981 0.831141
0.930641 -0.00890921 0.669071
0.929634 -0.00923867 0.672373
0.956627 -0.101366 0.799377
0.955088 -0.0538706 0.781884
0.996571 -0.122468 0.855652
0.975206 -0.0886714 0.812224
1.02627 -0.161991 0.908768
0.911724 -0.00722201 0.756099
0.934348 -0.0237158 0.92981
0.955952 -0.0497528 0.696597
1.07622 -0.259274 0.77786
1.04153 -0.219175 0.78648
0.974499 -0.0614019 0.686266
1.01417 -0.135612 0.848989
1.01475 -0.166812 0.781301
0.962942 -0.0400178 0.903921
0.974508 -0.104015 0.711109
0.957548 -0.0481729 0.892647
0.987783 -0.0928308 0.949118
1.01196 -0.130685 0.887735
1.0522 -0.248406 0.911951
0.959417 -0.0714331 0.774877
1.04561 -0.223948 0.722363
1.00048 -0.102814 0.754463
1.03294 -0.197934 0.710134
0.932969 -0.0459425 0.855865
0.988715 -0.13161 0.681643
1.00759 -0.120562 0.822
0.976744 -0.0925654 0.692267
1.00008 -0.130796 0.673746
0.947161 -0.0257912 0.834576
1.06116 -0.229648 0.836828
0.963083 -0.0664449 0.783566
1.02575 -0.158305 0.731422
1.05545 -0.218751 0.844326
0.935791 -0.0145908 0.666804
0.961072 -0.068458 0.822645
0.9417 -0.0502833 0.763763
1.02956 -0.159393 0.816634
0.934722 -0.026781 0.681714
0.953769 -0.0795206 0.808951
0.961414 -0.0756323 0.77267
1.05671 -0.209847 0.695678
0.999705 -0.133966 0.731133
0.964442 -0.0922669 0.881809
0.9612 -0.0596828 0.662869
0.99937 -0.127776 0.648506
1.02833 -0.177523 0.715161
0.948325 -0.0445854 0.825099
0.9303 -0.00782303 0.70079
1.01183 -0.175164 0.92155
1.06669 -0.245294 0.766015
1.02689 -0.20181 0.787845
0.943116 -0.0702933 0.654226
0.950052 -0.0591512 0.928207
0.992995 -0.100174 0.938068
0.971844 -0.0929466 0.691203
0.918087 -0.0221217 0.823285
1.01635 -0.168592 0.691237
0.969873 -0.11271 0.758093
0.953383 -0.0730503 0.865109
1.071 -0.283419 0.915176
1.01762 -0.165771 0.783116
1.04871 -0.224378 0.944692
1.0244 -0.165841 0.845783
1.06748 -0.213574 0.889536
0.971487 -0.0731236 0.794084
0.975385 -0.119705 0.793559
0.933942 -0.0138158 0.82155
1.00674 -0.140074 0.894702
0.938567 -0.0304296 0.933045
1.01785 -0.139617 0.821292
0.999158 -0.105365 0.923424
1.06979 -0.26279 0.846097
1.00265 -0.109404 0.774415
1.07194 -0.252811 0.681616
0.955165 -0.084349 0.847314
1.02255 -0.174683 0.752445
1.03662 -0.193547 0.691219
0.993431 -0.0891026 0.911608
0.999212 -0.103251 0.744015
1.01779 -0.135516 0.769746
0.998861 -0.117802 0.757365
0.994721 -0.10553 0.886493
0.923633 0.00422272 0.706438
0.98031 -0.0927065 0.936098
0.939336 -0.021163 0.654825
0.982402 -0.0756089 0.9003
0.954651 -0.0753365 0.734867
1.04534 -0.180699 0.765406
0.966751 -0.0647878 0.910455
1.04026 -0.201177 0.857509
0.940942 0.00659345 0.679538
1.01788 -0.163016 0.66809
0.988588 -0.138161 0.771344
0.97216 -0.0935208 0.925235
1.00555 -0.1501 0.882077
0.957351 -0.0864461 0.784634
1.0563 -0.247776 0.70819
1.07541 -0.253995 0.728597
0.943225 0.00334629 0.844162
1.02918 -0.186309 0.683431
1.05193 -0.225327 0.899004
1.05558 -0.235293 0.672693
1.05159 -0.254436 0.728108
1.01164 -0.142811 0.676336
1.05155 -0.219107 0.74533
0.935443 -0.00609553 0.767258
0.970471 -0.10576 0.893457
1.04592 -0.213078 0.768255
1.05959 -0.211259 0.842953
1.03732 -0.182751 0.861234
1.09594 -0.255095 0.893884
1.00248 -0.162326 0.82181
0.961405 -0.0670169 0.874283
1.09313 -0.232136 0.868598
1.01154 -0.119506 0.904142
1.0482 -0.211906 0.882277
0.982598 -0.0656515 0.678864
0.937687 0.00257985 0.91967
1.01858 -0.18937 0.678723
1.07134 -0.210278 0.677577
1.06131 -0.266452 0.820845
1.05561 -0.211752 0.902672
1.01109 -0.13015 0.785972
1.04097 -0.194232 0.956171
1.05473 -0.250509 0.823339
0.974978 -0.0735058 0.960193
0.997988 -0.10314 0.763102
1.01132 -0.155347 0.955584
1.05478 -0.240845 0.70457
1.06046 -0.212659 0.725249
0.997459 -0.146732 0.806122
0.977381 -0.0838004 0.761893
0.96803 -0.0769653 0.67292
1.06825 -0.252282 0.771868
0.946168 -0.0234859 0.793705
1.0074 -0.156346 0.857276
0.955679 -0.0643799 0.714814
0.951653 -0.0417234 0.755459
0.944506 -0.017445 0.93023
1.01472 -0.153728 0.919457
0.967523 -0.0717329 0.694744
0.966599 -0.0848706 0.801536
1.00307 -0.119836 0.765773
0.939091 0.0133496 0.915438
1.02299 -0.189337 0.836969
0.955168 -0.0333681 0.702899
1.02039 -0.152484 0.84835
1.03543 -0.155439 0.708387
1.05447 -0.217984 0.673075
0.962788 -0.0424439 0.931611
1.03649 -0.175567 0.81176
0.941352 -0.0378068 0.765789
1.04787 -0.240421 0.727001
1.00539 -0.158962 0.944709
0.990488 -0.140698 0.669338
0.973969 -0.0898042 0.821093
1.00251 -0.119408 0.881636
1.00721 -0.144118 0.9434
1.00771 -0.143554 0.714702
1.06131 -0.251462 0.767905
0.96988 -0.0646059 0.670256
1.00644 -0.15397 0.790337
1.01202 -0.145886 0.87391
1.07237 -0.243908 0.951469
1.03489 -0.157296 0.819398
0.957701 -0.0144806 0.761993
0.936745 -0.0220735 0.938249
0.976259 -0.0669523 0.921755
0.953591 -0.0807737 0.943327
1.02373 -0.171352 0.808715
1.01594 -0.176065 0.707086
1.05754 -0.240337 0.97167
0.963025 -0.0260109 0.89113
0.924351 -0.0300374 0.670901
1.00714 -0.15362 0.800972
0.92386 -0.0465157 0.739789
0.990463 -0.101497 0.702452
1.01397 -0.164905 0.885457
0.931042 -0.0179405 0.916494
0.984102 -0.107699 0.721504
1.00788 -0.161307 0.67528
1.05142 -0.258613 0.754304
0.996143 -0.108199 0.853488
1.07308 -0.229782 0.68749
1.04447 -0.216728 0.836686
1.01408 -0.155826 0.813642
1.04633 -0.230703 0.965007
0.997861 -0.116253 0.897343
0.944128 -0.0249016 0.700655
1.00301 -0.13875 0.672091
1.05137 -0.194438 0.65743
0.996932 -0.134346 0.804451
0.928677 -0.0292795 0.884127
0.992908 -0.128573 0.84266
1.00543 -0.137243 0.755498
1.07203 -0.251267 0.78811
1.07085 -0.245936 0.947451
0.988272 -0.119324 0.755551
1.01622 -0.167326 0.94666
1.06494 -0.241869 0.806332
0.98855 -0.103315 0.747644
0.93987 -0.058634 0.899046
1.00169 -0.12296 0.699029
1.06439 -0.233365 0.858288
1.07177 -0.225176 0.656872
0.982789 -0.091488 0.892423
1.0566 -0.198803 0.703113
0.982013 -0.108375 0.796493
0.96346 -0.0572102 0.933435
1.00126 -0.120691 0.696359
0.990836 -0.101278 0.947917
0.972697 -0.104417 0.783178
0.931664 -0.0139469 0.854067
1.05162 -0.241512 0.83206
1.08964 -0.242416 0.790712
0.945857 -0.0276193 0.810572
0.931364 -0.0354817 0.949839
0.987421 -0.135405 0.728675
0.941549 -0.0106337 0.871184
0.994121 -0.102935 0.823959
1.06139 -0.252821 0.813639
1.02835 -0.196752 0.661502
1.04579 -0.191482 0.921608
0.954906 -0.0241069 0.749706
1.04327 -0.216679 0.91116
0.938651 -0.0586807 0.922573
1.0182 -0.167947 0.865735
1.03519 -0.1805 0.879251
1.01478 -0.143141 0.883143
0.982116 -0.109982 0.679207
0.995899 -0.117114 0.714698
1.0427 -0.177629 0.829573
0.942204 -0.0373298 0.721122
0.930457 -0.0202899 0.689845
0.984739 -0.084963 0.847677
0.929077 -0.0347199 0.927624
1.02676 -0.200215 0.853233
0.964568 -0.0635541 0.743203
0.91948 0.0121641 0.749965
1.03879 -0.194299 0.764028
0.9666 -0.0325803 0.897667
1.0516 -0.216082 0.935443
1.01377 -0.114982 0.880948
0.982174 -0.11905 0.853607
1.02874 -0.167738 0.851982
1.02695 -0.173946 0.814327
0.960598 -0.0348521 0.829359
0.980122 -0.0839408 0.788688
0.949731 -0.0377981 0.896058
0.934815 -0.0380204 0.877329
0.964752 -0.0389447 0.808128
0.9514 -0.0633014 0.846379
0.940349 -0.0286557 0.889997
1.00388 -0.114232 0.866627
1.00302 -0.136717 0.91362
0.991464 -0.113698 0.95754
1.05942 -0.251586 0.860117
0.981186 -0.0939298 0.923319
0.993545 -0.109271 0.772172
1.05673 -0.225914 0.717078
0.981082 -0.101227 0.735691
0.998789 -0.123722 0.855589
1.02593 -0.200681 0.908074
0.946982 -0.0286956 0.745976
1.03822 -0.171257 0.8717
0.958474 -0.109462 0.884994
1.02154 -0.158364 0.795424
1.0385 -0.259799 0.846513
1.02417 -0.170647 0.933528
0.985857 -0.0941002 0.822347
1.009 -0.134441 0.849935
0.956358 -0.0474101 0.742002
0.982424 -0.082316 0.67331
1.02839 -0.168542 0.850076
1.0411 -0.205829 0.661526
0.942481 -0.0348172 0.78404
1.03364 -0.186939 0.859378
0.998335 -0.164402 0.88962
0.944827 0.00406498 0.886788
0.966584 -0.0608962 0.729766
0.950285 -0.0731022 0.702574
1.02057 -0.159025 0.88655
0.970181 -0.0727826 0.717417
0.97959 -0.116723 0.862514
0.984177 -0.0858213 0.810491
0.939893 -0.0186368 0.742929
0.981449 -0.10158 0.683758
1.02858 -0.158136 0.853532
1.05643 -0.215653 0.711918
0.991616 -0.106889 0.797132
1.02312 -0.177741 0.926673
1.02208 -0.175391 0.845076
0.988871 -0.106541 0.751862
0.958828 -0.0564281 0.865306
0.947944 -0.0511966 0.65804
0.94986 -0.0215653 0.69711
1.01358 -0.158422 0.870109
1.01027 -0.160643 0.909052
0.923728 0.00301245 0.866741
0.952576 -0.0193253 0.854172
1.03982 -0.179336 0.662016
0.940678 -0.0315613 0.646198
0.975785 -0.0776769 0.876581
1.03695 -0.195144 0.788768
0.939264 -0.0531617 0.907828
1.01644 -0.151607 0.89448
1.00188 -0.151698 0.901612
1.06366 -0.214785 0.876003
0.939603 -0.00751471 0.753633
1.01662 -0.158873 0.893722
1.03606 -0.191823 0.812317
1.02316 -0.193148 0.7893
0.977502 -0.0836607 0.652528
0.937368 -0.035358 0.899406
1.01027 -0.155231 0.702976
1.04927 -0.228327 0.838495
0.94754 -0.0366677 0.858148
1.05235 -0.203572 0.728758
0.931442 -0.0178442 0.93156
1.02131 -0.159421 0.681849
0.979768 -0.0545626 0.875954
0.972904 -0.0958503 0.665593
1.02239 -0.190816 0.918234
0.91963 -0.015483 0.942522
1.05448 -0.21809 0.813822
0.971898 -0.0855052 0.92399
1.07531 -0.242504 0.945694
1.03812 -0.195189 0.77617
0.922976 -0.0110388 0.75706
0.929384 -0.0258519 0.674744
1.04195 -0.237965 0.787247
1.03267 -0.193445 0.933457
0.996905 -0.144143 0.714029
0.958117 -0.0749901 0.853048
1.08213 -0.267142 0.806027
0.965892 -0.0922016 0.788509
1.05753 -0.196066 0.76309
0.985308 -0.113449 0.704229
0.925598 -0.0463502 0.80252
0.959536 -0.0897933 0.725737
1.03126 -0.186474 0.703818
1.0713 -0.232826 0.804764
1.01039 -0.140045 0.685156
1.02239 -0.15342 0.848777
1.06128 -0.23868 0.747528
0.992771 -0.129304 0.936498
1.00356 -0.127949 0.907485
1.00149 -0.141126 0.731127
0.975208 -0.0496987 0.898083
0.979765 -0.0877608 0.906358
0.958512 -0.0522922 0.772772
1.04099 -0.183972 0.861536
0.95222 -0.0518635 0.942034
1.01597 -0.151296 0.834244
0.995215 -0.121946 0.704609
1.0114 -0.133324 0.953864
1.01211 -0.11444 0.800148
1.05728 -0.197811 0.888138
1.01579 -0.149517 0.791753
1.06182 -0.214579 0.797952
0.978659 -0.113556 0.8372
1.04587 -0.215219 0.922243
0.932014 -0.0340178 0.722502
0.930905 -0.0379275 0.762286
1.07836 -0.271189 0.919484
1.01636 -0.179606 0.869478
1.06716 -0.247894 0.777169
0.917255 -0.00187999 0.802305
0.938745 -0.0401616 0.740273
0.99915 -0.106959 0.7888
0.950296 -0.00171409 0.685261
1.00823 -0.112541 0.700982
0.972184 -0.0760123 0.91123
0.920132 -0.021578 0.705035
0.969899 -0.0817989 0.871549
0.978088 -0.0258641 0.695396
1.03191 -0.208648 0.694738
1.02317 -0.184556 0.699104
1.00755 -0.118527 0.749581
0.983022 -0.12287 0.833518
0.956116 -0.0517188 0.880798
0.943226 -0.00860875 0.861611
0.957976 -0.066355 0.853495
0.944068 -0.0581517 0.669131
1.01349 -0.187961 0.867754
0.96017 -0.0625326 0.677061
0.9529 -0.0572349 0.880718
1.07342 -0.211497 0.884583
1.00879 -0.0991832 0.72213
1.00451 -0.133014 0.688859
1.057 -0.242485 0.670113
0.934287 -0.0215144 0.856114
0.947998 -0.0569245 0.811266
0.981446 -0.0695656 0.703182
1.01598 -0.173816 0.739978
1.00631 -0.154323 0.74427
0.995857 -0.135093 0.881295
1.01476 -0.129923 0.78556
0.999335 -0.127597 0.681849
1.02809 -0.164216 0.640108
0.949926 -0.0467614 0.875332
1.03695 -0.208244 0.820312
0.931799 -0.0286737 0.761149
0.982971 -0.0970011 0.780472
0.938477 -0.00114134 0.67802
0.952909 -0.0287178 0.730131
1.0493 -0.211675 0.698222
1.00717 -0.126304 0.922956
1.05241 -0.223318 0.898365
1.04799 -0.213278 0.933601
0.968114 -0.0634417 0.869522
1.03387 -0.189292 0.872199
0.980129 -0.058081 0.885908
1.06691 -0.238545 0.874218
0.953259 -0.0621028 0.713499
1.05042 -0.213906 0.865026
0.922773 -0.0032149 0.89377
1.00686 -0.1426 0.944103
0.935259 -0.00640624 0.937696
0.999196 -0.124184 0.758145
0.970244 -0.068656 0.964611
1.04991 -0.231978 0.846147
0.94772 -0.0290634 0.785495
1.07334 -0.258578 0.807786
0.981274 -0.138804 0.688342
0.951538 -0.0610582 0.723251
0.951505 -0.0718176 0.897297
0.971851 -0.0904631 0.763538
1.03093 -0.1728 0.931477
0.973856 -0.0811108 0.916398
0.983909 -0.0860927 0.763326
1.04185 -0.18017 0.935889
1.0164 -0.146532 0.684022
1.05766 -0.218759 0.881956
1.0305 -0.165924 0.902122
0.966435 -0.0766131 0.81689
0.959804 -0.0679982 0.722864
0.98522 -0.0956697 0.740956
0.914454 0.00979735 0.747417
1.0186 -0.155388 0.75969
0.918584 -0.000458472 0.900775
1.02755 -0.210017 0.819651
1.0242 -0.179262 0.744142
1.07366 -0.263236 0.658977
0.924139 -0.00634539 0.830137
0.955177 -0.0391982 0.661126
1.07845 -0.249817 0.900591
1.06785 -0.231581 0.945137
1.0638 -0.223078 0.768771
0.936079 -0.00590014 0.884743
1.04437 -0.219377 0.933401
0.982969 -0.110698 0.88784
0.966648 -0.0852642 0.910341
0.956863 -0.0320886 0.768184
1.05712 -0.220103 0.911066
1.03235 -0.172777 0.895801
1.03218 -0.174514 0.746394
1.01654 -0.173179 0.814552
0.957919 -0.0577966 0.892832
0.964165 -0.0751139 0.686761
0.998908 -0.130148 0.75548
1.03203 -0.214227 0.661621
1.03217 -0.21498 0.672718
1.02213 -0.162312 0.723681
0.953972 -0.0387638 0.938855
0.947712 -0.0196204 0.670091
1.03364 -0.197931 0.862281
0.944883 -0.041561 0.893176
1.03518 -0.22188 0.942183
1.07981 -0.220125 0.945583
0.988736 -0.125768 0.668589
0.933446 0.00351093 0.653754
0.992399 -0.13436 0.737727
1.08342 -0.238887 0.823963
0.999158 -0.117418 0.773874
0.9873 -0.0898071 0.692704
1.01716 -0.177475 0.853271
0.993479 -0.0907468 0.736836
1.0096 -0.15209 0.91046
1.06674 -0.249046 0.934781
0.969961 -0.138055 0.937533
0.937428 -0.0152537 0.831527
0.987196 -0.133342 0.908602
0.975941 -0.0921056 0.923734
0.956598 -0.0582783 0.749699
1.02164 -0.1897 0.780775
0.905678 -0.00880437 0.806212
1.03218 -0.186561 0.8407
0.948134 -0.0239015 0.793198
1.04352 -0.178343 0.754331
0.919218 0.00565806 0.790932
0.994618 -0.127641 0.856776
0.931345 -0.00611608 0.757248
1.03753 -0.232353 0.68512
0.995042 -0.131095 0.904554
0.961732 -0.0820287 0.891593
0.978392 -0.0923477 0.922532
0.983799 -0.141009 0.820646
1.01572 -0.147641 0.742238
0.986792 -0.136707 0.812731
1.03543 -0.190939 0.682709
1.02218 -0.17365 0.662081
1.05429 -0.206613 0.740614
0.974997 -0.100526 0.735886
0.977025 -0.0704284 0.654628
1.01599 -0.13555 0.824766
1.01886 -0.136764 0.752905
1.0389 -0.194773 0.900277
0.971877 -0.114955 0.878829
0.989927 -0.150892 0.725716
0.942084 -0.0265236 0.917624
0.944073 -0.0121887 0.818827
1.06312 -0.217243 0.915322
1.06069 -0.219172 0.740316
1.00635 -0.136979 0.906616
1.07355 -0.23049 0.764199
0.982971 -0.0935414 0.909257
0.970391 -0.093788 0.836534
1.00004 -0.123066 0.789271
1.00043 -0.123741 0.904659
0.934856 -0.0273213 0.76723
1.02991 -0.202247 0.785693
0.973975 -0.0427493 0.910883
0.998718 -0.110112 0.841806
0.938992 -0.0247174 0.799546
0.99495 -0.116742 0.808329
0.977173 -0.0872256 0.711105
0.953096 -0.0516051 0.725518
1.00264 -0.127688 0.669611
1.02314 -0.154444 0.654602
