ply
format ascii 1.0
comment Created by Open3D
element vertex 1801
property double x
property double y
property double z
end_header
1.0014 0.125549 0.800688
1.05641 0.0253388 0.695305
0.932162 0.243389 0.900373
0.956193 0.200506 0.899346
1.03387 0.0663221 0.878467
1.07782 -0.00301091 0.916252
0.974512 0.179875 0.698554
1.05839 0.0261396 0.713071
1.01772 0.101484 0.722916
0.972511 0.175923 0.802011
1.03846 0.0658109 0.92761
0.997949 0.127785 0.889523
1.02685 0.0873822 0.884756
0.935289 0.242269 0.80578
1.02768 0.0839798 0.70727
1.02378 0.0886524 0.682057
0.936447 0.232635 0.678248
0.940273 0.232265 0.893283
0.974591 0.173805 0.692513
1.01657 0.104233 0.708519
1.02733 0.0817959 0.844293
0.935019 0.233275 0.910801
1.01179 0.10959 0.848491
0.924523 0.256928 0.839223
0.956472 0.206613 0.741936
0.969659 0.192085 0.782154
1.02065 0.0840579 0.684973
1.0699 0.0167522 0.787328
0.936004 0.239353 0.755011
1.06836 0.00921708 0.852337
1.03805 0.0551552 0.819074
1.04132 0.0596833 0.87386
0.948521 0.225771 0.761095
0.948226 0.21429 0.869879
1.05056 0.0504248 0.920993
0.949894 0.227417 0.69841
1.03701 0.060084 0.725547
1.06533 0.0239899 0.848444
0.970533 0.180442 0.823689
1.02428 0.0897859 0.858391
1.00091 0.136722 0.722584
1.0431 0.0486705 0.940069
0.963349 0.194937 0.651703
1.05721 0.0293011 0.777541
1.04556 0.0404373 0.935099
1.01935 0.100782 0.696002
0.981015 0.163345 0.852472
0.999818 0.124166 0.842344
1.00921 0.101729 0.785697
1.0053 0.121738 0.85919
0.993697 0.138342 0.833021
1.02175 0.0970693 0.735162
1.02902 0.0855073 0.87675
0.977222 0.160898 0.88424
1.06341 0.0210079 0.775912
1.02078 0.0898032 0.835373
1.01953 0.100922 0.886689
0.996552 0.132017 0.682671
0.95234 0.214006 0.902019
1.03402 0.071233 0.87276
1.03236 0.0727924 0.70536
0.972367 0.180452 0.726796
1.00542 0.123221 0.711803
1.0063 0.12359 0.736441
0.960026 0.206453 0.784052
0.973922 0.184299 0.650239
0.941297 0.220852 0.809109
1.02049 0.101541 0.91708
1.00324 0.125808 0.673217
0.956066 0.199909 0.9312
0.999735 0.126406 0.750596
1.06843 0.00513318 0.890793
0.944612 0.230285 0.908729
0.973672 0.179083 0.795173
1.00368 0.133773 0.729049
0.978414 0.162029 0.935451
0.950488 0.212056 0.915594
0.99815 0.1338 0.784298
0.965625 0.194238 0.835133
0.945765 0.220149 0.752779
1.02587 0.0824078 0.721626
1.02242 0.0976342 0.722827
0.920297 0.25988 0.808348
0.937476 0.239568 0.789522
1.06583 0.0108844 0.910581
1.00568 0.139946 0.850132
0.936659 0.240798 0.698478
0.950867 0.214828 0.821117
1.00413 0.11981 0.797184
0.926942 0.24429 0.823509
1.04345 0.0568463 0.841292
1.00268 0.111304 0.823807
0.961089 0.20152 0.857643
1.03084 0.087439 0.950667
1.02292 0.0827134 0.7553
0.965013 0.195798 0.816825
0.987247 0.158577 0.879135
1.00148 0.127587 0.786692
1.05832 0.0362406 0.792279
0.989378 0.14043 0.868913
1.00054 0.13048 0.723457
0.999973 0.138994 0.657649
0.972191 0.179244 0.717829
0.945629 0.224874 0.742055
0.952163 0.209486 0.927629
1.04239 0.0671514 0.680748
1.03695 0.077671 0.651616
1.00305 0.127906 0.925884
1.04436 0.0511191 0.722016
0.933479 0.240686 0.723018
0.954665 0.199026 0.874668
1.00609 0.116415 0.91859
1.0691 0.014286 0.925672
1.00037 0.127465 0.660076
1.04752 0.0446594 0.86645
0.987859 0.156532 0.661093
0.952628 0.209357 0.675013
0.98918 0.147321 0.751718
1.05036 0.0471093 0.846839
0.927384 0.247291 0.659527
0.993367 0.13808 0.812109
1.02506 0.0849772 0.849506
0.934907 0.252498 0.774844
0.972747 0.179861 0.877465
0.960668 0.193878 0.920403
0.988216 0.148052 0.845637
0.95581 0.215343 0.749657
1.05006 0.0442663 0.723531
1.02486 0.0829148 0.837874
1.04203 0.0545246 0.670496
0.935154 0.241947 0.940635
0.969707 0.184876 0.738478
1.06923 0.0102201 0.898215
1.00725 0.117316 0.713781
0.976113 0.184555 0.715999
0.977427 0.163263 0.666421
1.00912 0.125033 0.897893
1.05484 0.0498846 0.8778
1.07215 0.0202153 0.929851
1.07412 0.00663178 0.818769
0.953822 0.21486 0.777997
0.954897 0.202149 0.903484
0.954463 0.212595 0.815246
0.962502 0.192761 0.742275
0.937229 0.233838 0.737385
0.928833 0.259701 0.789995
0.990907 0.159159 0.789042
1.01224 0.111206 0.679986
1.04724 0.0609934 0.931282
0.975369 0.17795 0.72727
1.05018 0.0421708 0.927037
0.957036 0.203324 0.774558
0.930003 0.252489 0.85033
1.00308 0.124649 0.744445
1.03333 0.0830372 0.856033
1.05909 0.0274819 0.693199
1.04352 0.0425272 0.674699
1.03561 0.0740913 0.765549
1.02452 0.088962 0.664394
0.942872 0.222019 0.731402
1.01927 0.0986282 0.829119
1.06757 0.00641531 0.83569
1.05847 0.0316282 0.811297
1.03108 0.0829427 0.714545
0.975085 0.165054 0.687102
1.00326 0.134326 0.801884
0.934084 0.250416 0.793249
1.06368 0.0231878 0.774483
0.978004 0.171627 0.91723
1.0157 0.106863 0.937743
1.04461 0.0474671 0.65009
0.96817 0.188677 0.742325
0.973735 0.186614 0.871845
1.05723 0.0362627 0.859539
1.04032 0.051682 0.924338
1.05139 0.0475486 0.835748
1.0472 0.0452624 0.664639
0.926101 0.259746 0.723825
0.943211 0.220577 0.857006
1.03863 0.0663657 0.804717
0.95178 0.210921 0.734394
1.0145 0.107069 0.77365
0.992653 0.138371 0.737697
1.06734 0.0140729 0.824244
0.940908 0.23381 0.78445
0.92713 0.247084 0.658115
0.95073 0.210476 0.879553
0.932091 0.242192 0.848039
1.04952 0.0421825 0.782456
1.03643 0.0847371 0.842383
0.97022 0.194893 0.779843
0.96781 0.185543 0.873161
0.955667 0.206281 0.656294
0.978174 0.161997 0.836574
1.04514 0.0444962 0.904874
0.986701 0.161762 0.661108
1.06984 0.0140594 0.740781
1.0286 0.0876433 0.930365
1.01111 0.106354 0.709118
1.02546 0.0880618 0.755357
1.03395 0.0761581 0.734752
0.940574 0.236943 0.941924
0.965461 0.189533 0.85829
0.984446 0.155281 0.810028
0.998911 0.135365 0.666853
0.999059 0.124616 0.862538
0.994829 0.141171 0.792785
1.05677 0.0324547 0.648558
0.944186 0.233404 0.78826
1.0114 0.099107 0.656267
1.02191 0.0996595 0.939471
0.974837 0.17886 0.818742
0.94277 0.227913 0.720379
0.971245 0.175049 0.764157
1.02999 0.0798977 0.870216
1.03712 0.0659779 0.725104
0.973656 0.178673 0.65562
1.00561 0.117928 0.796116
1.03675 0.065381 0.748282
0.928348 0.257164 0.680168
1.02243 0.0728188 0.687849
0.991532 0.150841 0.927707
1.05264 0.0417245 0.833379
1.06506 0.0276632 0.818233
0.943544 0.224096 0.884529
0.969912 0.189216 0.7379
0.951626 0.216074 0.733853
0.997166 0.128639 0.700088
1.00226 0.122229 0.684437
0.961398 0.192314 0.697777
1.07875 0.000455067 0.89656
0.966877 0.182977 0.9254
1.02019 0.0929858 0.73338
0.951559 0.218244 0.924624
1.07128 0.00178124 0.865546
1.02534 0.074723 0.79995
0.955804 0.19854 0.704803
1.03404 0.0689167 0.939239
0.928425 0.253632 0.707885
0.998963 0.136794 0.776483
1.00184 0.133478 0.792835
0.955657 0.198389 0.708271
0.937939 0.240809 0.673044
1.03561 0.0656273 0.756124
1.0383 0.0695452 0.825006
1.00069 0.130553 0.678198
1.01269 0.105022 0.920258
0.948104 0.218564 0.78775
0.948235 0.22116 0.831066
1.02606 0.085191 0.674883
0.939504 0.2312 0.894082
1.06019 0.0170953 0.918274
1.04988 0.048661 0.935559
0.995734 0.138276 0.864402
1.03349 0.0688213 0.857752
0.967508 0.195811 0.684661
0.952427 0.216598 0.862732
1.00928 0.115395 0.9413
1.02133 0.0977957 0.680863
1.0334 0.0828913 0.801302
1.01452 0.104319 0.916082
0.956979 0.206182 0.774474
1.0269 0.07712 0.728323
0.983314 0.15149 0.790078
1.00349 0.123789 0.810234
1.05652 0.0370686 0.671033
1.01862 0.101238 0.700698
0.92846 0.262201 0.841289
0.95373 0.216584 0.816048
1.05468 0.0325626 0.897386
0.924044 0.260814 0.759203
1.0079 0.115845 0.69052
0.981515 0.165109 0.933404
0.971638 0.172784 0.894289
0.940142 0.234941 0.905052
1.02459 0.0757279 0.73159
0.948475 0.19863 0.859731
1.01209 0.108631 0.795511
1.04002 0.0543319 0.748932
0.926555 0.250819 0.89134
1.04976 0.0360871 0.717088
1.00765 0.113908 0.899269
1.06368 0.0171677 0.861352
1.00359 0.132495 0.872892
0.953478 0.215073 0.658095
1.04469 0.0628195 0.660512
1.07666 -0.00143072 0.735857
1.02842 0.0864129 0.854112
1.01107 0.120799 0.792621
0.933986 0.239929 0.783151
0.970757 0.184267 0.812083
0.932595 0.242148 0.872486
1.0418 0.0743167 0.766712
0.961434 0.203058 0.842545
0.963228 0.192197 0.682044
0.976305 0.175163 0.65566
1.00958 0.119429 0.773347
1.05737 0.034325 0.736755
0.998967 0.12854 0.915097
0.958534 0.20346 0.890763
1.02764 0.0809751 0.788036
1.03358 0.0808941 0.922951
0.9423 0.221161 0.708623
1.04641 0.0451191 0.743791
1.01376 0.104631 0.724571
0.938011 0.236782 0.760338
1.01472 0.102479 0.794419
0.946265 0.225347 0.690664
0.930428 0.251612 0.758523
0.955097 0.201986 0.875387
0.939848 0.230366 0.880037
1.00415 0.113652 0.723346
1.04428 0.0339749 0.838632
0.963566 0.184342 0.879402
1.01398 0.109198 0.727948
0.946825 0.220403 0.883789
1.00601 0.124747 0.726679
1.06592 0.0134211 0.661994
0.960549 0.202091 0.756903
1.00716 0.121726 0.92822
0.943454 0.235492 0.750503
0.966209 0.195157 0.671295
0.978141 0.169284 0.927076
0.998002 0.125086 0.744317
0.939804 0.240606 0.858848
1.01248 0.113001 0.659772
1.00152 0.130089 0.952789
1.02223 0.0897792 0.694268
0.983915 0.150858 0.690688
0.951578 0.217968 0.670677
0.942232 0.227176 0.763414
1.01347 0.100428 0.913673
0.976677 0.168346 0.94611
0.979126 0.160602 0.656721
1.04654 0.0516184 0.917465
1.00723 0.111567 0.825207
1.05721 0.0352458 0.757427
1.01945 0.103612 0.753094
1.07096 0.00985189 0.689212
1.0409 0.0616595 0.877884
0.982845 0.159243 0.854374
1.07611 0.00218064 0.737514
1.01464 0.110641 0.93067
1.03278 0.0783696 0.926893
0.926784 0.252921 0.77276
0.951145 0.215161 0.664159
1.04076 0.0590955 0.764581
1.06992 0.00467125 0.894535
1.04761 0.0439979 0.756499
1.04892 0.0407114 0.7465
0.99831 0.132347 0.829554
0.924363 0.252797 0.853257
0.959164 0.201899 0.722181
0.976067 0.171124 0.899072
1.03525 0.0669917 0.678964
0.951404 0.215262 0.941746
1.02077 0.0802138 0.740154
0.97723 0.172631 0.75527
1.00928 0.118034 0.922967
1.07194 0.0113579 0.821135
0.931455 0.237547 0.857447
0.97991 0.160949 0.761864
0.976268 0.166644 0.651799
1.01304 0.102803 0.946635
1.04891 0.0478638 0.859345
0.941497 0.237606 0.687985
0.929315 0.248129 0.741318
1.00225 0.125153 0.726962
1.01608 0.0989461 0.73025
0.996959 0.125237 0.776451
1.03555 0.0640707 0.812507
0.991086 0.145533 0.75341
0.998232 0.128744 0.710508
0.930116 0.24443 0.725218
0.953759 0.198774 0.929035
1.02083 0.10967 0.735833
1.01757 0.101422 0.692471
0.963252 0.189241 0.725404
1.04606 0.0582439 0.704444
0.994992 0.135531 0.722013
1.05949 0.0233527 0.83234
1.0129 0.105431 0.76754
1.00671 0.110975 0.844952
1.02474 0.0822188 0.67591
0.981284 0.157867 0.856188
1.06607 0.0231176 0.806493
0.940037 0.230832 0.656304
0.973942 0.178139 0.833098
1.05119 0.0365057 0.893918
0.935222 0.233644 0.912435
0.932157 0.253427 0.713997
1.04841 0.0458671 0.822994
1.00553 0.116703 0.859693
0.944121 0.237254 0.907502
1.02087 0.0906638 0.844183
1.05555 0.0270536 0.711275
0.98438 0.150482 0.842247
0.951973 0.215526 0.857325
0.968322 0.182995 0.724695
0.928593 0.25443 0.780127
1.04132 0.0573785 0.664732
1.0073 0.1056 0.739354
1.04378 0.0506085 0.884796
0.942352 0.238878 0.65491
0.931511 0.253753 0.938992
0.934591 0.238474 0.722399
1.01105 0.124228 0.717037
0.967443 0.182592 0.759241
1.06187 0.0172028 0.945689
1.00489 0.120423 0.856557
1.05034 0.0460712 0.913337
1.01994 0.0936303 0.821465
0.983511 0.165437 0.920604
0.943016 0.23663 0.856808
1.03519 0.0688456 0.793592
0.934193 0.253028 0.901874
0.936207 0.254301 0.883689
1.05945 0.0186066 0.725786
0.970253 0.187658 0.704787
1.03948 0.0587908 0.753514
1.04667 0.0470754 0.719695
1.05932 0.0324137 0.914936
1.00363 0.125059 0.858942
1.02247 0.0940752 0.800324
1.01058 0.108518 0.669646
1.00675 0.109184 0.657342
1.00119 0.133987 0.847852
1.05156 0.0328485 0.732586
1.00569 0.123138 0.653159
0.932574 0.239598 0.794894
0.945273 0.23016 0.749466
0.95826 0.201563 0.80705
1.06089 0.0211953 0.844372
1.0464 0.0620065 0.886425
1.0038 0.119991 0.925902
0.994399 0.134142 0.662176
1.02395 0.0779113 0.677587
1.04081 0.0576741 0.811772
0.979602 0.161923 0.816499
1.04523 0.0504855 0.737779
1.04888 0.0493554 0.8977
0.937823 0.242868 0.869309
0.969477 0.177996 0.889855
0.970812 0.182341 0.788742
1.06368 0.0236309 0.879104
1.03086 0.0775797 0.675608
0.956941 0.204055 0.653748
1.01233 0.110613 0.896344
0.984931 0.164699 0.832033
1.05276 0.0394772 0.710043
1.00075 0.118881 0.783281
0.955911 0.196551 0.770295
0.961572 0.196015 0.918553
0.954671 0.212539 0.925352
0.953893 0.206257 0.64749
0.971904 0.188029 0.826645
0.948467 0.223889 0.664051
1.04044 0.0645773 0.949926
1.02178 0.0933621 0.909069
1.00024 0.131064 0.711729
0.95881 0.192978 0.856188
1.04527 0.040982 0.687724
0.985355 0.157504 0.801644
1.05967 0.0269759 0.74968
0.975962 0.170335 0.891774
1.02861 0.0841348 0.735188
0.980249 0.158056 0.878511
1.04364 0.0534429 0.935095
1.0587 0.0376642 0.793357
1.01046 0.111258 0.751053
1.04026 0.0554854 0.874613
0.994499 0.141787 0.76173
1.06938 0.01378 0.739873
1.06639 0.02123 0.670331
1.02689 0.0811389 0.816032
0.941839 0.231409 0.893016
0.96411 0.188189 0.717456
0.974567 0.174587 0.802735
0.986018 0.159936 0.697329
1.04452 0.0551571 0.817421
0.986454 0.16196 0.848235
0.928849 0.252149 0.724986
1.07702 0.00113832 0.767466
1.06506 0.0161273 0.735875
1.06552 0.00278067 0.826278
0.972854 0.181475 0.767914
0.942601 0.225822 0.709234
1.0406 0.0637082 0.891055
0.97223 0.16241 0.896404
0.986144 0.151573 0.755286
0.959189 0.201484 0.714705
0.955954 0.204143 0.802302
0.970624 0.176553 0.809688
1.00534 0.125414 0.904805
0.948923 0.228412 0.732815
0.959599 0.200928 0.699819
1.06404 0.015477 0.690766
1.05954 0.0252166 0.824429
1.02463 0.0826779 0.860342
1.00933 0.124932 0.928948
1.0149 0.103787 0.797155
0.933386 0.240513 0.908
0.995752 0.121402 0.776289
1.03018 0.0762336 0.706258
0.922329 0.259711 0.866699
1.04191 0.0627484 0.691309
0.954931 0.212294 0.728803
0.983955 0.153805 0.800573
0.925017 0.259428 0.702713
0.976436 0.175218 0.931481
1.00493 0.11518 0.903218
0.921082 0.259643 0.875615
0.986159 0.148946 0.879102
0.968244 0.177094 0.824604
0.98209 0.163301 0.710921
1.0636 0.0182854 0.70302
0.944207 0.230043 0.890879
0.992793 0.144606 0.659307
1.03343 0.0768715 0.801481
1.06953 0.00702691 0.705884
0.941412 0.240667 0.70028
1.07204 0.00379584 0.915112
0.996406 0.132847 0.736964
1.05842 0.0250351 0.938485
1.01718 0.0983167 0.68669
0.960952 0.202097 0.944135
0.964074 0.189438 0.907785
0.972533 0.178607 0.879006
0.992914 0.148615 0.702255
1.06295 0.0228251 0.904243
0.974346 0.173193 0.789514
1.01662 0.110553 0.887514
1.00943 0.112924 0.908756
1.02737 0.0829271 0.709923
0.940019 0.221849 0.660783
1.0647 0.0138988 0.898844
0.940504 0.242411 0.909368
1.00538 0.12294 0.907982
0.965274 0.190829 0.693167
0.975648 0.172351 0.902171
0.991225 0.13781 0.702631
0.938925 0.237141 0.879382
1.03441 0.0637958 0.839849
1.0645 0.0147841 0.909995
0.9758 0.168215 0.890874
1.0646 0.0156117 0.759766
0.933845 0.247678 0.86691
0.989263 0.152089 0.687976
0.933938 0.251336 0.839659
0.938623 0.237433 0.906285
0.98231 0.149461 0.949081
1.00871 0.115758 0.669813
1.07239 0.00423889 0.916633
1.04582 0.0358147 0.752837
0.955028 0.21389 0.90557
1.06913 0.0168372 0.717935
0.938881 0.242451 0.858864
0.952588 0.209335 0.73422
1.06134 0.0253806 0.844931
1.07931 -0.00100169 0.719787
0.926817 0.254221 0.803515
1.01874 0.0984357 0.811225
1.00777 0.121852 0.894541
1.03997 0.0643769 0.813816
1.03992 0.0518654 0.810223
0.967633 0.184356 0.717104
0.975987 0.170586 0.727754
1.05349 0.0330103 0.657815
1.04285 0.0533592 0.893078
1.01357 0.0999257 0.848262
0.98842 0.14744 0.730213
1.03186 0.0700984 0.68607
0.995836 0.133829 0.864189
1.00856 0.11109 0.823393
0.98726 0.1572 0.816554
0.959373 0.19608 0.800498
0.938211 0.218286 0.648178
1.01154 0.105197 0.870561
0.994874 0.151392 0.920771
0.938254 0.249182 0.911917
0.965006 0.185798 0.877827
0.997138 0.122478 0.907537
0.957037 0.221702 0.659677
0.93367 0.245249 0.946759
0.931297 0.247928 0.808806
1.0297 0.0807481 0.728069
1.06805 0.00649798 0.790319
0.940309 0.229576 0.750558
0.967727 0.189092 0.684901
1.05091 0.03953 0.84049
0.98107 0.168265 0.794524
1.04244 0.0577697 0.738652
1.00256 0.130193 0.792532
1.02284 0.0996986 0.872613
1.0438 0.0392271 0.668847
0.977092 0.169229 0.926146
0.986128 0.151685 0.745142
1.00733 0.110693 0.676128
0.953216 0.205842 0.902674
1.03456 0.0682451 0.690407
0.969205 0.176777 0.880455
1.00179 0.124233 0.931756
0.982502 0.153718 0.654002
0.995147 0.140531 0.861804
0.984507 0.163847 0.733835
1.07626 0.00126293 0.918475
0.977524 0.167677 0.821051
0.981153 0.158232 0.663435
1.05334 0.0387196 0.868849
1.06047 0.0218688 0.794011
0.935307 0.241498 0.733467
1.0549 0.0309399 0.920739
0.994017 0.130283 0.774832
1.00913 0.109249 0.828251
1.00161 0.126415 0.668836
1.06001 0.0282054 0.807937
0.976272 0.174547 0.689146
0.984711 0.160047 0.948045
0.963256 0.206358 0.66291
0.929401 0.249674 0.719635
0.979245 0.166252 0.892424
1.0754 0.00374555 0.656496
1.00369 0.12303 0.687142
1.04029 0.0593809 0.808582
0.952614 0.21762 0.691511
0.951714 0.213599 0.822113
0.986567 0.153857 0.703199
0.976246 0.172232 0.903223
0.937034 0.244583 0.719038
0.942791 0.224682 0.737005
0.975518 0.180846 0.887948
0.946078 0.225855 0.935143
1.05238 0.0278017 0.684581
0.947569 0.21489 0.870072
1.05685 0.0280374 0.759942
1.00655 0.106831 0.764429
0.965739 0.185732 0.678355
1.06216 0.0272425 0.712995
1.01592 0.0995857 0.77367
1.00181 0.128721 0.716245
0.968365 0.180642 0.91502
0.939392 0.239089 0.855731
1.04121 0.063017 0.946763
0.972901 0.187447 0.671264
0.957727 0.197047 0.746028
1.03759 0.0703515 0.652169
1.0124 0.112576 0.910859
0.96747 0.194879 0.684132
1.03514 0.0718012 0.726808
1.07104 0.0116247 0.82038
1.06541 0.0129898 0.7104
0.95332 0.210711 0.716761
1.04357 0.0523519 0.738605
1.02861 0.0815195 0.927664
0.983533 0.149243 0.769371
1.00948 0.11479 0.717183
1.06609 0.0178084 0.811534
1.04161 0.0569127 0.81771
1.02579 0.0899296 0.761728
0.95933 0.197947 0.651434
0.941475 0.232391 0.655282
0.990171 0.144889 0.80752
1.04976 0.0366029 0.824201
1.03835 0.0686204 0.89876
0.926876 0.257645 0.707619
1.06633 0.0126714 0.764521
0.938084 0.231641 0.948618
1.01506 0.0986218 0.778422
0.985242 0.148518 0.710486
0.97307 0.17459 0.943602
0.941255 0.243107 0.666046
1.06085 0.0184382 0.667805
0.987435 0.152958 0.838823
1.04544 0.051408 0.937915
0.967905 0.185223 0.935459
0.954699 0.225181 0.69699
0.956594 0.201586 0.67525
0.990674 0.152721 0.804063
0.957196 0.202245 0.942871
1.02258 0.0934056 0.742689
1.00312 0.123819 0.659796
1.00418 0.121185 0.881392
1.06091 0.011865 0.874763
0.946423 0.213292 0.813586
1.05969 0.0391275 0.674661
0.992263 0.14213 0.932762
1.04104 0.0584893 0.766311
1.05287 0.0546454 0.804259
1.0545 0.0362776 0.671315
0.983043 0.16127 0.874039
1.06485 0.0267844 0.7538
0.991412 0.153747 0.832079
0.976931 0.168051 0.773236
1.03897 0.055026 0.928105
0.989827 0.146065 0.700746
1.06621 0.0107937 0.939835
0.941093 0.223686 0.86449
0.969851 0.175872 0.764219
1.0348 0.080616 0.727798
1.01473 0.102351 0.869796
0.923983 0.258185 0.725896
1.03134 0.0851739 0.936419
1.06407 0.0125781 0.674501
0.939313 0.230911 0.779618
1.0152 0.121271 0.848038
0.942873 0.227654 0.733023
1.01322 0.10848 0.914432
0.924621 0.258008 0.708443
1.02006 0.106256 0.736421
1.00124 0.118899 0.904869
0.989756 0.145466 0.669563
1.01432 0.0970401 0.696081
1.05365 0.0350347 0.93411
0.99523 0.152232 0.65378
0.939141 0.241864 0.831038
0.920683 0.261488 0.86061
1.02006 0.0974562 0.835028
0.973774 0.175895 0.660043
0.958927 0.193914 0.766453
1.05642 0.0315657 0.751159
1.07059 0.00660204 0.863476
1.05866 0.0302624 0.840638
0.944758 0.234306 0.943036
1.05146 0.0342715 0.745471
1.03499 0.0676277 0.879046
0.950142 0.223435 0.667598
1.0307 0.0780028 0.719129
1.00008 0.132124 0.661983
1.02826 0.0830777 0.70518
1.0312 0.060828 0.929767
1.00859 0.121455 0.930228
1.03915 0.0593771 0.788773
0.976098 0.173126 0.677255
0.933611 0.249417 0.86076
0.953661 0.206693 0.899146
0.933135 0.237602 0.787928
0.983708 0.157378 0.769245
1.0452 0.0560856 0.685111
1.00851 0.126446 0.855645
1.06477 0.00427474 0.796168
0.938784 0.229615 0.799427
1.0439 0.0531078 0.937271
0.928105 0.244727 0.916852
1.07715 0.00105559 0.843484
0.976888 0.166236 0.932327
1.04322 0.0595435 0.905975
0.932504 0.251721 0.791162
1.02187 0.0949092 0.685787
0.995843 0.140009 0.822128
0.964814 0.195578 0.908993
1.06831 0.00618714 0.873402
1.05375 0.0414195 0.898696
1.03496 0.068572 0.817597
0.944452 0.227185 0.773292
1.01386 0.0894745 0.714185
1.03746 0.0600055 0.831971
0.966802 0.195045 0.728596
1.07592 0.00195778 0.66151
1.01829 0.0987914 0.8433
1.04833 0.0561684 0.680525
1.00283 0.127384 0.881627
1.05436 0.0339602 0.691047
0.987892 0.148743 0.679114
0.95254 0.209451 0.943386
1.02502 0.0883485 0.93855
0.949027 0.223444 0.736442
1.07227 0.0100354 0.874448
0.972115 0.185229 0.882925
0.963883 0.190721 0.692619
1.01881 0.0999111 0.821063
0.972143 0.174072 0.670044
0.928048 0.255935 0.888453
0.96477 0.190008 0.739853
1.06621 0.0188242 0.930955
1.00939 0.10822 0.690682
1.06865 0.00907834 0.828082
0.98581 0.154517 0.779082
1.04084 0.0578443 0.876887
1.01336 0.102505 0.761956
1.05293 0.0300313 0.777593
0.951219 0.214408 0.753169
1.03946 0.0681823 0.896005
1.02735 0.0864325 0.927455
1.01848 0.0987533 0.719693
1.03099 0.0797131 0.931022
0.978563 0.166019 0.942546
1.06772 0.0159444 0.678896
0.972639 0.177162 0.853236
1.00659 0.124438 0.696953
0.973419 0.16874 0.804501
0.941933 0.229643 0.83078
0.961051 0.194521 0.896098
1.01556 0.109282 0.854723
1.0032 0.128518 0.828011
1.0291 0.0705941 0.927172
1.07192 0.00759292 0.77237
1.03243 0.0832169 0.711181
0.975136 0.183047 0.86751
0.983045 0.157633 0.928752
0.966163 0.183219 0.864184
1.01824 0.0956131 0.94483
1.05864 0.030665 0.941073
1.00842 0.121621 0.835094
1.06591 0.0031713 0.777987
0.966379 0.182789 0.909545
0.96843 0.192878 0.934613
1.05533 0.0383447 0.691026
1.04265 0.051247 0.815725
1.04456 0.0508367 0.716158
1.0619 0.0213692 0.727499
1.03163 0.0777927 0.654921
0.969669 0.182038 0.828275
1.03385 0.0692573 0.719491
0.998524 0.131079 0.783511
0.998285 0.140112 0.820247
0.980019 0.16304 0.775708
1.02855 0.0721775 0.791615
0.96866 0.181418 0.913584
0.980636 0.165272 0.664649
0.955557 0.202414 0.702287
0.957577 0.208907 0.677163
0.99825 0.129195 0.668658
1.01707 0.102302 0.800651
0.996176 0.140233 0.834111
1.0204 0.0978652 0.926087
1.00635 0.116809 0.825717
1.06825 0.00579135 0.762442
0.956401 0.210486 0.803345
0.974564 0.164216 0.870505
1.01329 0.107441 0.80102
1.00258 0.12208 0.81094
1.07273 0.00670454 0.748093
1.02747 0.0884361 0.815116
0.967075 0.171069 0.849755
1.04617 0.040468 0.812497
0.976726 0.163825 0.786414
0.937581 0.244779 0.747832
1.01992 0.0924948 0.65388
1.02305 0.0946024 0.884622
0.994804 0.141853 0.883881
0.942383 0.232171 0.891769
0.971248 0.183531 0.656293
0.99548 0.138546 0.879484
1.00295 0.122785 0.880237
1.00317 0.121588 0.75062
0.972474 0.179165 0.778909
1.02993 0.0754716 0.708624
0.944739 0.215679 0.864305
0.961843 0.188875 0.763995
0.988224 0.154766 0.74447
0.943594 0.228008 0.730401
0.977288 0.179808 0.698502
0.926247 0.259916 0.66344
0.938377 0.235327 0.676152
0.944226 0.221785 0.80514
0.936462 0.235868 0.894913
1.01073 0.109096 0.856671
1.05681 0.0229937 0.916703
1.00451 0.122671 0.753632
0.985113 0.140517 0.747865
1.00518 0.117799 0.94005
1.01641 0.0997507 0.816965
0.964758 0.184646 0.790384
1.0581 0.0371655 0.907145
1.02891 0.0759576 0.674414
0.946635 0.225349 0.871296
0.954465 0.205212 0.925069
1.0442 0.061326 0.65668
0.938087 0.241244 0.760238
0.95731 0.205372 0.714125
1.07251 0.00904194 0.788
0.99715 0.133606 0.794195
1.00598 0.119406 0.934668
1.00047 0.119418 0.682896
0.980148 0.165949 0.912843
1.08195 -0.00302702 0.800664
0.984964 0.162605 0.815293
1.03851 0.061649 0.840401
0.979648 0.162558 0.846071
0.979064 0.164062 0.850565
0.965278 0.181492 0.806827
0.955082 0.208823 0.886932
0.998043 0.14249 0.856355
0.999926 0.12277 0.65409
1.0662 0.0169429 0.6759
0.972854 0.177237 0.885657
0.971995 0.190527 0.805761
0.941341 0.221696 0.725448
0.935331 0.235767 0.772312
0.999842 0.132333 0.739326
0.955143 0.204925 0.657942
0.93323 0.234639 0.685281
1.02504 0.0791755 0.790551
0.936072 0.247639 0.871207
1.02083 0.0943213 0.819773
0.999376 0.136269 0.843362
0.963048 0.201327 0.930153
1.00448 0.119489 0.694841
1.02041 0.0875277 0.741755
0.94706 0.2111 0.826245
1.03782 0.061748 0.725334
0.992748 0.140501 0.700898
1.02344 0.097827 0.820911
0.959634 0.198195 0.8933
1.02818 0.0850134 0.731948
0.990569 0.151204 0.856173
1.04704 0.0470439 0.817063
1.03477 0.0634431 0.841539
1.07048 0.0127908 0.85643
0.967149 0.182098 0.692571
1.04576 0.0534462 0.834006
1.0392 0.0604699 0.923221
0.93112 0.243313 0.724792
0.989415 0.140305 0.696398
0.982219 0.156253 0.899105
0.9922 0.138146 0.871703
0.937751 0.23021 0.700552
1.00954 0.117272 0.924684
1.04225 0.062522 0.806906
0.985222 0.152173 0.663258
1.0377 0.0662759 0.845944
0.934129 0.252547 0.936873
0.999712 0.135444 0.807489
0.973548 0.173619 0.711563
0.929651 0.253164 0.697916
1.0111 0.116794 0.947997
1.06592 0.0224642 0.7129
0.942119 0.229799 0.918463
0.985481 0.155135 0.845913
0.933239 0.248494 0.760617
0.988992 0.142396 0.720832
1.03863 0.0608653 0.94218
0.960186 0.200097 0.801303
1.01809 0.099087 0.939896
0.954344 0.220141 0.806727
0.944428 0.227704 0.941842
1.05021 0.0494929 0.805075
0.983994 0.1538 0.662467
1.01741 0.0950586 0.817896
1.06633 0.0158641 0.660885
0.967929 0.175335 0.864368
0.940809 0.230172 0.879299
0.9357 0.244015 0.861322
0.955146 0.195996 0.648811
1.07201 0.00642753 0.938094
0.927225 0.255205 0.838811
0.99341 0.14569 0.72468
1.04452 0.0576006 0.713836
1.04123 0.0594418 0.764184
0.984894 0.15645 0.819541
0.9759 0.16954 0.827429
0.960252 0.20073 0.880329
0.951852 0.210718 0.668776
0.949157 0.204279 0.66868
0.9309 0.245212 0.844802
1.01195 0.114108 0.707614
0.957975 0.205474 0.730796
0.978946 0.161892 0.769133
1.00745 0.106859 0.804085
0.981747 0.157865 0.923912
1.03099 0.0705034 0.79307
0.953589 0.203396 0.705955
1.00673 0.114027 0.746853
0.967982 0.190769 0.888526
0.978406 0.160886 0.684014
1.02014 0.101271 0.838378
1.05585 0.0186733 0.948178
1.06224 0.0225101 0.664092
1.05144 0.0398849 0.949895
0.982336 0.155087 0.748803
1.05514 0.0229025 0.686428
0.942273 0.229577 0.723571
1.06556 0.025836 0.673087
0.963112 0.198712 0.771268
1.05638 0.0260661 0.887098
0.964764 0.190231 0.903647
0.95931 0.202308 0.870319
1.05361 0.0417869 0.83832
0.978889 0.15962 0.825742
0.944848 0.210823 0.817592
1.04242 0.0475809 0.777805
0.931529 0.241535 0.790274
1.02526 0.0937969 0.766205
0.954837 0.203873 0.693004
0.958785 0.195402 0.870005
1.00179 0.119844 0.729892
1.01451 0.105362 0.861538
0.944031 0.222166 0.922129
0.965717 0.183893 0.748741
0.935947 0.241085 0.796766
1.05528 0.0429555 0.839374
1.06738 0.0112562 0.83215
1.00206 0.119097 0.680571
0.956651 0.212093 0.935181
0.953462 0.216812 0.662657
1.01842 0.105923 0.764151
0.933604 0.249037 0.670787
1.06041 0.029696 0.947217
0.983322 0.156395 0.895111
1.04618 0.0351978 0.698613
0.990505 0.137871 0.810562
0.976787 0.179031 0.701423
1.02746 0.0735364 0.876389
1.0591 0.0212878 0.679745
1.07553 0.00808982 0.831182
0.930377 0.24874 0.894603
0.992228 0.131917 0.807304
1.04994 0.0379105 0.858652
0.96872 0.184539 0.760558
0.947075 0.231598 0.795406
1.01811 0.0917152 0.740745
0.954286 0.211413 0.89838
0.975565 0.181889 0.932024
1.06912 0.0242468 0.873956
1.00556 0.122088 0.797256
1.00008 0.129658 0.901461
1.00339 0.121531 0.790249
0.95467 0.203171 0.672072
0.994633 0.137101 0.69876
1.00976 0.116708 0.931463
1.05787 0.029965 0.696541
1.03141 0.0738915 0.835582
0.980048 0.169682 0.674171
1.00267 0.116665 0.948806
0.9657 0.189158 0.682182
1.05941 0.0182981 0.855378
1.01399 0.106256 0.909363
1.06819 0.0144358 0.814351
0.925792 0.254388 0.920717
0.955144 0.204978 0.91344
1.05594 0.0329216 0.760937
1.0071 0.110526 0.826672
1.02074 0.100504 0.688146
1.03514 0.0702565 0.834256
1.03884 0.0666527 0.895544
1.00008 0.139056 0.760153
1.00128 0.132496 0.934387
0.936374 0.238667 0.749234
1.01755 0.088594 0.948738
0.967892 0.175371 0.889807
1.04786 0.0460764 0.878631
1.01172 0.108117 0.825373
1.06621 0.0100365 0.661335
0.943002 0.227977 0.67301
1.05343 0.036205 0.751446
0.970674 0.175369 0.726144
1.06022 0.0292861 0.845369
1.05432 0.0233862 0.854007
1.02155 0.0815224 0.69544
1.07418 0.00422751 0.947742
1.02588 0.0897118 0.653412
1.05586 0.0297627 0.797027
1.04686 0.0410792 0.932988
0.967749 0.182975 0.703673
1.05748 0.0269204 0.778598
0.99954 0.133405 0.70529
1.04469 0.0539307 0.889184
1.01218 0.111306 0.868641
0.994098 0.140774 0.908024
0.951219 0.213686 0.896465
1.03719 0.073533 0.680337
1.01624 0.104466 0.649648
1.02126 0.105591 0.673835
0.937222 0.23579 0.780209
0.939004 0.229479 0.736609
1.06223 0.0274909 0.822511
0.966272 0.183321 0.780349
1.05431 0.0418224 0.856118
1.06169 0.0261326 0.800457
0.930005 0.253672 0.905583
1.06391 0.0119664 0.820391
0.971626 0.17123 0.720197
1.01771 0.0860961 0.924866
1.00554 0.119439 0.909825
0.966206 0.186108 0.946994
0.947282 0.219163 0.770634
0.947138 0.21329 0.889344
0.931182 0.253084 0.719641
0.95712 0.199202 0.95551
1.02116 0.0977488 0.849016
0.951096 0.222883 0.869772
1.02335 0.0985505 0.838449
0.988497 0.146363 0.944901
0.931706 0.230722 0.764791
0.950157 0.215547 0.659028
1.0125 0.109126 0.661922
1.00473 0.111049 0.735791
1.01366 0.112052 0.73059
1.05052 0.0468556 0.906793
0.971204 0.185977 0.838878
0.995562 0.130047 0.770315
1.06296 0.0114859 0.826412
1.01946 0.0957362 0.91224
0.973131 0.167366 0.810043
0.958989 0.19634 0.854556
1.02324 0.0887206 0.884719
0.941682 0.225988 0.867517
0.954116 0.215159 0.821877
0.993533 0.142512 0.650102
1.01814 0.0860275 0.923062
0.943521 0.222091 0.85193
0.956004 0.204007 0.930865
0.954239 0.197864 0.660021
1.00307 0.119168 0.905008
1.06907 0.0144477 0.916122
0.984709 0.168821 0.804203
1.01457 0.0946308 0.924602
1.04436 0.0603453 0.819605
1.04454 0.0572842 0.826311
1.03945 0.0558949 0.893677
0.951411 0.216774 0.758035
1.04401 0.0422343 0.74432
0.938754 0.239619 0.697718
0.928289 0.253784 0.938549
1.03411 0.072988 0.82459
1.01438 0.102805 0.689492
0.946882 0.225896 0.752287
0.974028 0.179193 0.898289
0.928043 0.255 0.864897
1.01356 0.106269 0.690977
0.987699 0.136344 0.723231
0.931342 0.260458 0.756504
1.05794 0.0312151 0.903424
0.925487 0.255635 0.843785
1.03342 0.0815296 0.699906
1.01332 0.113768 0.918484
1.06159 0.0215656 0.899938
0.989393 0.14934 0.866486
1.01129 0.113913 0.872656
0.969134 0.18088 0.823717
0.990719 0.156581 0.767626
0.98428 0.153634 0.762432
1.06048 0.0358859 0.767949
0.926978 0.250365 0.702355
0.943492 0.228382 0.721127
1.07547 -0.00505022 0.657274
0.99952 0.122778 0.801173
0.952404 0.21878 0.717305
0.929315 0.251525 0.945325
1.05869 0.0218453 0.865809
1.02939 0.0926205 0.821252
0.977545 0.172848 0.735194
0.952441 0.210467 0.88293
0.949281 0.221094 0.661516
1.01316 0.0983206 0.878181
1.0192 0.107993 0.737973
0.992165 0.145547 0.915097
0.966227 0.178319 0.870845
1.07263 0.00831384 0.886068
1.02401 0.0874707 0.719611
0.996936 0.129699 0.793549
1.00935 0.12025 0.903206
1.0458 0.0598781 0.826065
0.988083 0.149906 0.854444
1.04206 0.0663438 0.936605
1.01046 0.116935 0.912855
1.02023 0.0843472 0.852349
0.981933 0.15875 0.776892
1.05127 0.0423014 0.659425
1.07043 0.0049132 0.767964
1.00484 0.125253 0.938137
0.953158 0.207191 0.941641
0.939603 0.237458 0.74991
0.99617 0.147864 0.917635
1.01852 0.100368 0.672568
0.952581 0.21227 0.712835
1.01733 0.100051 0.699352
1.05404 0.0404879 0.681584
1.04032 0.0539048 0.933942
0.986203 0.150336 0.876404
1.06686 0.0109458 0.783183
1.03094 0.080346 0.827764
1.04064 0.0642696 0.666744
1.04013 0.0583949 0.939214
1.03298 0.0764894 0.923799
0.947525 0.215118 0.72644
0.990423 0.138761 0.711759
1.00847 0.118085 0.805553
0.958473 0.198331 0.765946
1.05213 0.0375141 0.922195
1.07575 -0.000163157 0.680074
0.930106 0.241692 0.88228
0.967094 0.182142 0.842017
0.968033 0.183257 0.810498
0.978391 0.163989 0.750576
0.950285 0.22302 0.814073
0.93448 0.236073 0.757104
1.00927 0.121354 0.848343
1.05903 0.0240945 0.839212
1.05756 0.0276128 0.925985
1.01388 0.108231 0.860876
0.97976 0.161644 0.922739
1.05795 0.0374338 0.83674
0.950094 0.205163 0.811258
1.05974 0.0238713 0.780158
1.00867 0.123721 0.842527
0.969201 0.182211 0.717848
1.05649 0.043148 0.902476
1.04865 0.0391748 0.811514
0.974105 0.166438 0.883906
1.00378 0.111819 0.673674
1.01728 0.0896154 0.858467
1.00702 0.118595 0.802854
0.957429 0.201573 0.899906
1.02455 0.0945374 0.670828
0.968869 0.182321 0.715934
0.982537 0.158916 0.897389
1.07644 0.00225042 0.731243
1.02869 0.0777 0.753074
0.929568 0.254996 0.799493
0.986661 0.159346 0.885976
1.00726 0.107987 0.9247
1.03217 0.0787994 0.930677
1.03541 0.069864 0.726576
1.02896 0.0709038 0.805515
1.07221 0.00791471 0.675393
0.96331 0.198908 0.822685
1.06103 0.021785 0.670732
0.972682 0.170942 0.668209
0.966915 0.192669 0.807573
0.981317 0.159011 0.802
1.04615 0.0475981 0.883904
0.947636 0.224303 0.719121
1.04673 0.0421512 0.8609
1.03429 0.0673719 0.704502
1.0548 0.0436198 0.882782
1.01089 0.116103 0.882507
1.0702 0.00919042 0.890545
1.04211 0.0585155 0.795563
1.04766 0.0379375 0.825521
0.950829 0.21495 0.893098
1.00635 0.113131 0.779386
1.06175 0.0279099 0.755133
1.01115 0.117676 0.859837
1.03093 0.0709058 0.64871
1.00169 0.137383 0.660114
1.07063 0.00915753 0.778191
0.972016 0.172376 0.785265
1.03786 0.0554833 0.663668
0.962862 0.190935 0.837552
0.929515 0.243681 0.723384
0.973458 0.169654 0.789539
1.07064 0.00547669 0.744055
1.0404 0.0640957 0.945821
1.01425 0.106706 0.669474
0.964704 0.196673 0.709059
1.06808 0.00623125 0.942955
1.06622 0.0124721 0.738641
0.972475 0.178648 0.813147
0.979777 0.173699 0.810819
1.00588 0.1246 0.739777
1.023 0.0983208 0.881893
1.00679 0.117713 0.820179
0.997284 0.141211 0.703515
1.00694 0.107453 0.756439
0.953935 0.208756 0.799112
1.06997 0.00900016 0.71214
1.01293 0.101979 0.856268
0.966604 0.185097 0.878797
1.00714 0.110807 0.73431
0.985345 0.155911 0.87167
0.944146 0.221627 0.695487
1.06489 0.00989051 0.782883
0.974614 0.170877 0.865546
0.972268 0.189972 0.941148
0.962256 0.201324 0.715063
1.06708 0.0117075 0.734066
1.06308 0.0291955 0.653574
0.9324 0.260154 0.744876
0.962878 0.1921 0.917609
1.01876 0.103256 0.721686
0.931733 0.239555 0.812765
1.00106 0.132838 0.941432
1.07142 -0.00120136 0.688418
1.01993 0.098863 0.920067
1.03294 0.0784714 0.882071
0.967076 0.195181 0.777466
1.03034 0.0730573 0.937275
1.02712 0.0833575 0.823745
0.943895 0.216193 0.659393
1.03394 0.0715165 0.666622
1.05478 0.0489021 0.821705
0.968103 0.184335 0.82934
0.981517 0.172685 0.855987
0.926224 0.260021 0.696737
1.05336 0.0421943 0.793005
0.950246 0.217405 0.6994
0.957546 0.20723 0.854574
1.01992 0.0951785 0.9303
0.956059 0.211503 0.919231
1.05582 0.0312423 0.892881
0.987501 0.145537 0.85066
1.03111 0.0738214 0.740876
1.01779 0.0983831 0.823545
0.947543 0.229966 0.799125
0.976142 0.176545 0.766598
1.005 0.120061 0.853775
0.983892 0.161089 0.876974
0.928225 0.258602 0.796299
0.941556 0.232463 0.774825
1.04552 0.0456866 0.722636
0.993157 0.13945 0.733003
1.00951 0.114467 0.670658
1.0686 0.00997403 0.911464
0.995129 0.134763 0.67135
0.999034 0.131287 0.794055
1.02396 0.0837643 0.78205
1.02754 0.0868878 0.800531
1.01853 0.095857 0.839549
1.04355 0.0506182 0.897971
1.02154 0.0786971 0.859283
0.955276 0.205966 0.896562
1.07061 0.00784116 0.707839
0.97736 0.173545 0.826268
0.960572 0.201613 0.689754
0.9699 0.180603 0.773375
0.981119 0.15993 0.852992
0.95699 0.199526 0.788431
1.0027 0.129644 0.777464
1.0015 0.118258 0.696869
1.01474 0.103139 0.811592
0.974056 0.173282 0.751212
1.00858 0.106333 0.876309
0.951053 0.212899 0.767302
0.970044 0.1717 0.868933
0.923307 0.259611 0.666142
0.991833 0.150274 0.909575
1.0709 0.0154079 0.75918
0.994356 0.140919 0.893987
0.952055 0.21637 0.746272
1.01446 0.105295 0.672495
0.933631 0.238858 0.827205
1.02754 0.0884355 0.924266
0.996874 0.134278 0.918962
0.979523 0.169606 0.674266
0.929544 0.254498 0.709306
0.976447 0.182099 0.868429
1.03365 0.0743457 0.713339
1.05567 0.0378261 0.803547
0.962234 0.205072 0.756686
1.02725 0.0864625 0.71523
0.983243 0.160073 0.735297
1.02762 0.0789236 0.714245
0.928177 0.258191 0.882383
0.932195 0.244667 0.925397
1.02153 0.0876536 0.73575
1.06125 0.0226225 0.87721
1.04984 0.0306137 0.739139
1.01482 0.100731 0.822563
1.04388 0.0596176 0.711285
0.978005 0.182114 0.887792
1.07323 0.011996 0.705865
0.995205 0.138095 0.885572
0.970533 0.17297 0.820807
1.06569 0.0216136 0.681455
0.974732 0.176316 0.7329
1.00415 0.126195 0.858642
1.01361 0.101573 0.861473
0.970428 0.180582 0.726671
0.938435 0.236549 0.713911
1.01313 0.118442 0.907131
0.937597 0.233629 0.672228
1.01473 0.110041 0.696182
1.06598 0.0109041 0.904562
0.999571 0.141274 0.872469
1.01952 0.091343 0.690831
0.974393 0.176244 0.659388
1.05875 0.0351105 0.679983
1.06439 0.0125654 0.74594
1.0638 0.00925849 0.864222
1.00315 0.1265 0.904784
0.996807 0.138559 0.910613
1.00338 0.121476 0.876284
0.989221 0.153819 0.919885
1.00841 0.124112 0.754378
1.05279 0.0461696 0.93588
1.03012 0.0832743 0.842736
1.05525 0.031418 0.716052
1.06803 0.0135456 0.834627
0.976228 0.173936 0.657197
0.977512 0.168879 0.889114
1.06431 0.0144554 0.713182
1.05983 0.0302296 0.790615
1.00142 0.125654 0.856654
0.963128 0.189913 0.722637
1.06697 0.0138324 0.858022
1.07078 0.00880184 0.829062
0.931772 0.244302 0.687956
1.02651 0.0796005 0.774876
1.01524 0.106488 0.681901
0.933191 0.239874 0.705634
0.97837 0.165595 0.803818
1.06817 0.00923473 0.768644
1.05527 0.0343385 0.660864
1.07291 0.0098252 0.708901
0.982983 0.162621 0.882976
1.00724 0.104724 0.886383
1.07221 0.00479876 0.709367
0.971519 0.18554 0.810415
0.974245 0.17654 0.722066
0.987427 0.152102 0.935217
1.06332 0.0156165 0.789533
0.998901 0.126365 0.829215
0.986794 0.15384 0.922625
1.03422 0.0724714 0.695951
0.957926 0.205577 0.823113
1.00676 0.119554 0.882975
0.944894 0.227448 0.950049
1.01712 0.103538 0.657236
1.01034 0.108675 0.912556
1.01412 0.105685 0.843303
1.02639 0.0763451 0.800076
0.955353 0.201541 0.697511
0.989608 0.134857 0.713223
1.05245 0.0419459 0.777876
0.960351 0.21717 0.692517
0.929004 0.251462 0.724011
0.995866 0.1258 0.673524
1.06544 0.00885988 0.724043
1.05526 0.0306977 0.877441
1.07419 0.00656053 0.894387
0.968102 0.183893 0.661677
0.936285 0.235856 0.784664
0.952489 0.209265 0.681536
0.963095 0.195402 0.769034
1.00559 0.111315 0.677142
0.940065 0.225094 0.747419
1.05935 0.031152 0.951228
0.950151 0.22338 0.926137
0.940503 0.236558 0.932197
1.06854 0.00460734 0.71366
1.02703 0.0898644 0.778962
0.987833 0.153509 0.73411
1.06317 0.0202927 0.923813
1.07051 0.0143073 0.653245
0.987361 0.16096 0.821972
1.06519 0.0109702 0.806666
0.965734 0.201843 0.694846
1.05003 0.0442658 0.938744
0.974917 0.166339 0.815106
0.971121 0.180175 0.943606
1.00101 0.130099 0.872502
1.0167 0.0956312 0.713024
1.05731 0.0351927 0.721921
0.956012 0.197283 0.833614
1.05906 0.0302383 0.895322
1.04526 0.0559464 0.731821
0.939576 0.225475 0.834006
0.933441 0.263328 0.84009
1.03332 0.0750724 0.854253
1.03696 0.0642338 0.899967
1.05416 0.0287045 0.806378
1.04578 0.0551366 0.866777
0.93234 0.244183 0.766292
0.984586 0.149636 0.719033
0.924727 0.253915 0.684975
0.947887 0.222924 0.93922
0.968393 0.192258 0.672729
1.06147 0.0207545 0.657348
0.924822 0.256297 0.687479
0.983169 0.164736 0.941287
1.04174 0.0603715 0.931703
1.0741 0.00458215 0.834209
0.987134 0.148328 0.852294
0.94541 0.224244 0.723499
1.04153 0.0545792 0.79741
0.973141 0.175414 0.660693
1.05428 0.0318384 0.699703
0.950014 0.211926 0.849899
0.930161 0.257266 0.669849
1.02657 0.0902126 0.820886
0.985123 0.157006 0.654036
0.944753 0.219071 0.926989
1.00929 0.110374 0.803286
0.991296 0.151123 0.844945
0.962295 0.194743 0.863127
1.05299 0.0215697 0.684075
0.972104 0.174464 0.743918
0.952766 0.206661 0.657691
0.930865 0.2488 0.943215
1.04795 0.0386559 0.829563
1.05208 0.0444279 0.77371
1.06754 0.0168909 0.791743
1.01134 0.10979 0.843873
0.960069 0.203964 0.79914
0.985734 0.153223 0.842932
1.04738 0.0426306 0.670224
0.979527 0.164146 0.817283
1.05866 0.0267267 0.844128
1.05228 0.0294758 0.888619
1.02736 0.0835397 0.892645
0.935263 0.231878 0.947221
1.05801 0.0356838 0.853826
0.931029 0.251367 0.85835
1.0606 0.024268 0.789711
1.04225 0.0646034 0.749917
0.945531 0.225726 0.711497
0.963052 0.190277 0.761003
0.926995 0.24933 0.902114
1.06595 0.0218837 0.666724
1.06752 0.0122261 0.766185
1.04944 0.046452 0.942198
0.987852 0.151638 0.726771
1.05817 0.0326952 0.914739
0.959903 0.195404 0.761344
0.925234 0.257483 0.708002
0.97119 0.183373 0.693503
0.989591 0.154122 0.700512
1.0088 0.111985 0.649558
1.00995 0.116897 0.704822
0.966133 0.190923 0.897422
1.00768 0.109171 0.750617
0.984395 0.156689 0.681325
0.947137 0.227997 0.938984
1.07348 0.00227704 0.664652
1.0752 0.0112736 0.884424
1.06057 0.0178455 0.705177
1.01214 0.114846 0.779098
0.943363 0.214652 0.84051
0.935576 0.240218 0.844552
1.02324 0.0869698 0.864834
0.925842 0.244261 0.692802
1.06738 0.00930853 0.858901
0.980062 0.155856 0.912764
0.935248 0.239391 0.775375
0.976304 0.173279 0.692308
1.06061 0.0291008 0.727084
1.00695 0.115406 0.934851
1.01339 0.10258 0.916832
1.07006 0.0018718 0.940549
0.997747 0.133041 0.806339
1.05779 0.035569 0.671758
0.983394 0.163715 0.91699
0.957736 0.200276 0.8101
1.00284 0.123357 0.652836
1.07028 0.00682401 0.695262
1.00732 0.125361 0.844921
0.963314 0.193393 0.902504
0.938025 0.227703 0.750118
0.994903 0.139066 0.907998
0.96439 0.199044 0.881399
1.0393 0.0679851 0.873539
1.01136 0.112389 0.79657
0.978634 0.172926 0.921574
1.02661 0.086676 0.877974
1.0091 0.114342 0.772465
0.971855 0.179028 0.735178
1.06707 0.0173762 0.913459
0.927493 0.24653 0.667435
0.926614 0.259357 0.793452
0.979787 0.163043 0.75839
0.935377 0.242196 0.728783
0.97995 0.163322 0.732256
0.983502 0.162912 0.88871
0.97787 0.171909 0.875355
0.937362 0.231952 0.651079
1.05493 0.0339877 0.820564
0.923459 0.254338 0.662534
1.05413 0.0283324 0.68722
1.02933 0.0743868 0.940125
0.932426 0.251225 0.87497
0.947017 0.225944 0.856708
0.941436 0.239058 0.83417
0.947369 0.227149 0.75953
0.948878 0.229488 0.774124
1.01098 0.117514 0.929702
0.989991 0.152548 0.929086
0.942521 0.229501 0.809904
1.01735 0.104219 0.858317
0.979193 0.169019 0.794646
0.947846 0.222975 0.713327
0.99861 0.133068 0.783317
1.03234 0.0737827 0.814171
0.949203 0.223125 0.901064
1.06375 0.0228146 0.840267
1.05333 0.0338013 0.80543
0.996593 0.13455 0.899226
0.925413 0.258851 0.654588
1.04919 0.0461236 0.822642
1.07227 0.000301434 0.706473
1.00574 0.120956 0.712651
0.967722 0.19349 0.68078
1.04992 0.0428369 0.852185
1.01081 0.109855 0.952467
0.954545 0.20941 0.804893
0.980727 0.167357 0.854103
0.968983 0.175237 0.780252
1.01824 0.091848 0.845734
1.01395 0.11633 0.84117
1.05591 0.038572 0.895887
0.996275 0.134664 0.798546
0.982645 0.162614 0.726797
1.00308 0.119197 0.90594
0.968168 0.194853 0.696248
0.932356 0.253404 0.923427
0.960881 0.20326 0.793952
0.993537 0.139653 0.671029
1.01722 0.101068 0.858708
1.02371 0.0904727 0.682988
1.0252 0.0865029 0.799273
1.05025 0.0503311 0.729174
1.03826 0.0586418 0.752874
0.969275 0.178501 0.696556
1.06671 0.016216 0.74307
1.01072 0.108254 0.792932
1.06972 0.00930275 0.928528
1.06801 0.00858746 0.743797
0.94424 0.224053 0.854569
1.05532 0.0261158 0.817135
1.04314 0.0517344 0.861104
1.0125 0.0961808 0.773299
1.06785 0.0119349 0.655952
1.00249 0.12807 0.800823
1.05418 0.0412748 0.71562
0.960344 0.193427 0.936739
1.03371 0.07768 0.864341
0.958918 0.195018 0.842682
0.984547 0.154315 0.939796
1.00183 0.132539 0.822444
0.9449 0.220865 0.943988
0.999531 0.115997 0.952829
1.02959 0.0782102 0.802233
0.92798 0.255762 0.736029
1.07041 -0.000947083 0.813613
0.940766 0.233082 0.694616
1.04388 0.0486376 0.819154
1.03951 0.0504622 0.730325
1.07251 0.00424675 0.771278
1.07196 0.00683407 0.651288
0.944058 0.22254 0.736893
0.980757 0.159294 0.932468
0.93564 0.243717 0.752237
1.0331 0.0669324 0.896816
0.975322 0.179039 0.873159
0.93722 0.248204 0.813761
1.02959 0.0799153 0.805213
1.06564 0.0170662 0.847878
1.06285 0.0141551 0.892842
0.950976 0.212061 0.908842
1.05204 0.0434648 0.850176
0.983019 0.164503 0.774763
1.05995 0.0175149 0.668726
0.936721 0.236681 0.744078
0.954163 0.204919 0.764035
0.957705 0.191042 0.859739
0.942448 0.240005 0.847085
0.980603 0.166196 0.938025
0.966886 0.182753 0.870964
0.979385 0.16437 0.769246
0.972526 0.158802 0.762148
0.920772 0.25303 0.873181
1.01718 0.102809 0.85043
0.963562 0.19438 0.839533
0.990628 0.139502 0.816531
1.03388 0.0699164 0.673186
0.982895 0.156895 0.665198
1.01686 0.107087 0.881201
1.03838 0.0655393 0.754057
1.06601 0.0117325 0.71718
0.9849 0.154309 0.838376
1.00275 0.13787 0.763589
1.06525 0.0116239 0.903919
1.05065 0.0476096 0.7568
1.00607 0.111921 0.852395
1.05402 0.0301609 0.811201
0.946311 0.218638 0.914955
1.03033 0.0806783 0.885267
0.979435 0.16172 0.767159
1.02565 0.0864067 0.920002
0.994611 0.137 0.691071
0.942605 0.229918 0.713165
0.928488 0.250172 0.88049
0.971531 0.176913 0.779051
0.956969 0.190125 0.855002
0.986475 0.154635 0.818395
1.00439 0.125362 0.899917
0.954698 0.21423 0.878332
0.932928 0.244978 0.888846
0.95016 0.209326 0.920427
1.04279 0.0555077 0.842893
0.991276 0.13661 0.848702
0.993404 0.133253 0.845328
0.978379 0.164906 0.7387
0.944905 0.221323 0.781226
1.06796 0.00886456 0.79702
0.957211 0.213446 0.933157
1.01501 0.0888782 0.832852
1.0032 0.121398 0.661046
1.03954 0.0726092 0.819434
1.07221 0.00538352 0.699125
1.03018 0.0796615 0.873196
0.985255 0.155144 0.835733
1.02549 0.0856102 0.827769
0.947431 0.208331 0.795486
1.03549 0.068874 0.659709
1.02155 0.0939553 0.833803
1.00677 0.117884 0.820429
1.01697 0.0972544 0.670237
0.951861 0.210493 0.69956
0.960096 0.202798 0.771021
1.07142 0.0124624 0.754939
0.961736 0.19744 0.905641
1.05303 0.0363176 0.826993
1.05711 0.033403 0.766131
1.01416 0.103081 0.748488
1.01693 0.0999812 0.756
1.04656 0.0468121 0.70586
0.941811 0.241335 0.684314
0.962631 0.188236 0.763709
1.04267 0.0614392 0.726732
0.940405 0.233855 0.792003
0.955776 0.19915 0.837604
0.930582 0.258109 0.777787
0.969876 0.177185 0.716746
0.955819 0.211323 0.719094
1.05266 0.0324772 0.948758
0.97658 0.179968 0.934443
1.0434 0.0579455 0.768661
0.939167 0.244378 0.892045
1.05426 0.044961 0.762474
1.05504 0.0412644 0.807864
1.05404 0.0473985 0.921851
1.00138 0.127707 0.740118
1.04805 0.0551852 0.825921
0.997435 0.129282 0.770081
1.02163 0.0927301 0.85296
1.07302 0.00141808 0.876541
1.06411 0.0151083 0.805637
0.970934 0.173684 0.679016
0.98517 0.149661 0.910646
0.963974 0.203121 0.788563
0.985442 0.161402 0.822376
0.985771 0.150473 0.921942
0.973218 0.167124 0.694168
1.00334 0.119123 0.751181
0.985391 0.143379 0.942929
0.97572 0.177538 0.948079
1.03006 0.0795669 0.905824
0.929455 0.251965 0.933511
1.00768 0.1173 0.725546
0.95588 0.197178 0.736075
1.03079 0.0806864 0.705536
1.00985 0.111981 0.697724
0.995958 0.145619 0.788385
1.07411 0.0112548 0.804343
0.946613 0.216303 0.862879
0.964669 0.18861 0.697529
0.97408 0.174787 0.769738
0.926929 0.244967 0.674662
1.02721 0.0794018 0.899882
0.927606 0.250695 0.76889
1.07075 0.00794943 0.867467
1.06115 0.0277922 0.698548
0.960572 0.197008 0.774732
1.00504 0.12803 0.700531
0.990119 0.153221 0.783553
0.986396 0.149906 0.937661
1.03504 0.0717704 0.761099
1.02342 0.096024 0.672748
1.02896 0.0815228 0.831932
1.07759 0.00466859 0.750199
1.0323 0.0619008 0.82571
1.01877 0.0998905 0.777612
1.05551 0.0288601 0.937806
0.986571 0.144664 0.918496
0.985281 0.163851 0.841933
1.04383 0.0588418 0.838501
0.96481 0.185403 0.944706
1.07319 0.0102262 0.772405
0.999047 0.132405 0.678944
0.987845 0.156966 0.870486
1.01349 0.118405 0.68781
1.0664 0.0161695 0.766193
0.950863 0.209145 0.754173
1.00571 0.114881 0.834382
1.06954 0.00159101 0.941887
0.959506 0.189095 0.742284
0.971585 0.165792 0.72987
0.967982 0.181296 0.700043
0.935669 0.243136 0.804469
1.00094 0.128482 0.736087
0.988497 0.144306 0.773648
0.976462 0.164934 0.776858
1.01323 0.108471 0.942839
0.962023 0.202905 0.937264
1.00112 0.130538 0.926952
0.948915 0.219941 0.884902
0.960206 0.197815 0.873999
0.952064 0.219874 0.734112
0.944239 0.225013 0.794741
0.92862 0.241589 0.699131
0.957638 0.206552 0.711662
1.06667 0.0178247 0.830598
0.943152 0.225246 0.775689
0.988859 0.15217 0.680059
1.02139 0.0946988 0.680967
1.04542 0.0460769 0.805118
0.932252 0.249116 0.743322
0.957133 0.198191 0.79822
0.927657 0.257892 0.681734
1.04374 0.0561351 0.736554
