ply
format ascii 1.0
comment Created by Open3D
element vertex 1000
property double x
property double y
property double z
end_header
0.844987 0.0845631 0.693365
0.847237 -0.0313967 0.914708
0.920001 0.0941371 0.940267
0.84239 -0.0418396 0.671132
0.822315 0.0493989 0.700402
0.857388 -0.0982119 0.791
0.809866 0.0615243 0.754234
0.794132 -0.0265786 0.748592
0.799409 -0.0159537 0.79571
0.949861 -0.105677 0.954242
0.814945 0.0434808 0.866644
0.865477 -0.0731948 0.945281
0.902561 0.050139 0.968269
0.915788 0.0473618 0.635954
0.882892 0.116851 0.909813
0.805387 0.0376641 0.812073
0.881331 -0.134718 0.879971
0.948896 0.175956 0.714859
0.966123 0.029305 0.613368
0.833019 0.0451926 0.869865
0.898892 0.102943 0.681845
0.954679 0.14223 0.663857
0.92229 -0.0764734 0.961815
0.813854 0.0477388 0.847091
0.810891 0.0133838 0.797402
0.85861 -0.0580713 0.672333
0.924989 -0.184079 0.842907
0.850985 0.130795 0.786997
0.824814 -0.0704121 0.869365
0.814261 0.0705249 0.803202
0.848561 -0.0924333 0.862369
0.798476 0.0394158 0.830263
0.873508 0.0638921 0.661405
0.89412 0.163549 0.7889
0.913317 -0.138624 0.913571
0.901707 0.156387 0.832654
0.830998 -0.114236 0.827572
0.926825 -0.154595 0.898205
0.886096 0.0552643 0.657358
0.98268 -0.176865 0.775396
0.872516 -0.0928061 0.909297
0.940193 0.0974885 0.963631
0.863189 -0.0447038 0.955528
0.870724 -0.137739 0.865839
0.892478 0.0955766 0.661253
0.986502 0.0704407 0.608313
0.792337 -0.00931613 0.801515
0.838701 0.0486661 0.93266
0.918818 0.000242391 0.982824
0.822797 -0.00410276 0.890965
0.914407 -0.179104 0.824481
0.835038 -0.0150095 0.897196
0.846729 0.105145 0.76089
0.864131 0.0987917 0.913051
0.809788 0.0144857 0.860076
0.941383 0.13889 0.935869
0.803708 -0.0291336 0.843926
0.936078 -0.111047 0.963021
0.791582 0.0543485 0.753464
0.926814 0.180024 0.852993
0.869286 0.0270405 0.951992
0.878144 0.138913 0.912137
0.988467 0.185385 0.756145
0.873058 0.0405312 0.647339
0.917869 0.112614 0.948604
0.876328 0.0712786 0.669773
0.827858 -0.0364045 0.71205
0.784694 0.0265348 0.830914
0.920521 0.036303 0.975653
0.886833 -0.160831 0.750671
0.820935 0.0547357 0.812954
0.817136 -0.0795186 0.777387
0.797352 -0.0642887 0.769052
0.88821 0.00518739 0.644308
0.81297 0.0689954 0.78271
0.929494 0.141855 0.686644
0.934071 -0.106135 0.668546
0.88316 0.0715126 0.927798
0.804139 -0.0403327 0.800776
0.997328 -0.0638273 1.00391
0.795955 -0.020265 0.819755
0.827626 0.0846383 0.719225
0.805168 0.0143466 0.806166
0.86263 0.135124 0.755653
0.943058 0.134833 0.684978
0.838996 -0.110375 0.77266
0.919593 0.177835 0.805816
0.945282 -0.162124 0.896783
0.816707 0.0264381 0.749275
0.908991 0.000688673 0.641511
0.901951 0.0339311 0.606736
0.836068 -0.0276407 0.917949
0.834812 -0.063601 0.908292
0.853254 0.0627086 0.902524
0.808967 -0.0500532 0.784551
0.928326 0.116751 0.93608
0.834388 0.0964802 0.890653
0.953171 -0.180847 0.858854
0.915782 0.171904 0.85772
0.984479 -0.197416 0.892074
0.823465 0.0784103 0.857484
0.822262 0.0592554 0.733666
0.840286 0.0308448 0.862966
0.946013 -0.0447775 0.989697
0.983601 0.0667959 0.614008
1.01164 0.190612 0.851255
0.947523 0.121745 0.637258
0.967118 -0.101628 0.958612
0.822987 0.07719 0.796525
0.89118 0.117152 0.67862
0.847716 -0.0781572 0.89263
0.793115 0.0353564 0.804495
0.794193 0.0544658 0.786345
0.976017 -0.0259957 0.616928
0.846697 -0.126508 0.820477
0.813505 0.103933 0.807323
0.93242 0.155444 0.683439
0.904714 0.133919 0.904203
0.833473 0.0651156 0.727908
0.959692 0.0681125 0.997008
0.863376 -0.0642329 0.645474
0.804445 0.017993 0.836796
0.846996 0.13629 0.79437
0.978351 -0.142974 0.928014
0.968583 -0.0405954 0.981803
0.819945 -0.0124702 0.896948
0.81004 -0.000526335 0.774248
0.90696 0.174962 0.791319
0.809227 -0.00314913 0.796264
0.939849 0.168391 0.902891
0.979482 0.188878 0.873165
0.80736 -0.0215038 0.814898
0.981668 0.163358 0.912152
0.875275 -0.147772 0.773051
0.861313 0.0275807 0.94429
0.793046 -0.00438739 0.797364
0.992499 0.187123 0.721719
0.964131 -0.0244333 0.623937
0.809521 -0.0481734 0.779486
0.905119 -0.0239347 0.635068
0.84538 -0.110092 0.823212
0.822237 -0.0927346 0.807587
0.93528 -0.130212 0.68098
0.97773 -0.174787 0.849465
0.898297 -0.140105 0.726935
0.985276 0.189446 0.741371
1.00263 -0.112059 0.631485
0.970279 -0.0210191 0.616088
0.852971 -0.0200387 0.923688
0.800873 -0.0111697 0.766928
0.966996 -0.175987 0.706309
0.86679 -0.0761002 0.935184
0.788105 -0.0114764 0.793725
0.789789 -0.00314349 0.790747
0.805283 0.0158296 0.824892
0.985279 -0.11057 0.965126
0.973446 0.174415 0.901943
1.00571 0.195807 0.790899
0.824269 0.00146117 0.836789
0.854981 0.0879389 0.921117
0.844211 0.104041 0.772682
0.800938 0.00148692 0.810914
0.852247 0.100602 0.694331
0.801812 -0.0046168 0.796713
0.944118 -0.152558 0.713624
0.844953 0.0643283 0.894746
0.789061 0.0115348 0.801171
0.923975 -0.183228 0.853231
0.781131 0.0392845 0.819238
0.852446 -0.123686 0.883721
0.871729 -0.112501 0.754526
0.923285 0.179997 0.819916
0.814541 0.0415707 0.764306
1.00258 0.107987 0.972956
0.799076 0.0108789 0.858348
0.815851 -0.0351797 0.718996
0.807806 -0.0266163 0.746149
0.971153 0.187815 0.791005
0.885709 0.0859572 0.663301
0.987117 -0.0528326 0.984803
0.899866 0.0987753 0.649669
0.939414 0.214284 0.785575
0.840447 -0.103029 0.85018
0.906274 0.168179 0.863672
0.843089 0.0604015 0.916309
0.875478 0.151506 0.741178
0.989392 -0.192831 0.752255
1.0008 -0.179881 0.714797
0.882279 0.165046 0.798134
0.973865 0.196635 0.792604
0.84337 0.126222 0.795592
0.906631 0.173816 0.807252
0.885622 -0.0131238 0.640327
0.943979 0.134641 0.959714
1.00218 0.0231156 0.989284
0.847269 0.121696 0.746416
0.881846 -0.142963 0.787522
0.963262 0.113585 0.632405
0.948069 0.0592646 0.610024
0.91553 0.105149 0.640964
0.814335 -0.0219227 0.765297
0.822007 -0.0617755 0.837126
0.796049 0.0228211 0.74364
0.924755 0.0134052 1.00944
0.938741 -0.183475 0.804625
0.81057 -0.0492661 0.862812
0.998461 -0.149678 0.953176
0.803528 -0.000957431 0.868355
0.813112 0.0503245 0.760555
0.936851 -0.0867266 0.637153
0.987152 0.0665537 0.980899
0.826823 0.0784115 0.793656
1.00524 -0.132307 0.666287
0.825386 0.0517654 0.740786
0.827225 0.0138061 0.682681
0.809532 0.0121659 0.88402
0.878731 0.100192 0.696831
0.853491 0.0074943 0.929514
0.863362 -0.14606 0.778223
0.939153 0.123691 0.912573
0.838465 0.107314 0.90419
0.837699 0.126118 0.765759
0.862325 0.0269448 0.665779
0.810797 0.015811 0.847887
0.8085 -0.0113502 0.799612
0.812068 0.00830686 0.807952
0.879706 0.0637878 0.639942
0.891429 0.123372 0.688447
0.936563 -0.200637 0.783413
0.838162 -0.0385472 0.69059
0.878601 -0.124778 0.904988
0.858443 0.100033 0.780831
0.826682 -0.050211 0.752148
0.990516 -0.15143 0.657237
0.782225 0.0126165 0.794136
0.853367 0.106933 0.706626
0.934334 -0.0066 0.993965
0.964415 0.200651 0.790687
0.851766 -0.144795 0.851156
0.824347 0.115697 0.757938
0.990951 -0.180276 0.786577
0.832905 0.00901514 0.913853
0.806081 -0.0314522 0.794793
0.970223 -0.162656 0.681097
0.974549 0.21281 0.808716
0.994506 -0.0836522 0.997038
0.830763 0.112242 0.785935
0.816982 0.0473079 0.832508
0.801827 -0.0142265 0.77804
0.931829 0.192534 0.833998
0.844941 -0.140565 0.811371
0.800484 -0.00842165 0.780751
0.807349 -0.0199786 0.823939
0.808298 -0.00697846 0.842808
0.798322 -0.0099062 0.804123
0.796272 -0.0498261 0.820952
0.89684 -0.169009 0.825461
0.930611 0.193651 0.797296
0.91223 -0.13973 0.704714
0.916003 -0.156921 0.907911
0.935253 0.0590412 0.604558
0.958443 -0.188277 0.731724
0.791962 -0.0228432 0.840863
0.969585 0.0682345 0.606916
0.87253 -0.0857796 0.944976
0.809569 -0.0521447 0.833326
0.986177 0.0908899 0.626946
0.801309 0.0404997 0.828461
0.87251 -0.164321 0.842321
0.886464 -0.128541 0.92828
0.844474 0.0632869 0.792141
0.804634 0.0318837 0.847211
0.809577 -0.0254371 0.804943
0.870837 0.0464724 0.660035
0.95281 -0.187418 0.752327
0.809776 0.0108418 0.874792
0.891621 -0.0321037 0.646298
0.798429 -0.0049368 0.823096
0.872186 0.0169656 0.657929
0.801943 -0.0128486 0.808827
0.807348 0.00486952 0.785279
0.871168 -0.149267 0.729084
0.790194 0.0126161 0.790423
0.930723 0.174061 0.822346
0.909447 -0.0848931 0.97841
0.920983 -0.174954 0.846986
0.976953 -0.0573312 0.97108
0.869169 0.142144 0.758153
0.797564 0.0152981 0.798278
0.860702 0.00487349 0.909939
0.963203 -0.105337 0.642966
0.97148 -0.177006 0.792965
0.944596 0.104379 0.626996
0.85827 -0.136712 0.770598
0.85228 -0.0771921 0.733588
0.811413 0.0504685 0.808675
0.993603 0.038691 0.605946
0.897058 0.0644002 0.965196
0.95428 0.161474 0.89056
0.86491 -0.145528 0.815957
0.842986 0.0631915 0.90936
0.853689 -0.0832361 0.915603
0.803042 0.0221269 0.822175
0.799763 0.0116209 0.801684
0.992028 -0.157021 0.654824
0.835001 0.0529514 0.691136
0.841417 -0.0053306 0.919713
0.825799 0.0101382 0.731372
0.937412 0.175711 0.763477
0.84065 0.1116 0.712393
0.824837 0.0195368 0.902233
0.886971 -0.121115 0.705248
0.936084 -0.174364 0.725805
0.878013 -0.0782925 0.935396
0.897698 0.104715 0.933517
0.884028 -0.127177 0.745582
0.854346 0.140312 0.847926
0.875742 0.0937922 0.675884
0.825496 -0.0705518 0.733436
0.988089 -0.160967 0.686225
0.856835 0.125636 0.729529
0.843711 0.122266 0.751606
0.970025 0.205516 0.772074
0.907035 0.0292528 0.61354
0.896889 0.0953729 0.926412
0.931843 0.171401 0.740896
0.918086 -0.138534 0.705245
0.828352 0.0323016 0.897988
0.97202 0.162962 0.918583
0.833185 0.011189 0.920977
0.917532 0.0253889 0.653184
0.960223 -0.13655 0.66625
0.821393 -0.0109219 0.877626
0.909654 0.00526413 0.9777
0.839013 -0.101951 0.859122
0.866634 0.115146 0.777683
0.822027 0.0613742 0.780932
0.79632 -0.00797377 0.784578
0.921464 0.0242414 0.963035
0.960363 -0.188503 0.819301
0.977215 0.105595 0.645237
0.810205 0.0403169 0.852277
0.862368 -0.109134 0.836082
0.816226 0.00866076 0.758971
0.935933 0.159653 0.870937
0.821173 -0.0585914 0.862842
0.917382 0.127244 0.94479
0.942485 0.161504 0.857739
1.00287 -0.206967 0.840938
0.94659 0.175223 0.731125
0.908656 0.149544 0.884602
0.837709 0.0274467 0.67955
0.817506 -0.0173169 0.826217
0.829168 0.115319 0.776277
0.985766 -0.204987 0.797779
0.920442 -0.107697 0.667233
0.828002 0.123773 0.819681
0.955786 0.0670163 0.627874
0.912327 0.130321 0.943396
0.997236 -0.114153 0.985074
0.884556 0.1141 0.684206
0.887141 -0.0373935 0.659536
0.982302 0.148268 0.923772
0.886354 0.144832 0.7021
0.875739 -0.0641358 0.9283
0.824667 -0.0308382 0.854282
0.789721 0.0201457 0.789461
0.953766 -0.122023 0.962981
0.949921 -0.203255 0.799649
0.82508 0.0404225 0.857027
0.817956 -0.0803573 0.735569
0.909082 -0.163484 0.869788
0.82243 0.013836 0.735273
0.849192 -0.126401 0.836829
0.910636 0.0172137 0.971953
0.949271 0.0980302 0.97081
0.851217 0.0550477 0.69269
0.922098 0.11901 0.647328
0.932403 0.175528 0.807501
0.806751 -0.00340113 0.729624
0.970334 -0.205236 0.817508
0.803839 0.0392934 0.865502
0.934055 0.135239 0.920527
0.903969 0.0691337 0.642294
0.883078 0.169794 0.868131
0.998291 -0.11455 0.960558
0.806193 -0.0137461 0.788502
0.975188 0.0390867 1.00906
0.805633 -0.0301452 0.853292
0.817005 -0.0473974 0.813863
0.941823 -0.169112 0.732885
0.88575 0.0999683 0.68556
0.838759 -0.00554032 0.708532
0.798678 -0.0674978 0.774849
0.976389 -0.184959 0.847828
0.860544 -0.141473 0.794843
0.795664 -0.0932776 0.80753
0.82922 0.107114 0.732877
0.919797 0.192598 0.782203
0.946718 -0.0216223 0.604412
0.813881 -0.0394185 0.845669
0.830156 0.127689 0.813706
0.899479 -0.00829209 0.638213
0.800576 -0.022493 0.733152
0.920134 -0.0505789 0.978687
0.843122 -0.0859985 0.778845
0.875318 -0.0378216 0.945985
0.953055 -0.195693 0.796252
0.957391 0.194782 0.811732
0.984185 0.135194 0.664568
0.821607 0.0706995 0.77304
0.803656 -0.00788255 0.771586
0.988268 0.134271 0.934945
0.862711 0.0915869 0.725763
0.938422 -0.044734 0.981791
0.918087 0.0279271 0.967396
0.826389 -0.00650821 0.7324
0.809156 -0.0491526 0.738032
0.841194 0.0720391 0.695472
0.945781 -0.19678 0.830378
0.794318 -0.0354106 0.778579
0.781529 -0.00450398 0.763829
0.87357 -0.0303724 0.674786
0.989024 0.196292 0.841593
0.803484 0.00897297 0.754716
0.799968 -0.0215125 0.777839
0.931884 -0.00965575 0.613661
0.836311 -0.0909251 0.769301
0.884837 0.154861 0.839948
0.915492 -0.17496 0.843047
0.966444 -0.206572 0.847549
0.918911 0.0676183 0.64742
0.895237 -0.122772 0.714143
0.904046 -0.136926 0.707701
0.802894 -0.0106731 0.803473
0.871666 0.0415054 0.659222
0.925972 -0.136426 0.688244
0.800178 -0.0240901 0.788725
0.872509 0.101491 0.751371
0.843132 0.100619 0.757301
0.793818 -0.0152033 0.787002
0.962569 0.121236 0.629305
0.978774 -0.135446 0.66059
0.849096 0.0862806 0.805164
1.00261 -0.123863 0.95884
0.800652 0.0421669 0.735085
0.949964 -0.184318 0.869044
0.819798 0.0706016 0.835133
0.926486 -0.166648 0.890425
0.930224 0.0248038 0.986434
0.964099 -0.120402 0.957388
0.79515 0.00498922 0.821086
0.924384 0.07808 0.969515
0.854126 0.0321637 0.953635
0.83436 0.0762176 0.863975
0.790465 0.0207954 0.799986
0.943385 0.179315 0.787585
0.865888 -0.155515 0.77773
0.853055 -0.018626 0.64926
0.807153 0.0485341 0.732586
0.832153 0.0324416 0.697236
0.981344 0.205078 0.808972
0.831497 -0.102843 0.800775
0.859174 -0.134864 0.868031
0.870381 0.13788 0.85309
0.857567 0.111521 0.728733
0.823774 -0.0349254 0.766393
0.86637 0.101092 0.922073
0.832144 -0.0248909 0.685251
0.817681 -0.00135982 0.805047
0.826971 0.0393825 0.720681
0.984873 0.13729 0.65337
0.881661 -0.138801 0.902869
0.852468 0.137594 0.780647
0.860121 0.0746253 0.906067
0.814852 0.00884811 0.752675
0.972239 0.0644493 0.620663
0.961471 0.16589 0.70003
0.823353 -0.0895749 0.735005
0.842767 -0.120101 0.849962
0.829073 0.103407 0.820607
0.890754 0.0420418 0.64762
0.903705 -0.142676 0.733765
0.805214 -0.0451314 0.797342
0.910687 -0.162644 0.810002
0.861299 -0.113638 0.812551
0.787541 0.0222851 0.776833
0.88969 -0.143227 0.775747
0.864294 -0.0888721 0.921053
0.981946 -0.0147225 0.603024
0.847561 0.115765 0.807468
0.928983 0.0918404 0.660827
0.808829 -0.0651772 0.802528
0.810865 -0.00716471 0.736846
0.864013 -0.0697978 0.945016
0.871925 -0.146012 0.721574
0.861251 0.135372 0.882013
0.975497 0.201053 0.802802
0.914433 -0.0593312 0.621592
0.93148 0.0697931 0.984942
0.831001 -0.0900082 0.859601
0.917888 0.18291 0.801462
0.915329 0.146595 0.702771
0.828444 0.0894047 0.806303
0.856007 -0.0923157 0.855747
0.817436 -0.0567195 0.848283
0.879956 -0.0881107 0.921138
0.854556 0.0399775 0.685328
0.871472 -0.0271088 0.939791
0.899795 -0.147764 0.725088
0.855117 -0.0298417 0.674101
0.908711 -0.0312784 0.601059
0.818385 0.03732 0.722039
0.885315 0.172945 0.767811
0.815691 0.107986 0.765963
0.853736 0.0478328 0.932111
0.900714 0.0930966 0.926005
0.874958 -0.116489 0.90478
0.84122 -0.0756477 0.814898
0.963084 0.0950617 0.954782
0.798148 0.072641 0.805019
0.847429 0.0686553 0.688213
0.8526 -0.0446713 0.923337
0.935879 -0.132622 0.672413
0.956289 0.0653194 0.989048
0.95981 -0.0789125 0.986075
0.8042 0.0433456 0.792907
0.922672 -0.0875505 0.959584
0.948265 0.0674927 0.984183
0.915673 0.147729 0.699816
0.830124 -0.072132 0.732845
0.843532 -0.119082 0.850687
0.895005 0.0886232 0.651418
0.835223 0.104098 0.813922
0.878766 0.100464 0.684026
0.959216 0.0265186 0.993861
0.969082 -0.092896 0.636691
0.850836 -0.141749 0.766976
0.801956 0.00117786 0.803797
0.811189 -0.00794001 0.761242
0.944004 0.132278 0.930992
0.79949 -0.0171902 0.806977
0.790384 -0.0121833 0.787012
0.953443 0.053328 0.999817
0.925708 -0.0681943 0.624313
0.967183 0.188186 0.832679
0.925833 0.167772 0.740716
0.920567 0.145545 0.853704
0.952886 -0.0278153 0.615419
0.788558 0.025495 0.808144
0.803353 0.0324699 0.789735
0.810662 0.02156 0.876165
0.798723 0.0535861 0.791962
0.83932 -0.0770222 0.702267
0.931778 0.0140347 0.985974
0.85756 -0.0826816 0.682394
0.986859 -0.116761 0.643889
0.978153 -0.133626 0.932888
0.796953 0.00651564 0.809498
0.886995 0.120483 0.700762
0.91044 -0.0164458 0.626641
0.851249 0.0300025 0.924724
0.884303 -0.109777 0.649444
0.8937 0.137168 0.8708
0.795075 0.00871463 0.816469
0.854395 -0.103922 0.733741
0.83563 0.1002 0.772388
0.89192 0.0260253 0.649018
0.8693 0.124569 0.712659
0.898068 0.0560973 0.954844
0.798273 -0.00685215 0.797902
0.93972 0.139343 0.665746
0.843109 -0.0306024 0.688487
0.819985 0.0101225 0.835642
0.807613 0.0372407 0.863463
0.870792 -0.095953 0.684087
0.786185 0.00257699 0.823568
0.953309 0.0879599 0.630659
0.824379 0.0144297 0.728517
0.813713 -0.0318101 0.843875
0.880331 -0.1241 0.718884
0.864977 -0.118967 0.876473
0.915542 0.115013 0.647147
0.914715 0.138646 0.676843
0.947867 -0.143107 0.647029
0.918485 -0.175524 0.869938
0.850664 0.119165 0.758249
0.851338 0.140018 0.8023
0.839665 0.0797682 0.916534
0.858559 0.131178 0.761404
0.839138 0.100642 0.877099
0.871008 -0.0187966 0.951486
0.912848 -0.161827 0.7714
0.878279 -0.160548 0.874312
0.815961 0.0616169 0.831941
0.831236 -0.122249 0.784806
0.879064 0.0457007 0.955156
0.972305 -0.129979 0.938694
0.877719 -0.0773142 0.943847
0.800035 -0.0597179 0.809635
0.81067 0.0120696 0.734516
0.792937 -0.0243254 0.820708
0.879938 -0.116937 0.910344
0.804212 -0.00998827 0.727191
0.872984 0.154029 0.718028
0.951064 0.134521 0.94037
0.939663 0.145859 0.706492
0.84014 0.0967191 0.705462
0.858961 -0.102294 0.705902
0.817048 0.00172089 0.724851
0.805063 -0.0275794 0.77221
0.824922 -0.0386654 0.716466
0.79547 -0.0332328 0.778599
0.816137 -0.0715738 0.833527
0.970895 -0.130856 0.654077
0.994956 -0.114721 0.948922
0.806589 -0.0559441 0.836081
0.901921 -0.175124 0.779144
0.936528 -0.0139591 0.592721
0.841555 -0.0816796 0.893644
0.800591 0.00970519 0.788373
1.00677 0.09822 0.981407
0.866155 0.00223342 0.651245
0.801155 0.00585428 0.812325
0.911835 -0.028771 0.995356
0.876115 0.0547578 0.937087
0.880125 -0.14952 0.748231
0.832105 -0.0368442 0.928313
0.977733 -0.147017 0.919606
0.820283 0.0168143 0.731294
0.89465 -0.16349 0.738604
0.766438 -0.0376596 0.804884
0.914332 0.0174182 0.988828
0.85231 -0.0876532 0.67276
0.932346 0.137273 0.671435
0.946946 -0.14126 0.894266
1.00205 -0.159378 0.684934
0.856964 -0.0465565 0.665886
0.988564 0.188718 0.907748
0.814278 -0.0679342 0.765645
0.886766 0.157877 0.713167
0.886506 -0.0245836 0.982112
0.963198 0.194774 0.74969
0.855977 0.122443 0.718888
0.872973 -0.0687874 0.922071
0.800355 -0.0255536 0.815407
0.867015 0.0425062 0.931348
0.85501 -0.01858 0.673373
0.967521 -0.132862 0.948128
0.98539 -0.193606 0.87825
0.840351 0.00833866 0.671455
0.825905 -0.0526138 0.711817
0.820676 -0.0832031 0.728488
0.836398 0.0708444 0.701375
0.792321 -0.0120172 0.801681
0.840736 -0.082556 0.671939
0.801965 0.0019529 0.822778
0.943031 0.182886 0.786448
0.922279 -0.0105132 0.605218
0.866808 0.161171 0.76861
0.800502 -0.00629831 0.768675
0.825703 -0.0571555 0.889227
1.00898 0.11667 0.646209
0.865521 -0.109517 0.677707
0.8184 -0.080462 0.807831
0.807512 -0.0243415 0.707419
0.801708 0.00613402 0.799479
0.956967 0.140318 0.933407
0.847921 -0.0975955 0.852123
0.912726 -0.173581 0.776369
0.845312 0.101683 0.713285
0.796621 -0.0550522 0.748231
0.83147 0.0476736 0.861861
0.842716 0.0809081 0.744437
0.940093 -0.0914108 0.625593
0.904845 -0.00312651 0.963205
0.972201 0.142323 0.947123
0.870115 0.124709 0.723152
0.81962 -0.0173704 0.758888
0.978959 0.189324 0.901192
0.847511 0.00538384 0.663423
0.81617 0.092738 0.829332
0.917797 0.183419 0.836739
0.887241 -0.0725578 0.940887
0.951088 0.0318274 0.606897
0.882381 -0.0607044 0.940643
1.002 -0.0323837 0.619816
0.798039 0.022307 0.811623
0.912933 -0.104345 0.952466
0.961621 -0.148063 0.667585
0.814284 0.0795257 0.827659
0.825577 0.0825853 0.867177
0.792798 0.00830509 0.817136
0.932935 0.12226 0.635592
0.796522 -0.00271726 0.824511
1.00359 0.0695182 0.593108
0.805049 0.0282987 0.749424
0.883582 -0.152545 0.79863
0.930222 0.077514 0.957228
0.974252 0.155785 0.931303
0.883743 0.128301 0.737777
0.814614 0.00741864 0.872489
0.916804 0.160646 0.859602
0.907344 -0.022872 0.969129
0.7816 0.0406424 0.77853
0.975591 0.193341 0.867141
0.853527 0.033061 0.928254
0.86722 -0.130815 0.886478
0.819612 0.0738962 0.80183
0.795574 0.0492794 0.78307
0.819891 0.0764516 0.770139
0.862041 -0.137211 0.715172
0.865026 0.0539005 0.934194
0.809173 -0.00182949 0.752605
0.808579 0.0273419 0.838162
0.803605 0.0129737 0.739081
0.818894 0.0505561 0.76931
0.88387 0.11529 0.684926
0.90725 -0.16128 0.869556
0.915326 0.166068 0.852188
0.809343 -0.0161255 0.807714
0.890429 -0.121522 0.923509
0.777292 -0.00159388 0.801519
0.931541 0.0988292 0.63326
0.810373 0.0545058 0.845859
0.808171 -0.0558565 0.748236
0.818778 0.0669927 0.744659
0.81733 0.0840927 0.768159
0.943518 -0.0372784 0.619824
0.832222 0.0619597 0.728381
0.91386 -0.188881 0.797338
0.839939 0.040337 0.685773
0.806602 -0.0251785 0.732058
0.82028 0.0193432 0.691493
0.836851 0.0832913 0.748223
0.91397 0.0318242 0.962045
0.800631 -0.0184847 0.806262
0.811226 -0.0136906 0.849292
0.961735 0.171947 0.786209
0.974465 -0.00590798 0.605188
0.872464 -0.151812 0.859079
0.840818 0.123434 0.812291
0.870146 0.00254908 0.657904
0.8044 -0.0286637 0.810388
0.813962 -0.00159341 0.807894
0.867437 -0.0324297 0.652889
0.875275 0.0257344 0.964269
0.867783 -0.164522 0.851779
0.958442 0.0755346 0.60232
0.874095 0.0646832 0.941087
0.826418 -0.0816534 0.695916
0.799374 -0.00464371 0.75661
0.850099 0.0274156 0.668726
0.974391 0.0405669 1.00056
0.993524 0.0734469 0.586971
0.799586 -0.0479591 0.807328
0.939196 -0.19867 0.804176
0.883234 -0.0275764 0.986609
0.97476 0.122107 0.957243
0.80941 0.0204303 0.863064
0.857016 -0.018239 0.654223
0.824175 0.0863032 0.769776
0.832602 0.0379941 0.669556
0.795972 0.00293914 0.796342
0.820083 -0.0215695 0.78299
0.813035 0.0564209 0.854095
0.952147 -0.148071 0.690267
0.919738 0.162521 0.746788
0.85114 0.132652 0.801
0.914284 0.0350104 0.968951
0.90213 0.166808 0.86785
0.794381 -0.00635047 0.811354
0.894481 -0.0386541 0.948795
0.804948 -0.0104989 0.899782
0.98283 -0.148237 0.682887
0.851854 -0.1308 0.850339
0.896271 0.0939056 0.647792
0.978043 0.204303 0.757879
0.951109 -0.05576 0.616874
0.944803 0.104524 0.954021
0.958644 -0.116073 0.643524
0.794316 0.0360969 0.85745
0.835467 0.110017 0.81369
0.795025 -0.0423596 0.784943
0.939029 0.00224415 0.609756
0.905805 0.142765 0.901972
0.797223 0.00444758 0.766551
0.807865 0.0652567 0.805388
0.849843 0.0727554 0.715069
0.9426 0.136139 0.911599
0.89267 -0.158282 0.773715
0.991899 -0.132819 0.663411
0.947131 -0.179032 0.743425
0.858782 -0.100062 0.760576
1.00594 0.199884 0.785598
0.962726 0.0696403 0.960405
0.825075 0.0402682 0.718426
0.987039 0.177624 0.781579
0.976063 0.180299 0.735529
0.887849 -0.153984 0.780593
0.885278 0.0338203 0.67179
0.878866 0.0935572 0.923822
0.984907 -0.19896 0.844707
0.903011 -0.145384 0.83348
0.824997 -0.0894279 0.748591
0.829746 -0.0228619 0.886778
0.801148 0.0751506 0.784587
0.941329 0.112635 0.958903
0.914861 0.205158 0.771516
0.807074 0.0221081 0.8862
0.9585 -0.147389 0.896657
0.857825 0.11696 0.698361
0.806064 -0.0499043 0.798861
0.862425 0.106884 0.853408
0.845199 0.0838623 0.797494
0.813182 -0.0708707 0.853317
0.892384 -0.162091 0.834332
0.956495 -0.170574 0.674674
0.973948 0.00191455 0.599144
0.995478 -0.0921014 0.624188
0.965729 -0.0265846 0.605874
0.810866 -0.0441142 0.854236
0.946435 -0.187018 0.853445
0.903873 0.0322345 0.961992
0.935141 0.0215687 0.992311
0.800553 0.0160995 0.808457
0.816463 0.0207858 0.691724
0.979936 -0.0292143 0.982567
0.896295 -0.0159411 0.980303
0.827623 -0.0317487 0.682064
0.923953 -0.0736525 0.651266
0.810742 -0.0380812 0.856936
0.812054 -0.0251216 0.784936
0.896258 -0.113706 0.966722
0.793755 -0.061569 0.791108
0.800052 -0.0238567 0.828506
0.975805 0.180882 0.679736
0.902931 0.158157 0.677529
0.925036 -0.0311392 0.614902
0.916433 0.18049 0.874003
0.83187 0.105561 0.828217
0.8469 -0.0032345 0.677464
0.885376 -0.121826 0.680651
0.837518 0.115396 0.764481
0.797814 -0.012728 0.799887
0.788155 0.0350519 0.869774
0.854239 0.0671023 0.886461
0.814021 -0.0270792 0.799201
0.811253 0.00351992 0.715868
0.904591 -0.0442828 0.621961
0.8608 0.125692 0.782662
0.894649 0.0714563 0.95343
0.837358 0.108703 0.856089
0.80373 -0.027223 0.836247
0.88422 0.129225 0.758721
0.83968 -0.117034 0.852109
0.890562 0.0056371 0.64886
0.858308 -0.13922 0.849228
0.852357 0.00746212 0.927348
0.83624 -0.112314 0.816373
0.840709 0.106104 0.724586
0.867354 -0.128581 0.75064
0.815146 -0.0361016 0.736681
0.98832 -0.171126 0.783582
0.955007 0.0711681 0.611317
0.909417 0.0361369 0.635107
0.836662 -0.0679169 0.916306
0.824635 -0.0512997 0.727228
0.79637 0.00545666 0.783709
0.916706 -0.196694 0.81053
0.886149 -0.115875 0.674467
0.818971 -0.0338553 0.88469
0.841736 -0.116513 0.807828
0.98592 0.193451 0.744247
0.810089 -0.00503564 0.796713
0.815764 0.0564502 0.76736
0.879706 -0.101645 0.674975
0.887079 -0.115182 0.931697
0.808078 0.0252311 0.749585
0.942665 0.191766 0.729371
0.851598 -0.0244215 0.679353
0.880676 -0.105433 0.938032
0.801064 -0.028488 0.774003
0.802793 0.0506675 0.812001
0.920345 0.102522 0.635326
0.801121 0.000794684 0.796444
0.818259 -0.00557791 0.795347
0.974909 0.113015 0.635978
0.944899 0.133954 0.92072
0.805221 -0.0599903 0.782731
0.917772 0.138006 0.916521
0.811792 -0.0523615 0.80601
0.878076 -0.125975 0.88244
0.841295 -0.00232522 0.686137
0.949871 -0.193388 0.858546
0.889944 -0.0502223 0.661805
0.858931 0.112883 0.898687
0.933572 0.0345871 0.982417
0.984816 0.164507 0.679686
0.978531 -0.0461457 0.988368
0.87183 -0.106237 0.684875
0.965655 -0.193378 0.772291
0.862947 -0.127482 0.735996
0.935808 0.175711 0.781309
0.845147 -0.127112 0.730906
0.839737 -0.00948946 0.684761
0.847046 0.0833337 0.720894
0.806658 -0.0198508 0.839764
0.883861 0.130294 0.706512
0.818462 -0.0319589 0.818106
0.865481 0.091223 0.91098
0.81781 -0.0335825 0.782251
0.835565 0.0839213 0.870347
0.956118 -0.207067 0.820456
0.843073 -0.0963063 0.878251
0.9012 0.117769 0.938869
0.819162 0.0294884 0.775508
0.827822 -0.00119754 0.869514
0.820005 -0.0193351 0.739814
0.821408 0.0526306 0.889623
0.914246 -0.0106608 0.977122
0.844528 0.0102906 0.650172
0.832444 -0.0504606 0.928895
0.822678 0.0223076 0.822209
0.824134 0.0659639 0.845093
0.944905 0.189265 0.866953
0.811317 0.0314161 0.814458
0.972551 0.0974042 0.979521
0.985895 0.14373 0.648762
0.844878 -0.0247917 0.936466
0.801867 -1.39389e-05 0.821472
0.851375 0.0998106 0.693973
0.807692 -0.0080928 0.824096
0.836802 0.0400937 0.898155
0.972258 0.000541614 0.593827
0.983799 -0.0958183 0.617588
0.979897 -0.116793 0.945108
0.809614 -0.00788261 0.823456
0.856588 -0.0537699 0.687827
0.847085 -0.0880541 0.694624
0.826309 -0.0204337 0.716832
0.807777 0.00749686 0.797863
0.859748 0.0910802 0.715538
0.852108 0.0929408 0.900486
0.777015 0.0129103 0.818442
0.991081 -0.212761 0.789894
0.993609 0.190191 0.692595
1.02088 -0.0856413 0.640013
0.906587 -0.158834 0.887156
0.844534 -0.118102 0.862252
0.805907 0.0231143 0.765054
0.932118 0.186306 0.71345
0.939635 -0.0413396 0.984828
0.828541 0.0169066 0.910885
0.937943 0.0644114 0.614502
0.95318 0.187018 0.7322
0.802255 -0.0651948 0.800001
0.791362 -0.00250237 0.792228
0.819478 -0.0250207 0.859499
0.82229 -0.0514168 0.830488
0.835946 -0.0281577 0.693872
0.879885 -0.159117 0.853284
0.871976 -0.152578 0.779592
0.798214 0.00142826 0.773048
0.830932 -0.129713 0.773786
0.955741 -0.186035 0.88874
0.780665 -0.0349436 0.77114
0.962357 -0.0136825 1.00113
0.96503 -0.148465 0.918896
0.966864 -0.122813 0.958107
0.904859 0.0318037 0.971682
0.967752 0.0320079 0.601687
0.847622 -0.0102273 0.658514
0.874161 -0.0252697 0.639305
0.83409 -0.0570121 0.86148
0.917911 -0.169078 0.900625
0.86552 -0.0684139 0.680552
0.969291 0.149231 0.91663
0.951462 0.11513 0.929374
0.925223 0.162494 0.701951
0.992715 -0.071 0.989882
0.807318 0.00458676 0.75046
0.799188 -0.0214529 0.793862
0.828967 0.0737594 0.744128
0.880728 0.151408 0.779863
0.943167 -0.166875 0.719471
0.792541 -0.0224345 0.833964
0.888158 0.156684 0.856214
0.85607 0.0144602 0.657864
0.841914 -0.114807 0.803872
0.956068 -0.0457906 1.00253
0.843989 -0.0916942 0.721207
0.903857 0.185215 0.778556
0.938662 0.0741647 0.982019
0.9621 0.177905 0.722554
0.945348 0.0570345 0.984764
0.973881 -0.164137 0.956663
0.822549 -0.0528202 0.727228
0.953262 -0.178457 0.717098
0.807651 -0.033262 0.720542
