ply
format ascii 1.0
comment Created by Open3D
element vertex 1000
property double x
property double y
property double z
end_header
1.16114 -0.0635236 0.696621
1.15431 0.0186822 0.907125
1.07101 -0.095351 0.960233
1.15485 0.0394235 0.665706
1.17682 -0.0387681 0.682996
1.18229 0.101207 0.780025
1.20564 -0.053978 0.760244
1.18891 0.0387401 0.738206
1.18515 -0.00578325 0.785213
1.0524 0.122169 0.969781
1.1907 -0.0345236 0.857299
1.11275 0.0591198 0.913828
1.08586 -0.0491602 0.984624
1.09878 -0.0464086 0.644399
1.12523 -0.0890149 0.905979
1.17611 -0.0463987 0.834291
1.10011 0.158335 0.867682
1.04449 -0.177927 0.723944
1.03866 -0.0288735 0.610705
1.19947 -0.0437781 0.881544
1.10469 -0.11731 0.669699
1.06451 -0.141656 0.665551
1.09579 0.0848465 0.976982
1.19579 -0.038554 0.839836
1.19785 -0.0244022 0.777495
1.16394 0.0488178 0.676067
1.08381 0.172062 0.830579
1.15452 -0.150683 0.814526
1.17923 0.0992155 0.871601
1.17271 -0.0815994 0.799452
1.17207 0.104265 0.858342
1.20126 -0.0488684 0.822211
1.12988 -0.072291 0.649912
1.11005 -0.173012 0.818177
1.0842 0.13758 0.92239
1.10171 -0.168191 0.811663
1.14993 0.101887 0.821861
1.07871 0.151382 0.894772
1.12551 -0.0506966 0.648656
1.01007 0.191781 0.770357
1.14527 0.0852648 0.906928
1.04848 -0.08937 0.965564
1.12444 0.0289127 0.935638
1.13557 0.154716 0.844963
1.10803 -0.0914303 0.652901
1.03315 -0.103271 0.630345
1.17802 0.0286182 0.807991
1.15422 -0.0575547 0.925002
1.09826 -0.000766631 0.968972
1.17448 -0.00241424 0.878302
1.10141 0.175849 0.841188
1.18799 0.00491225 0.884418
1.16376 -0.121045 0.762631
1.11599 -0.0866996 0.906017
1.19617 -0.0155436 0.867269
1.05386 -0.166293 0.920113
1.20365 -0.0101437 0.855237
1.07162 0.120558 0.952852
1.1701 -0.0584547 0.757645
1.05063 -0.198025 0.852762
1.11938 -0.0333873 0.948002
1.12855 -0.130693 0.899787
1.01052 -0.196635 0.773627
1.12951 -0.033058 0.650057
1.09596 -0.0955318 0.936229
1.12332 -0.0585583 0.656694
1.17803 0.0627245 0.716993
1.20131 -0.00875101 0.810622
1.08852 -0.0287779 0.980324
1.10546 0.168863 0.756981
1.18839 -0.0862653 0.833808
1.18521 0.0745713 0.753355
1.18583 0.0391564 0.777673
1.14968 0.00750323 0.65449
1.19313 -0.0920285 0.782137
1.0634 -0.144514 0.690822
1.06923 0.156066 0.629331
1.13395 -0.0632692 0.941661
1.19569 0.037126 0.814513
0.998955 0.0482892 0.994965
1.18902 0.013943 0.81357
1.15302 -0.0989338 0.738849
1.20464 -0.00344331 0.799705
1.14837 -0.109155 0.747877
1.0565 -0.151411 0.672628
1.16281 0.112578 0.75207
1.08192 -0.202351 0.787758
1.05147 0.155064 0.873184
1.19194 -0.0122958 0.764737
1.11886 -0.00393442 0.633114
1.08449 -0.00419383 0.622732
1.1352 0.0258504 0.912884
1.16017 0.0729487 0.903552
1.15564 -0.0569446 0.924112
1.21132 0.0584391 0.769447
1.06546 -0.127658 0.950114
1.16279 -0.0894623 0.88845
1.05761 0.182605 0.850452
1.07265 -0.173259 0.849886
1.00611 0.174225 0.878275
1.17021 -0.0709319 0.86283
1.17307 -0.0495556 0.736622
1.19511 -0.0323815 0.870375
1.03361 0.0709302 0.982075
1.04344 -0.065829 0.606533
1.00212 -0.186763 0.866585
1.03233 -0.10576 0.618437
1.02799 0.113109 0.976616
1.19013 -0.085153 0.793229
1.10156 -0.128795 0.671251
1.15644 0.0735711 0.889146
1.19082 -0.0295775 0.805236
1.17415 -0.0466789 0.79474
1.0307 0.0332547 0.608036
1.15987 0.130346 0.828405
1.15671 -0.082935 0.804617
1.0638 -0.176165 0.689454
1.08718 -0.126749 0.901835
1.15449 -0.0743146 0.712266
1.02325 -0.0460831 0.974311
1.13523 0.0567675 0.675138
1.196 -0.0223442 0.832328
1.13549 -0.124088 0.761449
1.01385 0.144526 0.923024
1.03534 0.0352531 0.993278
1.1794 0.00988126 0.869002
1.19787 0.00577033 0.774721
1.10388 -0.170611 0.802252
1.20731 0.00381337 0.776864
1.06195 -0.156953 0.899829
1.05392 -0.181804 0.860948
1.20251 0.0199701 0.827709
0.995633 -0.149603 0.90707
1.10639 0.148664 0.77284
1.12627 0.00860503 0.927918
1.20726 0.00473212 0.774025
0.992731 -0.181128 0.71541
1.04948 0.0060832 0.577768
1.1839 0.0751417 0.795715
1.10547 0.0163198 0.624982
1.16668 0.108006 0.827219
1.19033 0.0898503 0.816705
1.07294 0.133192 0.673077
1.02255 0.193778 0.836052
1.08895 0.166708 0.730308
1.01491 -0.182422 0.732811
1.012 0.0972696 0.645227
1.02084 0.0262789 0.612105
1.15827 0.012826 0.939575
1.20582 0.0219908 0.754246
1.0497 0.161552 0.691216
1.1393 0.0742276 0.941239
1.20445 0.017616 0.81851
1.19448 0.00184733 0.784102
1.18668 -0.00553549 0.813939
1.02355 0.0942445 0.97159
1.00486 -0.172277 0.897622
0.997363 -0.194304 0.784781
1.19312 -0.004827 0.849897
1.12708 -0.0743724 0.917549
1.156 -0.110172 0.775826
1.20922 0.00704535 0.809457
1.14026 -0.0945194 0.70501
1.20875 0.020928 0.785302
1.06387 0.147238 0.714344
1.16081 -0.0760834 0.869395
1.201 -0.00659485 0.805055
1.05857 0.18244 0.847009
1.19104 -0.056019 0.815162
1.15864 0.0896936 0.879688
1.12259 0.142735 0.748346
1.07436 -0.193811 0.826685
1.18188 -0.0536751 0.762707
0.987445 -0.0954938 0.978141
1.18333 0.0305638 0.841977
1.17018 0.0136746 0.730599
1.20347 0.0266119 0.756896
1.017 -0.198333 0.786798
1.12716 -0.0861275 0.673212
1.00071 0.0755436 0.994768
1.10818 -0.0789998 0.646577
1.06311 -0.183972 0.755879
1.15835 0.0918312 0.865335
1.0736 -0.163552 0.854066
1.15567 -0.0611422 0.903092
1.13235 -0.142305 0.730351
1.01703 0.189877 0.759812
1.03939 0.172235 0.702232
1.12569 -0.162752 0.80287
1.04459 -0.191369 0.791106
1.15972 -0.133315 0.810119
1.0894 -0.187613 0.799957
1.13155 0.00101011 0.638106
1.04674 -0.133402 0.945227
1.01021 -0.0127277 0.999018
1.16214 -0.0984397 0.75767
1.14121 0.138834 0.783774
1.02467 -0.0944153 0.61568
1.06103 -0.0554516 0.614485
1.07839 -0.100807 0.641877
1.22341 0.0135307 0.778804
1.20066 0.0569666 0.847441
1.19389 -0.00904324 0.748245
1.06623 0.0184434 0.995973
1.05294 0.188968 0.790273
1.19076 0.0410699 0.851884
0.991486 0.165772 0.947824
1.19132 -0.000948452 0.863589
1.18694 -0.0511951 0.788936
1.08009 0.0589182 0.637753
1.03266 -0.091366 0.973826
1.18567 -0.0539553 0.804149
0.99513 0.158351 0.657141
1.16404 -0.0919802 0.732116
1.17451 -0.00335694 0.683702
1.15367 -0.00573674 0.885907
1.14926 -0.089876 0.703839
1.14551 -0.0236115 0.918751
1.145 0.154349 0.795321
1.07861 -0.150733 0.920386
1.13876 -0.0921494 0.903387
1.14501 -0.130079 0.764443
1.12212 -0.0171899 0.682759
1.17481 -0.000161633 0.856979
1.19676 -0.00469174 0.803898
1.18861 0.00916634 0.804765
1.12533 -0.0609431 0.657052
1.09989 -0.13638 0.704279
1.07901 0.188275 0.810509
1.15563 0.0371351 0.707961
1.10494 0.133171 0.903434
1.15363 -0.106781 0.767782
1.17178 0.0641538 0.754831
1.01218 0.138889 0.670881
1.21814 -0.0336556 0.782935
1.14154 -0.120952 0.71299
1.05158 0.00426064 1.00573
1.04475 -0.207073 0.77704
1.1458 0.125744 0.832197
1.18553 -0.100352 0.765485
1.00807 0.203101 0.784099
1.17214 -0.00140951 0.917653
1.19351 0.0200984 0.789147
1.04366 0.151499 0.668708
1.00921 -0.204187 0.817225
1.01566 0.0704981 0.979658
1.16641 -0.107486 0.787307
1.1933 -0.0660422 0.81318
1.21399 0.0162828 0.78405
1.08536 -0.172918 0.848762
1.1457 0.147438 0.819084
1.20936 0.0295878 0.792724
1.19366 0.00867106 0.802511
1.21595 0.03153 0.822216
1.18637 0.0135843 0.825638
1.19467 0.0295587 0.796465
1.1006 0.172603 0.830369
1.08584 -0.191735 0.814878
1.10463 0.167149 0.693936
1.07989 0.145235 0.90642
1.05589 -0.0493317 0.591524
1.04334 0.166901 0.729955
1.20909 0.0228072 0.821593
1.0194 -0.0584841 0.603686
1.11514 0.0926079 0.922377
1.18474 0.0663604 0.833249
0.994631 -0.0782245 0.626914
1.18783 -0.0468655 0.859011
1.12722 0.163021 0.813635
1.1019 0.113059 0.923587
1.17968 -0.0691494 0.791474
1.18428 -0.0538762 0.834285
1.20662 0.0510142 0.829042
1.12292 -0.0336899 0.657385
1.02477 0.185369 0.758498
1.17569 0.00550599 0.876962
1.0998 0.0155522 0.617118
1.21473 0.0140573 0.818501
1.14838 -0.00690095 0.659018
1.20258 0.0296649 0.811451
1.19347 -0.000774434 0.779279
1.12841 0.147903 0.726657
1.21582 -0.00419321 0.808107
1.0796 -0.186614 0.8127
1.07963 0.0790154 0.935386
1.07557 0.156355 0.859525
1.01532 0.0912662 0.998001
1.1187 -0.158392 0.759387
1.20515 -0.00535274 0.781129
1.13065 -0.0125302 0.916206
1.0355 0.0972736 0.63287
1.02945 0.184744 0.781888
1.03147 -0.104832 0.655168
1.13593 0.148513 0.778534
1.16138 0.101801 0.715153
1.19341 -0.036902 0.818159
1.01095 -0.0323764 0.628663
1.12007 -0.0383939 0.937648
1.04028 -0.153533 0.899362
1.14381 0.117902 0.826511
1.15834 -0.0657898 0.91992
1.13107 0.0955739 0.894972
1.2019 -0.0110418 0.827471
1.19707 -0.0190795 0.789229
1.00624 0.148929 0.666797
1.16103 -0.0462759 0.700829
1.15567 0.0129651 0.916832
1.1783 -0.0127987 0.6957
1.05372 -0.192056 0.756457
1.1509 -0.127923 0.747982
1.18303 -0.0202922 0.901364
1.11434 0.118133 0.690117
1.06089 0.155308 0.702275
1.09818 0.0893687 0.946697
1.09624 -0.107235 0.939775
1.11914 0.149307 0.739502
1.14427 -0.115631 0.835865
1.11778 -0.0785198 0.675864
1.16743 0.0646153 0.748363
1.00281 0.164567 0.693223
1.13783 -0.117724 0.722578
1.15908 -0.11904 0.747046
1.02999 -0.194693 0.753007
1.08366 -0.0410244 0.623011
1.10306 -0.0827273 0.918843
1.04694 -0.160439 0.719045
1.08599 0.162412 0.716742
1.15195 -0.0182925 0.902637
1.04918 -0.156629 0.919699
1.16507 -0.0063072 0.917855
1.10198 -0.0433802 0.624572
1.03503 0.144897 0.647845
1.16312 -0.00921967 0.920571
1.08204 -0.026091 0.978823
1.16099 0.11197 0.853625
1.15085 -0.124054 0.7713
1.18099 -0.0614338 0.788191
1.19061 0.0217102 0.768018
1.07521 -0.0138357 0.989554
1.05056 0.201201 0.826665
1.04968 -0.0863764 0.632915
1.19611 -0.0216238 0.849904
1.1574 0.120429 0.834892
1.18743 0.00951381 0.77066
1.09934 -0.1651 0.879849
1.16763 0.0544046 0.867599
1.08704 -0.0997538 0.937548
1.00874 -0.175797 0.888213
1.01913 0.191235 0.851297
1.07411 -0.185554 0.735407
1.09429 -0.136712 0.902866
1.17278 -0.0312649 0.68635
1.19105 0.0535159 0.837416
1.13715 -0.111908 0.793737
1.03032 0.199946 0.799768
1.07481 0.109247 0.64145
1.1444 -0.131758 0.827796
1.03902 -0.055741 0.617832
1.08189 -0.137697 0.923567
1.01662 0.0991699 0.967563
1.12005 -0.118927 0.682614
1.13379 0.0329657 0.656102
1.02536 -0.137786 0.946516
1.09832 -0.114042 0.692557
1.13191 0.0689935 0.931907
1.18239 0.0207994 0.857798
1.19127 -0.0158779 0.779321
1.04604 0.101312 0.937981
1.04041 0.199746 0.817731
1.19746 -0.0711024 0.838469
1.16529 0.100479 0.726798
1.07207 0.158595 0.878962
1.17972 -0.0193641 0.748249
1.15464 0.127833 0.827721
1.09573 -0.012774 0.975629
1.05631 -0.0939179 0.962895
1.16977 -0.0689853 0.718779
1.05539 -0.124402 0.646307
1.07016 -0.181842 0.853398
1.18523 0.0080927 0.732281
1.04331 0.180491 0.820024
1.18543 -0.0450769 0.873551
1.08607 -0.146732 0.92136
1.0893 -0.0523895 0.64491
1.08596 -0.175967 0.881546
1.0179 0.113007 0.959346
1.19062 0.00905359 0.787609
1.00203 -0.0495938 1.00694
1.19903 0.0147291 0.856297
1.19192 0.041909 0.834669
1.05752 0.171504 0.743023
1.09613 -0.102415 0.670269
1.17991 0.0332467 0.696324
1.20307 0.0788057 0.759293
1.03804 0.192433 0.815519
1.15333 0.131757 0.787414
1.16521 0.0657876 0.804949
1.15581 -0.107783 0.734059
1.09222 -0.176323 0.794042
1.04146 0.038923 0.601972
1.18309 0.0423732 0.839489
1.15104 -0.140018 0.827894
1.08723 0.0168638 0.610992
1.1785 0.0291231 0.726166
1.0719 0.0495407 0.982831
1.18305 0.11027 0.77042
1.10609 0.0451013 0.960123
1.03711 0.206322 0.768619
1.0703 -0.191333 0.81666
0.99667 -0.151457 0.668544
1.17686 -0.0512195 0.787831
1.19188 0.0248935 0.770859
1.01408 -0.12465 0.946917
1.13332 -0.120507 0.722137
1.06314 0.0322134 0.979761
1.07604 -0.0488796 0.986562
1.18299 -0.0147371 0.736431
1.20739 0.0380339 0.753897
1.16649 -0.0701619 0.720141
1.05819 0.200844 0.83478
1.19006 0.0346982 0.768684
1.20448 -0.00977368 0.790693
1.13334 0.0400139 0.644438
1.0007 -0.209841 0.839444
1.18589 -0.0100543 0.727264
1.20666 0.020891 0.800445
1.06579 0.00418341 0.609107
1.17425 0.0770618 0.776493
1.11176 -0.147088 0.799201
1.09856 0.167922 0.850831
1.04586 0.191495 0.836017
1.11003 -0.0552559 0.631209
1.13304 0.136792 0.732408
1.08589 0.145381 0.723433
1.2017 -0.0115914 0.80313
1.12468 -0.038175 0.668816
1.07472 0.154972 0.678819
1.2087 -0.0127703 0.795133
1.13994 -0.118698 0.764038
1.18257 -0.0956189 0.766773
1.20542 0.0152277 0.784852
1.01843 -0.0875972 0.637641
1.03058 0.11787 0.656463
1.17032 -0.107814 0.816169
0.993028 0.122392 0.965034
1.19743 -0.0468851 0.756156
1.03369 0.180317 0.877561
1.19068 -0.07909 0.851893
1.0704 0.187164 0.874725
1.07974 -0.00478734 0.991856
1.05533 0.123023 0.961528
1.21378 0.00057844 0.808231
1.06052 -0.0757549 0.966564
1.11947 -0.0538954 0.950193
1.17701 -0.0895509 0.863433
1.20629 -0.0219379 0.809559
1.05353 -0.182621 0.799229
1.13015 0.15542 0.75087
1.14515 0.0359517 0.652111
1.18693 -0.0300931 0.720397
1.16389 -0.0317483 0.686499
1.00965 -0.20528 0.792618
1.17253 0.109001 0.815345
1.13449 0.104013 0.885472
1.13116 -0.164376 0.870184
1.13844 -0.109509 0.713484
1.18818 0.0452343 0.746799
1.13208 -0.104523 0.908803
1.17818 0.0431919 0.705449
1.20403 0.0114154 0.813369
1.17075 -0.0341085 0.729045
1.02242 -0.151226 0.667236
1.11935 0.155022 0.888426
1.13462 -0.127589 0.781037
1.15401 -0.0905444 0.905206
1.20715 -0.0221043 0.767584
1.02355 -0.0478574 0.607545
1.03759 -0.152007 0.685236
1.16625 0.0829595 0.737426
1.13927 0.140641 0.840182
1.17959 -0.114845 0.818809
1.12366 -0.0495695 0.63462
1.11926 0.163162 0.720588
1.19668 0.0301351 0.810071
1.09924 0.189652 0.806962
1.15146 0.126976 0.811576
1.20154 -0.0286791 0.776544
1.11831 0.151492 0.790883
1.12807 0.0952576 0.929221
0.994152 0.0200173 0.59882
1.1507 -0.117763 0.81585
1.10201 -0.0972963 0.649164
1.19804 0.0725692 0.798277
1.20026 0.0183734 0.728504
1.12959 0.0687455 0.920617
1.12423 0.13596 0.732741
1.14249 -0.138693 0.872628
1.03444 -0.205074 0.764377
1.08928 0.0466575 0.627795
1.05019 -0.0662596 0.978789
1.1652 0.0923351 0.883589
1.10632 -0.187494 0.820014
1.10001 -0.130032 0.70708
1.17361 -0.0958983 0.785859
1.15131 0.111802 0.874214
1.20053 0.0542721 0.834402
1.15344 0.0958071 0.902305
1.15516 -0.0522074 0.697188
1.13363 0.0589636 0.925918
1.13242 0.147357 0.709806
1.15719 0.0317296 0.673644
1.08728 0.0197104 0.626327
1.16637 -0.0536848 0.731244
1.11552 -0.152662 0.763359
1.14416 -0.112171 0.780301
1.14342 -0.077628 0.902629
1.08345 -0.122584 0.924464
1.14597 0.100278 0.883682
1.1973 0.0783009 0.807108
1.01742 -0.102075 0.966415
1.18546 -0.0676838 0.804422
1.14087 -0.0744486 0.704198
1.15921 0.0176898 0.912303
1.04797 0.134342 0.642193
1.03617 -0.0574278 0.977889
1.03093 0.0875555 0.963595
1.19191 -0.0348693 0.782206
1.07769 0.111278 0.963705
1.05963 -0.0877701 0.976556
1.07348 -0.147662 0.718112
1.17105 0.0637409 0.72959
1.1508 0.0927045 0.837896
1.11029 -0.086392 0.649297
1.17422 -0.0768829 0.820438
1.14329 -0.0925951 0.676937
1.03254 -0.0535763 0.976783
1.02913 0.101067 0.6207
1.15805 0.112147 0.802641
1.20399 0.00469333 0.795419
1.19875 0.021705 0.762507
1.05498 -0.126913 0.928211
1.18793 0.0203969 0.799212
1.20536 -0.00535705 0.799583
1.05379 -0.0384244 0.983668
1.06596 0.0828691 0.618274
1.01244 -0.189966 0.830747
1.07848 -0.187441 0.760373
1.06801 -0.186072 0.854743
1.05062 0.0188465 0.611286
1.19264 -0.0150577 0.800636
1.19171 -0.0355674 0.776252
1.16034 -0.0384755 0.888853
1.19407 -0.0528848 0.794435
1.17002 0.0496496 0.688202
1.0762 -0.0144307 1.00165
1.1293 0.0749919 0.680953
1.00994 0.137637 0.649843
1.02642 0.13579 0.922157
1.17965 -0.0168272 0.80848
1.1019 -0.12957 0.699695
1.10553 -0.00392349 0.628672
1.15215 -0.0408012 0.925414
1.1031 0.127361 0.657518
1.12722 -0.14958 0.866014
1.19991 -0.00781391 0.816018
1.13509 0.112713 0.7281
1.1522 -0.11555 0.768178
1.13483 -0.0281519 0.646946
1.12471 -0.12382 0.731898
1.08026 -0.073039 0.962217
1.20293 0.00943872 0.80595
1.04553 -0.123699 0.684474
1.14755 0.0471045 0.669533
1.1972 -0.0111084 0.822672
1.17592 -0.0248594 0.85525
1.13433 0.109499 0.690273
1.19616 0.000845122 0.81667
1.03415 -0.103095 0.636024
1.19401 -0.0340247 0.718702
1.17979 0.0126487 0.850182
1.14051 0.150401 0.745313
1.14634 0.128042 0.875503
1.07534 -0.111854 0.644439
1.0552 -0.154773 0.679214
1.04563 0.14594 0.681028
1.08721 0.165293 0.887715
1.17452 -0.090273 0.760756
1.15319 -0.13153 0.826135
1.15759 -0.0645837 0.919822
1.15603 -0.13901 0.751175
1.15464 -0.0990958 0.892926
1.12514 0.0319891 0.959742
1.10035 0.182896 0.749229
1.11744 0.147747 0.863506
1.2023 -0.0467247 0.826036
1.16114 0.109892 0.781575
1.12845 -0.0614254 0.973126
1.00679 0.131269 0.953659
1.11887 0.0537052 0.950508
1.19069 0.0614751 0.826588
1.18142 -0.0114042 0.719997
1.1839 0.0196665 0.829341
1.12179 0.103116 0.927062
1.19141 0.0180033 0.737802
1.12527 -0.146946 0.71673
1.0538 -0.14582 0.928248
1.05331 -0.153842 0.687239
1.16088 -0.0968521 0.726917
1.14205 0.112944 0.698405
1.19461 -0.00438038 0.739136
1.18327 0.0222687 0.763308
1.1643 0.0520163 0.70927
1.19051 0.0248476 0.757752
1.1929 0.0655441 0.824911
1.03565 0.151656 0.670983
0.99491 0.136922 0.955046
1.18148 0.0483392 0.839653
1.08199 0.177577 0.776487
1.0774 0.00454744 0.596129
1.15972 0.0793699 0.90517
1.20796 0.00896108 0.791077
0.989285 -0.0990656 0.979297
1.14235 0.0152826 0.664736
1.22213 -0.000667751 0.815796
1.09097 0.0269393 0.963751
1.15293 -0.0795729 0.933909
1.14776 0.150185 0.731793
1.14846 0.0222228 0.926285
1.02216 0.13831 0.925884
1.16715 -0.0360158 0.730194
1.10296 0.165267 0.734003
1.19876 0.029498 0.807362
1.07953 -0.0240996 0.982854
1.13122 0.081855 0.677512
1.06421 -0.123567 0.667296
1.07791 0.129558 0.928971
1.01083 0.16358 0.682294
1.13015 0.0346995 0.63899
0.999915 -0.183427 0.899876
1.19798 0.0590394 0.775715
1.11647 -0.148384 0.746126
1.10546 0.00924054 0.976938
1.04487 -0.184643 0.747044
1.12516 -0.110149 0.74049
1.13528 0.0754607 0.925474
1.18867 0.0353061 0.829155
1.12807 -0.0327474 0.941927
1.12368 0.0218776 0.647176
1.02457 0.153212 0.946705
1.00137 0.179825 0.874765
1.15175 -0.0258044 0.661466
1.14832 0.0526436 0.726841
1.15156 0.0603311 0.723378
1.1671 -0.0736716 0.71205
1.17684 0.00942308 0.786669
1.15069 0.0818448 0.678552
1.19063 -0.00351839 0.810773
1.04218 -0.186531 0.790947
1.04871 0.00841079 0.606848
1.13676 -0.141596 0.77186
1.19383 -0.00390581 0.744965
1.17876 0.0584383 0.89532
0.992154 -0.129698 0.652164
1.11985 0.115054 0.671996
1.18977 0.0730981 0.809523
1.17974 0.00362625 0.719007
1.19918 -0.0127317 0.809348
1.04561 -0.134512 0.909836
1.15225 0.112314 0.83572
1.08033 0.189683 0.762039
1.14757 -0.0999822 0.695534
1.15826 0.0633218 0.757471
1.16722 -0.0369808 0.858567
1.18614 -0.062803 0.727944
1.05646 0.0914415 0.620769
1.12178 4.61971e-05 0.978077
1.02632 -0.122692 0.941942
1.1169 -0.133085 0.71019
1.22054 0.028009 0.760263
0.990928 -0.177296 0.916249
1.16209 0.00320534 0.675876
1.17361 -0.0656351 0.837172
1.07926 -0.179074 0.831238
1.1144 0.0898631 0.942729
1.05006 -0.0354345 0.605701
1.1448 0.0775536 0.945199
0.995196 0.0359554 0.620403
1.18764 -0.00653647 0.80814
1.08602 0.0949112 0.953937
1.04102 0.13368 0.661628
1.17263 -0.089654 0.819763
1.1657 -0.0748516 0.864696
1.19393 0.000276841 0.79701
1.07036 -0.122361 0.664759
1.18667 -0.0229273 0.828289
1.01412 -0.0519085 0.61108
1.21287 -0.00788602 0.760833
1.13695 0.161674 0.798338
1.06793 -0.0901353 0.991139
1.01556 -0.132116 0.940928
1.13194 -0.136502 0.744754
1.18642 -0.0201483 0.879703
1.09937 -0.171241 0.857691
1.11237 0.0153463 0.969545
1.1959 -0.0255598 0.783437
1.01582 -0.192872 0.855278
1.15654 -0.0339283 0.939304
1.11674 0.138242 0.891396
1.1926 -0.0908487 0.798892
1.21255 -0.0399718 0.793598
1.17706 -0.052722 0.778845
1.12184 0.11864 0.723735
1.13601 -0.052848 0.93197
1.20707 -0.00643143 0.767853
1.20438 -0.03267 0.839087
1.20312 0.00497079 0.7458
1.18148 -0.0438222 0.752818
1.13008 -0.131445 0.685664
1.11163 0.165749 0.864384
1.07836 -0.152425 0.868163
1.18019 0.0166769 0.801605
1.10683 0.101751 0.93967
1.20134 -0.00415883 0.813543
1.08027 -0.0989167 0.650986
1.19791 -0.0582206 0.829621
1.16556 0.0462309 0.744251
1.19018 -0.0276848 0.733215
1.17846 -0.0836808 0.75458
1.03018 0.0428223 0.603465
1.15708 -0.06319 0.74069
1.03862 0.180679 0.805763
1.17266 -0.00945413 0.672924
1.18035 0.0214641 0.713439
1.17671 -0.0141926 0.679205
1.16142 -0.104823 0.743711
1.07274 -0.0348963 0.965126
1.1914 0.0100415 0.795023
1.20188 0.00616483 0.826483
1.04447 -0.190107 0.802529
1.01518 0.025695 0.60843
1.10992 0.1479 0.845854
1.16279 -0.119408 0.820923
1.13392 0.0139075 0.647789
1.20534 0.0420619 0.802671
1.20679 0.0169665 0.795921
1.12815 0.0236058 0.674191
1.13128 -0.0285978 0.964928
1.13116 0.145876 0.849107
1.02036 -0.0878802 0.629656
1.1019 -0.0807461 0.958979
1.1656 0.0752575 0.692909
1.17931 -0.0110792 0.755495
1.15631 -0.0336193 0.659563
1.03757 -0.0258894 0.993003
1.00864 -0.0793747 0.612237
1.18679 0.0462195 0.807962
1.03815 0.198734 0.805103
1.10571 0.0269242 0.941854
1.00224 -0.143914 0.940638
1.19713 -0.0400223 0.850666
1.14673 0.0045875 0.655535
1.16842 -0.0813786 0.77079
1.16716 -0.0314212 0.680228
1.20743 -0.00713053 0.79469
1.18878 0.0223387 0.78724
1.17659 -0.0686298 0.8582
1.04977 0.147819 0.684205
1.08414 -0.166109 0.729242
1.15735 -0.10779 0.80939
1.10319 -0.0328888 0.974651
1.07749 -0.171376 0.846451
1.20817 -0.0111536 0.8018
1.08205 0.0648477 0.959274
1.17722 -0.00454399 0.885318
1.01973 0.159768 0.680843
1.15757 0.131784 0.857653
1.12677 -0.0973662 0.670278
1.01803 -0.208944 0.777152
1.02196 0.0508809 0.613624
1.06216 -0.106728 0.958317
1.04481 0.109663 0.638218
1.17159 -0.0278001 0.83241
1.15425 -0.0874781 0.798972
1.19722 0.0439943 0.798918
1.05587 0.00140824 0.614109
1.10358 -0.150981 0.921895
1.19876 -0.00409777 0.764076
1.18629 -0.0665598 0.818348
1.13383 -0.0929592 0.697342
1.03053 -0.151696 0.898571
1.10505 0.157601 0.760593
1.03007 0.136468 0.655281
1.07094 0.188231 0.756319
1.17457 0.0916817 0.739876
0.995733 -0.203238 0.785672
1.03829 -0.0732884 0.983096
1.18788 -0.0573824 0.716127
0.998384 -0.204809 0.788869
1.01851 -0.188431 0.735894
1.10914 0.135415 0.76537
1.14345 -0.0495861 0.643294
1.11516 -0.100797 0.923078
1.02139 0.201868 0.845796
1.12216 0.156275 0.815164
1.15936 0.0942065 0.745542
1.17549 0.0136072 0.878064
1.18715 -0.0641802 0.788689
1.07969 -0.100474 0.949285
1.08455 -0.186216 0.749552
1.18257 -0.0340412 0.879929
1.04642 0.150686 0.915476
1.12407 -0.112104 0.688959
1.2065 0.0250101 0.818934
1.11508 -0.114479 0.854942
1.18332 -0.0799472 0.792765
1.17671 0.079289 0.843301
1.10571 0.177771 0.824745
1.04217 0.147933 0.676837
1.03939 0.021731 0.608487
1.00811 0.111092 0.630828
1.03424 0.00893197 0.609803
1.18128 0.0512955 0.847206
1.02398 0.176783 0.863998
1.11035 -0.0336067 0.975405
1.03847 -0.0230423 0.996605
1.21161 0.00250738 0.81969
1.17663 -0.0383434 0.686579
1.02774 0.0206105 0.986302
1.10408 0.0135661 0.963177
1.16624 0.0273783 0.659648
1.09173 0.0644808 0.637612
1.1869 0.0459262 0.849689
1.18816 0.0128276 0.785192
1.09616 0.0910888 0.945241
1.19604 0.0443488 0.767915
1.19735 0.038231 0.849419
1.02409 -0.150996 0.700837
1.1069 -0.141857 0.698318
1.07339 0.0250396 0.61339
1.07459 -0.168257 0.858756
1.16001 -0.0783119 0.832524
1.1815 0.0120559 0.661789
1.12422 0.122796 0.674452
1.15054 -0.112541 0.761213
1.19198 -0.0214655 0.792033
1.19809 -0.00966931 0.846346
1.162 -0.0735601 0.890375
1.21942 0.00301722 0.81072
1.18695 0.0054293 0.734271
1.07936 0.0413368 0.619924
1.14725 -0.111361 0.761331
1.10932 -0.0613612 0.947167
1.14239 -0.102188 0.855142
1.17905 0.031206 0.843807
1.14926 -0.132866 0.731464
1.16074 0.12734 0.820332
1.11785 0.0228726 0.649495
1.13995 0.145737 0.868623
1.15125 -0.0285385 0.902898
1.17484 0.100912 0.801333
1.15556 -0.103469 0.733969
1.14725 0.11802 0.735442
1.18053 0.0408205 0.745675
1.00305 0.185472 0.782872
1.05406 -0.0655557 0.621071
1.12172 -0.0727499 0.625139
1.14048 0.0461929 0.903641
1.16595 0.0812391 0.727343
1.19156 -0.00402076 0.764957
1.0541 0.188546 0.804051
1.10525 0.116338 0.668817
1.1924 0.0311836 0.857029
1.15105 0.133257 0.813104
1.01999 -0.197897 0.740369
1.18152 0.0207726 0.812638
1.1742 -0.0534076 0.755411
1.13376 0.1238 0.67599
1.10184 0.0907336 0.926307
1.19539 -0.022594 0.74351
1.0414 -0.177565 0.724715
1.16438 0.0280809 0.679937
1.08773 0.105354 0.940715
1.19142 0.0235895 0.756649
1.18334 -0.0493732 0.817381
1.0556 -0.0901249 0.638296
1.20749 0.0129218 0.773632
1.19038 0.0105221 0.797822
1.04423 -0.102111 0.617456
1.06012 -0.117729 0.928749
1.1966 0.0504164 0.790302
1.08381 -0.142281 0.930514
1.19335 0.0543117 0.80381
1.11978 0.131892 0.894068
1.16145 -0.00204208 0.658952
1.03436 0.181846 0.857506
1.12058 0.0522928 0.64565
1.13509 -0.14141 0.90563
1.07354 -0.0322032 0.984489
1.05012 -0.175874 0.703155
1.02629 0.0617353 0.981465
1.11093 0.114857 0.669951
1.04723 0.18879 0.778085
1.13788 0.119943 0.738498
1.06083 -0.173382 0.766814
1.13935 0.11632 0.743208
1.17452 0.0151013 0.675564
1.17505 -0.0736882 0.704178
1.18361 0.00872565 0.877488
1.10695 -0.132272 0.697106
1.21215 0.0379195 0.823454
1.14297 -0.0856566 0.901165
1.19885 0.0388151 0.789602
1.17025 -0.0848393 0.868651
1.01456 0.195019 0.831866
1.17371 0.0964529 0.870215
1.07779 -0.144011 0.910929
1.18825 -0.0149091 0.768538
1.20033 -0.0109391 0.876051
1.20814 0.0526552 0.753746
1.19568 -0.0723172 0.891553
1.08689 0.00694124 0.989701
1.15211 -0.0171505 0.667654
1.15299 0.0127223 0.930855
1.19301 -0.0271042 0.809555
1.19993 -0.0647938 0.843511
1.0448 -0.194266 0.863458
1.1727 -0.0334386 0.842684
1.04394 -0.0692358 0.978325
1.02093 -0.13599 0.661175
1.13084 0.00959045 0.949057
1.18503 0.00526808 0.827747
1.15148 -0.100426 0.723702
1.1999 0.00999226 0.8235
1.17649 -0.0129446 0.90467
1.04028 -0.0118232 0.591555
1.01723 0.0629779 0.612122
1.01255 0.128641 0.94558
1.20181 0.000764575 0.817513
1.14646 0.0311098 0.691574
1.15771 0.0847076 0.69938
1.18152 0.035988 0.711427
1.19114 0.00806886 0.804527
1.14539 -0.102623 0.708489
1.16943 -0.113332 0.894302
1.19765 0.00614408 0.802558
1.00508 0.193398 0.808813
1.00962 -0.189055 0.738369
0.995405 0.0958155 0.631181
1.08192 0.15012 0.909695
1.14293 0.0943979 0.850949
1.20563 -0.020284 0.787037
1.05052 -0.16321 0.729655
1.0838 0.0329047 0.97741
1.16218 0.00280792 0.927448
1.07036 -0.0441785 0.614707
1.03909 -0.174285 0.716233
1.16317 0.0841609 0.7941
1.20382 0.0026675 0.805269
1.16427 0.00624412 0.883066
1.20317 0.0342658 0.841537
1.17117 0.0243218 0.684404
1.11327 0.134307 0.862352
1.12252 0.159738 0.770299
1.20582 0.00843214 0.775479
1.15717 0.152733 0.763233
1.03954 0.169207 0.880762
1.20329 0.0292046 0.777048
1.04903 0.0534285 0.989554
1.01868 0.17517 0.912959
1.0255 0.12072 0.969779
1.08748 -0.0461749 0.972992
1.04007 -0.0137759 0.590121
1.15107 0.0428185 0.666463
1.14038 0.0285841 0.638536
1.18806 0.0531189 0.86185
1.06998 0.156076 0.895349
1.12852 0.0489765 0.662325
1.04553 -0.121446 0.944703
1.05591 -0.115141 0.948642
1.08245 -0.148631 0.702501
1.01595 0.0660918 0.974489
1.19498 0.00258734 0.757478
1.20119 0.0205589 0.792606
1.17736 -0.0749612 0.750767
1.10122 -0.158228 0.77485
1.06255 0.172637 0.71798
1.17334 0.025643 0.857499
1.10115 -0.151297 0.85766
1.18337 -0.0123535 0.682319
1.15851 0.137275 0.796961
1.06695 0.0500429 0.989091
1.1731 0.0854265 0.742376
1.08894 -0.178998 0.765267
1.07594 -0.0627297 0.975885
1.03863 -0.161084 0.738623
1.08211 -0.0303364 0.978847
1.04405 0.143237 0.930169
1.16503 0.0542485 0.732154
1.08445 0.176432 0.713991
1.18516 0.0237217 0.729103
