ply
format ascii 1.0
comment Created by Open3D
element vertex 1000
property double x
property double y
property double z
end_header
0.582022 -0.165817 0.715188
0.512271 -0.0470774 0.791544
0.504073 -0.0185486 0.754914
0.526025 -0.0823872 0.894349
0.48636 0.0283329 0.880469
0.508745 -0.00845758 0.879776
0.676227 0.191451 0.832697
0.630216 -0.199486 0.730348
0.53648 0.136619 0.755173
0.514116 -0.0624829 0.885038
0.652318 0.187938 0.82371
0.580074 -0.160336 0.865718
0.660189 -0.186471 0.755785
0.497496 0.0716909 0.87401
0.508167 -0.0245521 0.879138
0.538033 -0.111338 0.781119
0.644306 0.193899 0.718905
0.623446 0.195791 0.798198
0.65993 -0.199639 0.858997
0.555899 0.141274 0.727723
0.669307 0.181207 0.744712
0.513216 0.0385949 0.775054
0.513736 0.0995998 0.78291
0.630391 -0.174429 0.730836
0.687372 -0.196055 0.695098
0.521559 0.0482842 0.778409
0.516807 -0.0279011 0.752558
0.594913 0.158924 0.806535
0.580738 0.165984 0.710977
0.545368 0.162472 0.887916
0.566189 -0.152962 0.833514
0.662248 0.192108 0.743617
0.663497 -0.214282 0.755908
0.634933 0.192008 0.826689
0.558161 0.149188 0.824717
0.66599 -0.183428 0.856363
0.521975 0.105115 0.833779
0.582187 -0.156487 0.810906
0.568728 0.154796 0.761988
0.611317 0.193793 0.82542
0.508687 -0.0612122 0.761644
0.539809 -0.126826 0.709586
0.550633 -0.123769 0.707601
0.56804 -0.167851 0.779735
0.521781 0.00940135 0.842629
0.580333 0.152474 0.778057
0.64149 0.1924 0.789134
0.615691 -0.18925 0.840928
0.677952 -0.195179 0.707292
0.670849 -0.192763 0.803505
0.568465 -0.156344 0.725707
0.623021 0.182827 0.803997
0.506646 -0.0623419 0.772844
0.550076 0.141319 0.721416
0.502888 -0.00816923 0.811074
0.538628 -0.118416 0.797047
0.569705 0.146619 0.812794
0.671231 -0.18494 0.862262
0.573694 0.156581 0.709646
0.505333 -0.0567816 0.858166
0.535962 -0.126749 0.847427
0.588416 -0.179846 0.770293
0.65259 -0.195482 0.850188
0.57794 0.170501 0.716541
0.676675 0.198275 0.728772
0.683905 -0.221323 0.900537
0.513938 0.0277243 0.83398
0.561678 -0.0988266 0.868013
0.596093 0.179027 0.86284
0.650335 0.204305 0.86931
0.61412 0.175789 0.724491
0.589514 0.175977 0.767869
0.552145 0.1308 0.714382
0.547018 0.125862 0.783106
0.596331 -0.169251 0.852666
0.50489 -0.0364354 0.821138
0.496525 0.0311431 0.741233
0.518734 0.0636724 0.726117
0.699311 -0.208455 0.712424
0.496287 -0.0241533 0.794362
0.519023 0.0345955 0.777598
0.517942 0.0818766 0.881419
0.515072 0.0382883 0.826982
0.563047 -0.139744 0.806113
0.53137 0.0879091 0.805614
0.632358 -0.193398 0.814805
0.515994 0.0565892 0.899013
0.497421 -0.0399773 0.776341
0.515642 -0.0465749 0.877671
0.538786 -0.112863 0.796704
0.690252 -0.2024 0.729505
0.668724 -0.199358 0.745847
0.503327 -0.00429305 0.834353
0.568816 0.152601 0.876039
0.531969 0.0778282 0.839023
0.57952 0.146077 0.912942
0.618779 -0.202611 0.730791
0.630548 -0.192164 0.80468
0.517045 -0.0840945 0.759436
0.654294 0.197205 0.707309
0.514946 0.0942542 0.81244
0.522195 0.0445164 0.779336
0.58155 -0.152717 0.776325
0.507106 0.0543174 0.734946
0.659007 0.193625 0.8938
0.520164 -0.0674401 0.8376
0.676298 0.19399 0.840971
0.541084 -0.123437 0.703437
0.500146 -0.0452934 0.708279
0.496012 0.00319585 0.898973
0.526444 -0.0910296 0.843014
0.566636 0.147813 0.767053
0.54501 -0.1147 0.8956
0.63675 0.214244 0.864183
0.486759 -0.0305966 0.830531
0.499129 0.00371171 0.720724
0.528004 0.0578793 0.787936
0.621566 -0.188979 0.704965
0.523015 0.0444516 0.744483
0.49962 -0.0295854 0.823004
0.520701 0.0675856 0.902412
0.574203 -0.129859 0.747619
0.564852 -0.148041 0.754642
0.555176 0.170045 0.837217
0.537686 -0.0901241 0.802034
0.493604 0.0148999 0.735157
0.514115 -0.0671723 0.842027
0.501753 -0.0162388 0.7517
0.604304 0.200309 0.775201
0.57151 -0.14855 0.823475
0.579045 0.151985 0.787717
0.683756 0.202614 0.875274
0.500448 -0.0804534 0.747809
0.587416 0.184693 0.904052
0.543165 -0.125679 0.884674
0.602126 0.153357 0.766859
0.678561 0.207842 0.767853
0.556659 -0.134318 0.814963
0.514599 -0.111483 0.714925
0.654277 0.198028 0.752709
0.556331 -0.133761 0.721588
0.549811 -0.141264 0.768629
0.677829 0.189177 0.855856
0.53207 0.112235 0.820082
0.519929 -0.0414332 0.704741
0.51748 0.0677516 0.877851
0.662713 -0.204234 0.891726
0.496392 -0.05591 0.847247
0.504316 0.0646818 0.884915
0.671441 -0.192966 0.766443
0.51886 0.102289 0.829104
0.559689 0.135303 0.715224
0.593339 0.155587 0.708254
0.508122 0.00911001 0.838667
0.540729 -0.110881 0.742336
0.580759 -0.157175 0.81806
0.506884 0.0537413 0.810458
0.498249 -0.00341326 0.741339
0.552227 0.149033 0.715576
0.494861 0.0826025 0.779517
0.522758 0.0840904 0.881455
0.602462 -0.175513 0.87022
0.594478 -0.159004 0.828389
0.497917 0.0424929 0.759354
0.507856 -0.0245994 0.708369
0.505815 -0.0498845 0.710527
0.536499 -0.0813519 0.920365
0.623919 0.187041 0.735106
0.632078 -0.197134 0.874247
0.669915 0.205845 0.88448
0.540655 0.0911115 0.772538
0.583937 0.159355 0.716141
0.576207 -0.165508 0.88553
0.565122 0.155571 0.827008
0.495455 0.000712678 0.699839
0.544147 -0.121984 0.757273
0.588795 0.157127 0.792034
0.561015 -0.134776 0.772713
0.657945 -0.1978 0.818572
0.653483 0.18161 0.724593
0.500049 -0.0763303 0.794448
0.579688 -0.155294 0.693282
0.554534 0.139196 0.702606
0.702956 0.190487 0.753772
0.688323 0.190282 0.902926
0.511402 0.0218147 0.720496
0.504539 0.00948847 0.728721
0.534055 0.112462 0.814508
0.505442 0.0431248 0.727137
0.627235 -0.176915 0.787123
0.67297 -0.195689 0.842009
0.514183 -0.0861322 0.822868
0.50713 0.107827 0.722219
0.529241 -0.0930643 0.717123
0.614006 0.182867 0.881009
0.517104 0.0475829 0.80484
0.626083 -0.189362 0.892569
0.690552 -0.214922 0.808779
0.504967 0.0301493 0.739765
0.530474 -0.0845816 0.881619
0.498257 -0.0811903 0.746106
0.703524 -0.208694 0.902911
0.626854 -0.183974 0.77217
0.495035 0.0521713 0.809203
0.593937 -0.173031 0.721916
0.508111 -0.0274674 0.735256
0.568416 0.15004 0.847887
0.64731 -0.179238 0.763726
0.606006 -0.181222 0.755365
0.536898 0.119262 0.792033
0.522957 -0.0971265 0.757215
0.652555 -0.17829 0.801172
0.577925 -0.18104 0.867136
0.515855 0.0655845 0.841872
0.636196 -0.194817 0.782383
0.666328 0.188305 0.71044
0.673204 0.191753 0.692262
0.624476 0.185901 0.779562
0.57258 -0.173069 0.875881
0.501793 -0.0484102 0.75762
0.542395 0.111647 0.74237
0.52954 -0.125382 0.767521
0.536798 -0.112215 0.826087
0.704745 0.190925 0.783122
0.49297 -0.017362 0.809878
0.508111 -0.0181307 0.797936
0.514527 -0.043014 0.891064
0.589004 0.161232 0.713837
0.550062 -0.159244 0.864845
0.564226 0.155568 0.765226
0.697107 -0.215124 0.723912
0.54638 0.0874545 0.760376
0.537084 -0.098815 0.711079
0.656233 0.175782 0.866959
0.506009 0.0147577 0.761593
0.50208 0.0292856 0.702743
0.504139 -0.0328601 0.824322
0.692079 0.21476 0.804151
0.520784 -0.0591405 0.839448
0.502756 -0.0681426 0.789343
0.623796 -0.178432 0.711252
0.653612 -0.193373 0.872845
0.502899 -0.0295441 0.760755
0.50241 -0.0371704 0.804127
0.602233 0.143653 0.852116
0.518662 -0.00689193 0.772144
0.485884 0.020686 0.705075
0.493975 -0.0165134 0.834248
0.612711 -0.175494 0.732783
0.516559 0.0784181 0.82264
0.617307 -0.164858 0.797756
0.498984 0.0684378 0.8601
0.622383 0.174686 0.841979
0.517722 -0.0503214 0.76809
0.530614 0.113353 0.727372
0.531119 0.11012 0.88062
0.509585 0.0902837 0.869701
0.56739 0.160387 0.900796
0.515878 0.0568227 0.845268
0.537033 0.114245 0.776944
0.684502 -0.186931 0.823653
0.674289 0.204785 0.842377
0.585891 0.153589 0.847295
0.540268 -0.13262 0.8862
0.497603 -0.0299723 0.844672
0.510177 0.0648851 0.878956
0.488563 0.0015768 0.708375
0.516901 -0.0142532 0.779607
0.522487 -0.0998602 0.756394
0.513384 -0.0542034 0.823738
0.633286 -0.179779 0.881474
0.658328 0.202261 0.886355
0.643431 -0.193809 0.876383
0.541403 -0.135516 0.788359
0.577619 0.144389 0.852104
0.48537 0.0294833 0.865061
0.66174 -0.198789 0.858206
0.596632 -0.180949 0.789373
0.683988 0.179632 0.796558
0.509708 0.0745092 0.813474
0.520094 0.112084 0.796253
0.622838 -0.201635 0.685194
0.619316 -0.202507 0.811014
0.678431 -0.171546 0.766395
0.497072 0.0267515 0.836869
0.54883 0.125812 0.863933
0.483347 -0.00731935 0.8189
0.677376 -0.197829 0.795997
0.627311 -0.191373 0.734912
0.608969 -0.163561 0.863847
0.526879 0.0747862 0.72205
0.607372 0.15559 0.872199
0.581958 -0.130813 0.722357
0.696594 0.203513 0.853184
0.513287 0.0755503 0.883108
0.622296 -0.200594 0.844455
0.536604 -0.132196 0.767767
0.520295 -0.0816505 0.784042
0.65797 0.208261 0.768563
0.523426 0.0965323 0.879204
0.692211 0.195032 0.880964
0.502464 0.0138051 0.84518
0.527039 -0.0839297 0.738756
0.534816 -0.121519 0.750445
0.534043 0.11579 0.871897
0.648554 -0.198939 0.860787
0.644014 0.195123 0.840697
0.625605 -0.190109 0.717592
0.672859 0.182118 0.797225
0.679309 0.188065 0.819576
0.649309 0.197718 0.876445
0.625738 0.190038 0.781575
0.499592 -0.049572 0.87116
0.529903 0.0918481 0.780695
0.635902 0.186258 0.757446
0.551818 -0.122929 0.758159
0.622245 -0.16835 0.860034
0.657065 0.192804 0.742538
0.525648 0.084931 0.852353
0.484832 -0.0230313 0.833151
0.666669 0.18013 0.738285
0.510926 -0.0446444 0.731012
0.61437 -0.197755 0.889232
0.531162 -0.1288 0.787633
0.653339 0.193967 0.809896
0.604498 0.178506 0.764398
0.494657 -0.0611464 0.817296
0.502818 0.0149077 0.726506
0.560522 -0.156744 0.826749
0.668413 -0.188914 0.824325
0.656506 -0.178513 0.747332
0.677353 -0.199653 0.78269
0.683163 -0.201687 0.808
0.518445 -0.0210208 0.771097
0.67729 0.224908 0.781437
0.56795 -0.144088 0.872888
0.543567 -0.127351 0.814682
0.639194 0.207179 0.754196
0.533832 0.111512 0.781615
0.539497 -0.111999 0.857916
0.637024 0.198579 0.745878
0.530453 -0.105782 0.771746
0.560892 -0.12592 0.719783
0.498252 -0.013653 0.753623
0.514606 0.0771771 0.763844
0.538127 0.111518 0.893046
0.487676 -0.0662721 0.74626
0.656807 0.187939 0.83702
0.665078 -0.208494 0.821544
0.600946 0.187346 0.807446
0.500015 0.029869 0.884048
0.644742 0.206738 0.748172
0.623416 0.195865 0.802866
0.661847 -0.186078 0.736702
0.552167 -0.148133 0.721779
0.672 -0.208106 0.8686
0.653067 -0.193984 0.903073
0.649185 -0.204551 0.838177
0.517015 0.082294 0.881424
0.698145 -0.215298 0.840438
0.611985 0.167498 0.78226
0.555819 0.126866 0.790503
0.602369 0.178052 0.838553
0.543413 0.117849 0.747921
0.610126 0.173812 0.72823
0.545209 -0.124823 0.697502
0.580816 0.180617 0.819009
0.560671 -0.127032 0.859661
0.519596 0.00120688 0.829264
0.640857 -0.171185 0.855942
0.624216 -0.190364 0.76746
0.497284 -0.00092958 0.770493
0.632911 0.180751 0.872484
0.608972 0.172376 0.783866
0.560267 0.143053 0.728292
0.503763 0.0989082 0.851443
0.610315 0.185088 0.711865
0.643185 0.179341 0.817308
0.501244 -0.0149829 0.862309
0.705033 -0.196426 0.862113
0.531076 -0.0673249 0.708336
0.517752 0.0864565 0.855506
0.50086 0.0520653 0.810733
0.528751 0.104142 0.779498
0.529207 -0.0860369 0.704773
0.65128 0.188605 0.797492
0.574445 0.155691 0.801663
0.524156 0.111353 0.776428
0.631106 0.186213 0.761534
0.583972 -0.162316 0.881034
0.578954 0.152826 0.736222
0.499998 -0.0434769 0.781277
0.516195 0.0585497 0.841121
0.499209 0.0854305 0.797535
0.57349 0.167651 0.840355
0.544194 -0.120087 0.72254
0.505615 -0.0492431 0.811842
0.524219 0.048818 0.736757
0.610458 0.167559 0.739155
0.518756 -0.102759 0.728648
0.544505 0.145887 0.875654
0.684813 -0.201633 0.733909
0.515084 -0.0139818 0.774104
0.538587 0.101855 0.824068
0.59589 0.167029 0.836368
0.679118 -0.213516 0.782712
0.488627 -0.0484064 0.862854
0.557159 0.13467 0.736865
0.673918 -0.196499 0.724001
0.583967 0.164773 0.830811
0.518518 0.0531956 0.805639
0.585184 0.174799 0.852291
0.497298 -0.0631528 0.756349
0.504824 0.0278743 0.772168
0.531941 0.0900076 0.900495
0.655554 0.172531 0.784668
0.61358 0.182557 0.814143
0.706409 0.199723 0.786458
0.571828 0.160674 0.775899
0.510897 -0.110703 0.856685
0.671964 -0.206662 0.736512
0.68827 0.183965 0.872556
0.648179 -0.199349 0.850545
0.573529 0.154758 0.763894
0.498536 -0.0765329 0.896887
0.649018 -0.204078 0.804974
0.604678 0.171696 0.742904
0.520151 -0.100473 0.78556
0.528488 -0.0629515 0.812004
0.517424 0.0269051 0.854644
0.688661 0.220904 0.714372
0.514128 -0.0425028 0.867159
0.495771 0.0407221 0.709123
0.685723 -0.198831 0.742624
0.496232 0.0539523 0.890066
0.489984 0.000626168 0.76589
0.547847 -0.142009 0.872003
0.513388 0.0840301 0.764081
0.505667 0.0376832 0.801515
0.530288 -0.127895 0.76988
0.522204 0.0650728 0.883638
0.540902 0.116131 0.771806
0.564004 0.162789 0.73861
0.610851 0.181504 0.751543
0.501175 -0.0381765 0.826824
0.645684 0.188094 0.875159
0.632505 -0.20295 0.811388
0.544819 0.0955904 0.818918
0.602041 -0.181156 0.874658
0.560208 0.115804 0.837408
0.611025 0.180211 0.777409
0.619655 -0.187609 0.907254
0.505557 0.0510891 0.852285
0.499506 0.0452732 0.868921
0.581317 0.163 0.8716
0.626474 0.185044 0.876996
0.530683 -0.0777529 0.850706
0.6743 0.187474 0.854138
0.68583 -0.207883 0.769128
0.514968 -0.11471 0.798388
0.49341 -0.0266867 0.9031
0.496351 -0.041124 0.755726
0.666911 -0.219021 0.895407
0.678373 0.187246 0.716009
0.636921 0.188969 0.780979
0.572732 0.153546 0.779315
0.498199 -0.0523779 0.893852
0.532881 0.120216 0.735936
0.562719 0.130179 0.823512
0.650684 0.188634 0.837894
0.578834 -0.146303 0.82649
0.550957 -0.120943 0.707326
0.672196 -0.217313 0.720422
0.583477 -0.184516 0.717808
0.52879 0.0914277 0.795804
0.569668 0.158189 0.783851
0.489198 0.0307712 0.872122
0.580433 0.151682 0.871148
0.585451 0.173706 0.694231
0.541279 0.111354 0.899861
0.707896 0.193608 0.910179
0.513601 -0.0689726 0.826006
0.499125 -0.052919 0.736397
0.647637 -0.189959 0.808855
0.622225 0.200021 0.892061
0.504759 0.00492114 0.721664
0.513221 -0.068388 0.845169
0.564658 -0.120893 0.712424
0.591041 -0.173835 0.739794
0.654606 -0.18295 0.843806
0.57126 0.177542 0.716614
0.52507 -0.109151 0.820383
0.529449 -0.100723 0.724216
0.536405 0.100425 0.762795
0.580369 -0.159363 0.884054
0.517375 0.0326628 0.873747
0.649319 0.201772 0.698104
0.600137 0.169495 0.909518
0.528481 0.103014 0.870242
0.489981 0.0385171 0.765927
0.660805 -0.177547 0.783494
0.515373 -0.0658228 0.838794
0.619679 -0.200328 0.884951
0.564972 0.179996 0.842271
0.697494 -0.189021 0.83636
0.512373 0.0722145 0.875534
0.621389 0.176576 0.880457
0.518716 -0.013483 0.875957
0.698242 0.195803 0.784582
0.489992 0.0445333 0.723903
0.564501 0.170062 0.89604
0.519609 -0.0520327 0.89401
0.509765 -0.0542766 0.779102
0.593162 -0.174654 0.850754
0.554249 -0.142436 0.783872
0.54424 -0.10467 0.888326
0.65748 -0.200442 0.789268
0.682377 0.17781 0.789002
0.573784 0.151919 0.745066
0.657314 -0.19721 0.76753
0.618103 -0.176829 0.863213
0.621281 -0.191809 0.814137
0.553415 -0.154935 0.762419
0.699212 -0.203318 0.717411
0.491305 0.00789817 0.754829
0.672931 0.213729 0.879022
0.492125 0.0601874 0.760684
0.674082 0.20271 0.801371
0.667218 0.204068 0.722993
0.514831 -0.0112891 0.878397
0.554033 -0.124093 0.820333
0.613587 0.174023 0.817043
0.700181 -0.204461 0.764154
0.645899 0.197102 0.729478
0.518909 -0.0333192 0.735936
0.677767 0.191852 0.754783
0.604032 -0.16559 0.763789
0.607062 -0.173608 0.753644
0.529703 0.100186 0.85131
0.571366 -0.152631 0.780674
0.490601 0.0382975 0.768086
0.696263 -0.20905 0.82633
0.567425 -0.132655 0.787182
0.569473 -0.12892 0.826965
0.588729 -0.172043 0.763367
0.569702 -0.162145 0.759396
0.581857 0.160795 0.802107
0.669197 -0.198205 0.799052
0.633203 0.179344 0.784011
0.55248 -0.128874 0.7615
0.519629 -0.120868 0.774626
0.53247 -0.0878405 0.748887
0.620018 0.179391 0.70351
0.530122 0.109741 0.753888
0.506894 0.0296586 0.753252
0.526255 0.0998576 0.725551
0.644499 -0.194139 0.748087
0.542174 0.121329 0.882175
0.551491 -0.149035 0.750593
0.533082 0.109064 0.73862
0.62647 -0.190543 0.713266
0.498708 -0.016662 0.691537
0.500334 0.0134527 0.865545
0.506086 0.0508545 0.74528
0.490664 -0.0128545 0.838553
0.53551 0.117085 0.739362
0.66286 0.206134 0.704636
0.509112 -0.0904407 0.794206
0.585011 0.172345 0.704895
0.522152 -0.0959643 0.812207
0.561739 0.141485 0.900673
0.613336 0.172362 0.72523
0.59953 -0.162429 0.717127
0.522931 -0.0326678 0.859093
0.594144 0.164253 0.710278
0.630926 -0.185177 0.768921
0.549815 0.107172 0.73647
0.510506 0.0185359 0.888706
0.615017 -0.188219 0.710347
0.643862 0.214996 0.860264
0.608563 -0.18236 0.868737
0.680181 0.197011 0.806167
0.634905 0.185632 0.692838
0.519245 -0.0548766 0.738326
0.515992 -0.0398009 0.753277
0.668889 -0.181791 0.869341
0.520078 -0.0831334 0.896802
0.637938 0.190064 0.752394
0.505361 0.0480659 0.778092
0.554132 -0.144546 0.835819
0.499899 0.00567307 0.710722
0.611834 -0.194506 0.754955
0.507236 -0.0635815 0.792367
0.59149 -0.177586 0.72486
0.499265 0.00752667 0.813741
0.546351 -0.105981 0.787263
0.519007 0.081571 0.739
0.509484 0.0395251 0.742366
0.511275 0.0759005 0.722773
0.578959 -0.151752 0.874191
0.518011 -0.0788699 0.712144
0.655997 -0.2085 0.698113
0.601295 0.162434 0.784959
0.55045 -0.137177 0.828455
0.499232 -0.00514907 0.801845
0.645759 -0.200854 0.88715
0.629187 0.181678 0.760834
0.496121 0.0658573 0.731725
0.533718 -0.0855226 0.795123
0.65943 -0.206124 0.855057
0.51535 0.0712756 0.863441
0.672612 -0.18916 0.84347
0.702977 -0.175603 0.887452
0.632952 -0.193062 0.8789
0.513543 -0.0650074 0.844415
0.524399 0.0434639 0.865833
0.513236 0.0562937 0.793406
0.692748 -0.199109 0.742549
0.575099 -0.166579 0.800497
0.680195 -0.2047 0.784166
0.549288 -0.0817834 0.875796
0.623767 -0.194695 0.78849
0.505563 -0.0652077 0.824712
0.508523 0.107799 0.706759
0.606415 0.178491 0.786229
0.543059 -0.143533 0.799561
0.515537 -0.0488705 0.837678
0.486971 -0.00873766 0.846802
0.622669 0.191426 0.885623
0.679483 -0.195613 0.89853
0.647327 -0.200966 0.80805
0.621288 0.184582 0.781065
0.627391 -0.187371 0.81593
0.549145 -0.131146 0.889105
0.493216 0.107598 0.828255
0.517627 0.0756149 0.77177
0.505945 -0.0477794 0.734151
0.484955 -0.0174737 0.788622
0.566172 -0.154005 0.752988
0.508035 0.0537643 0.797857
0.484097 -0.0527539 0.83711
0.657115 -0.2001 0.897711
0.690052 -0.184515 0.808154
0.641454 0.199206 0.69333
0.639167 -0.182259 0.832375
0.545992 -0.137039 0.780317
0.518276 -0.0891468 0.856036
0.513226 -0.0116546 0.791795
0.524229 -0.0844701 0.735013
0.607041 0.181222 0.706582
0.490244 -0.0327604 0.815271
0.602345 0.174672 0.765175
0.574505 0.163049 0.749561
0.692878 0.212815 0.79807
0.523826 -0.0589298 0.710784
0.626356 -0.174808 0.800387
0.572986 0.158817 0.72593
0.497237 -0.0229505 0.871652
0.641769 -0.177804 0.732951
0.531242 0.0750598 0.80319
0.614888 0.176179 0.69675
0.538059 -0.084538 0.863007
0.533988 0.105434 0.706517
0.58265 -0.174789 0.767775
0.530942 0.0659953 0.752263
0.520455 -0.0047779 0.818343
0.598149 0.172107 0.782219
0.512708 -0.0751883 0.804404
0.655304 0.192912 0.810344
0.55094 0.153965 0.768185
0.546147 -0.153523 0.796887
0.525676 -0.108112 0.779139
0.612266 -0.169798 0.831212
0.517927 -0.0968712 0.896511
0.525285 -0.0675593 0.842641
0.628073 0.179673 0.766651
0.573687 -0.152202 0.859325
0.510708 -0.0134297 0.777134
0.685587 -0.185689 0.782539
0.591654 -0.15415 0.827786
0.664559 -0.18245 0.7352
0.507701 0.0525101 0.796722
0.545689 0.121456 0.786825
0.585225 0.157366 0.870825
0.499789 -0.0688926 0.801095
0.490542 0.00206729 0.717583
0.586108 -0.172185 0.837354
0.490547 -0.0607247 0.713157
0.512949 -0.0305274 0.873553
0.54715 -0.111645 0.760648
0.507853 -0.0592352 0.830753
0.509432 0.0903103 0.71805
0.611604 0.196191 0.820679
0.690661 0.209238 0.762089
0.683312 0.213151 0.742601
0.492326 -0.0734239 0.753009
0.523428 -0.114183 0.711348
0.517364 0.0598044 0.787798
0.496393 0.0236619 0.766597
0.607569 -0.165271 0.775614
0.497222 0.0504097 0.778801
0.518941 0.0705739 0.877263
0.648747 -0.19413 0.84954
0.5112 0.0436531 0.829587
0.522351 -0.0594302 0.817554
0.66083 -0.194666 0.745764
0.523448 0.103119 0.827194
0.499697 0.0123133 0.744055
0.601925 -0.165508 0.813425
0.548224 -0.136471 0.906243
0.51193 -0.0687995 0.726633
0.59688 -0.176289 0.722924
0.690803 0.196019 0.715364
0.653653 -0.200959 0.846418
0.680151 -0.193504 0.820983
0.542901 0.0939253 0.749332
0.52361 -0.117626 0.892367
0.618261 -0.193017 0.774286
0.631154 -0.200781 0.782059
0.661853 0.197446 0.748487
0.522838 0.021257 0.729379
0.523091 -0.102097 0.797162
0.593357 0.170599 0.890323
0.50745 0.0240827 0.839443
0.563127 -0.162479 0.849173
0.543234 -0.121042 0.807779
0.509238 -0.00214553 0.872076
0.569276 0.120355 0.769678
0.501849 -0.00859085 0.893161
0.598738 -0.168872 0.87647
0.523729 0.0357238 0.760596
0.565161 0.138671 0.740404
0.677392 0.208744 0.820446
0.513672 0.0725493 0.679396
0.570537 0.152047 0.874423
0.644836 0.196042 0.71441
0.614847 0.189263 0.696536
0.683732 0.1784 0.87527
0.62614 0.182988 0.800335
0.583769 -0.151052 0.726758
0.582752 0.177539 0.842592
0.50608 0.0154419 0.71993
0.551455 -0.162451 0.863706
0.675223 0.199305 0.839565
0.608233 0.181568 0.736734
0.693694 -0.19163 0.860505
0.49396 -0.0873495 0.723304
0.523549 0.1137 0.768039
0.576663 0.156478 0.822761
0.549041 -0.10747 0.736525
0.617941 -0.160455 0.850519
0.506247 0.0371922 0.826955
0.544138 0.110707 0.864075
0.69 0.207046 0.81887
0.661572 -0.175382 0.890164
0.5934 -0.160377 0.752341
0.492984 -0.0176639 0.787974
0.514126 0.0171331 0.786432
0.509888 0.0913637 0.86947
0.637186 -0.196331 0.745211
0.533072 0.0866756 0.779245
0.598457 0.185236 0.838155
0.509055 0.0904244 0.811876
0.635578 -0.196505 0.747508
0.63612 -0.18309 0.783265
0.517915 -0.0798193 0.869916
0.66497 0.197148 0.881918
0.540553 0.119746 0.853473
0.514171 0.0922743 0.850204
0.654732 0.175761 0.772378
0.561032 0.143111 0.852357
0.647871 -0.200193 0.861999
0.486095 0.0400877 0.790391
0.637853 0.208558 0.797739
0.507352 0.0350213 0.814126
0.677336 0.20808 0.764978
0.591829 0.186683 0.816502
0.617139 0.177672 0.816704
0.571869 0.173017 0.823896
0.603895 0.165223 0.84682
0.546341 0.100401 0.82931
0.606034 0.167811 0.788926
0.644755 -0.188118 0.798074
0.499614 0.00173645 0.74044
0.554855 0.115841 0.838671
0.635086 -0.205817 0.85526
0.517048 -0.0233736 0.788998
0.604655 0.167084 0.854755
0.589113 0.146017 0.710391
0.629502 0.174273 0.72326
0.597239 -0.169351 0.808432
0.692476 0.191333 0.7076
0.66862 -0.200531 0.853299
0.495519 0.0066383 0.759192
0.582075 0.16242 0.870988
0.586708 -0.153065 0.728322
0.500517 -0.0698768 0.863761
0.528379 0.102828 0.765397
0.547844 0.149523 0.803312
0.663687 -0.200598 0.87042
0.613195 -0.187813 0.720964
0.54594 0.133123 0.888632
0.729698 0.209715 0.773357
0.553158 -0.142567 0.688484
0.535402 -0.104275 0.780604
0.512319 0.0349574 0.786862
0.618706 0.159836 0.707647
0.516642 -0.0852968 0.862818
0.593746 0.175321 0.855317
0.588353 -0.169836 0.895422
0.515469 -0.0953378 0.859928
0.505607 -0.0812626 0.80272
0.547612 -0.129783 0.854388
0.566215 -0.123849 0.79054
0.619464 -0.191264 0.803064
0.613139 -0.183714 0.848006
0.564607 -0.161361 0.781366
0.592414 0.150999 0.813342
0.547852 0.15019 0.798772
0.566559 -0.145798 0.901569
0.669386 0.207704 0.848835
0.517462 0.0787474 0.842481
0.600299 -0.197923 0.827348
0.509412 -0.0143103 0.801612
0.512359 0.0659053 0.722092
0.630826 -0.212655 0.701905
0.623779 0.190902 0.864247
0.562024 -0.161763 0.715818
0.497113 -0.0145907 0.833182
0.577709 -0.174117 0.782826
0.625372 -0.191837 0.838159
0.538936 0.130031 0.68778
0.663035 -0.186634 0.745481
0.514295 -0.0862879 0.8734
0.588584 0.173192 0.78068
0.50471 0.0443428 0.832353
0.63678 0.195048 0.770303
0.524798 0.0769397 0.815759
0.674619 -0.190323 0.864027
0.59762 0.1949 0.728848
0.569924 0.142695 0.916544
0.523554 -0.0933799 0.832569
0.546705 -0.0869008 0.837448
0.594409 0.163752 0.863159
0.524229 -0.103668 0.803801
0.638503 -0.19269 0.797274
0.578894 0.155197 0.762593
0.640887 -0.186376 0.728616
0.528342 0.0718271 0.751871
0.627229 -0.191108 0.741613
0.594762 0.186335 0.800889
0.526063 -0.0631418 0.7794
0.507524 0.0806751 0.847038
0.482855 0.0210025 0.704705
0.602053 -0.182028 0.771003
0.591171 -0.165176 0.824415
0.497099 0.0664343 0.721271
0.619528 -0.1822 0.816595
0.586817 0.156965 0.75357
0.627887 0.178714 0.846826
0.510505 -0.0758567 0.830092
0.600255 -0.178407 0.794556
0.51244 -0.0322254 0.848101
0.68153 -0.205142 0.752545
0.662904 0.185344 0.819382
0.510265 0.0144182 0.768719
0.527777 0.111678 0.846552
0.584538 0.16077 0.895802
0.497186 0.0134345 0.862204
0.695294 -0.183527 0.704227
0.699116 0.184262 0.881581
0.510255 0.0480558 0.867817
0.501828 -0.0145043 0.868636
0.714868 0.195244 0.700985
0.659481 0.189289 0.721529
0.520526 0.0216203 0.837253
0.525874 -0.115274 0.762298
0.581672 0.168188 0.895437
0.510126 -0.0753866 0.846566
0.653248 0.205084 0.810664
0.50734 0.0185882 0.710803
0.54911 0.111963 0.86798
0.531552 0.107336 0.815593
0.517637 0.0236917 0.877276
0.509438 0.0580818 0.903685
0.488274 -0.0300808 0.855556
0.655715 0.193943 0.894414
0.56298 -0.130542 0.703221
0.686384 -0.207041 0.871475
0.698063 0.203631 0.790744
0.512724 0.0459278 0.765869
0.588972 -0.158972 0.765695
0.556962 -0.134564 0.710324
0.499488 -0.0104715 0.85076
0.691004 -0.192921 0.829822
0.626772 0.171908 0.782651
0.549657 0.112299 0.761851
0.588283 -0.135345 0.721578
0.580848 0.177354 0.731425
0.525075 0.12091 0.748179
0.581665 0.148921 0.897574
0.62185 -0.193973 0.751821
0.590467 0.184395 0.712562
0.698504 0.196326 0.719235
0.522298 0.133924 0.779781
0.526851 0.116464 0.854331
0.57386 0.133945 0.753079
0.585565 -0.180025 0.774708
0.601736 -0.166707 0.888219
0.676008 -0.181387 0.783678
0.564095 0.150826 0.723115
0.536622 -0.114823 0.731218
0.521166 0.100609 0.744728
0.574958 -0.128271 0.881169
0.50942 -0.074078 0.762372
0.516083 -0.0655857 0.722016
0.576007 0.166725 0.74335
0.527514 -0.100394 0.755564
0.689239 0.198989 0.832841
0.677262 -0.207931 0.825188
0.528537 0.0643946 0.710294
0.513112 0.0174415 0.770555
0.665 -0.215281 0.77935
0.500214 0.0039923 0.883677
0.5593 0.114179 0.742849
0.546758 0.117407 0.727092
0.642646 0.170668 0.836693
0.597594 0.176222 0.872573
0.642928 -0.187472 0.878739
0.647529 0.214232 0.782194
0.491548 -0.0346062 0.806999
0.568556 -0.174058 0.790663
0.612603 0.18691 0.894366
0.509198 -0.0137846 0.830171
0.60654 0.161973 0.852041
0.586686 0.188376 0.792778
0.492404 0.0548378 0.763311
0.52987 -0.0758381 0.804209
0.56702 0.153617 0.877952
0.682405 0.208294 0.793135
0.654717 0.180003 0.728089
0.494388 0.00135878 0.791398
0.543108 -0.124898 0.863488
0.530946 0.0464029 0.768201
0.568884 0.154323 0.708218
0.509599 -0.047993 0.809245
0.536872 0.111764 0.838835
0.504137 -0.00441171 0.794264
0.5489 -0.112929 0.850133
0.512358 0.0142434 0.819063
0.649668 0.181493 0.719004
0.609402 0.185237 0.755224
0.646893 -0.195654 0.718935
0.489799 -0.0760062 0.719864
0.533622 -0.100418 0.706594
0.550688 0.129215 0.872557
0.510174 0.0288731 0.871507
0.591161 0.178451 0.773854
0.48427 0.0179988 0.899267
0.621253 -0.190599 0.833348
0.531779 0.11048 0.73939
0.500513 -0.00622413 0.742299
0.627232 0.171306 0.819867
0.581825 -0.149645 0.783825
0.629509 0.189829 0.750911
0.576652 -0.161382 0.711552
0.531867 0.0835846 0.69951
0.503858 0.00560231 0.860983
0.561524 0.159523 0.740594
0.510978 0.0504576 0.774864
0.568168 0.139268 0.75326
0.59405 -0.162807 0.769945
0.524547 0.0939462 0.699802
0.523563 0.0609296 0.882767
0.489836 -0.0127795 0.721053
0.518674 0.0712239 0.831567
0.609539 -0.177891 0.880322
0.604824 0.176365 0.836491
0.63233 -0.189712 0.738059
0.575539 0.176891 0.841924
0.492588 -0.0998741 0.849684
0.506668 0.000936252 0.731701
0.498908 0.0826178 0.899386
0.511089 -0.028301 0.859501
0.644371 0.198893 0.752684
0.500722 0.0336887 0.859238
0.508381 -0.0123267 0.787518
0.5493 0.144013 0.858526
0.563215 -0.166061 0.845932
0.560888 0.133641 0.755989
0.508001 0.00297288 0.855937
0.563616 0.145809 0.890021
0.575025 0.133413 0.817047
0.520855 -0.118184 0.826102
0.533792 -0.145046 0.739227
0.609791 0.162036 0.780942
0.625209 0.182603 0.854678
0.490406 0.01353 0.712672
0.568856 0.145554 0.735309
0.571699 0.172547 0.872953
