ply
format ascii 1.0
comment Created by Open3D
element vertex 1778
property double x
property double y
property double z
end_header
1.19716 -0.0461699 0.809821
1.13609 -0.000573573 0.948301
1.13927 -0.0253578 0.942464
1.05296 0.180013 0.725409
1.1739 0.0384158 0.895132
1.19858 -0.00821918 0.795354
1.05493 0.116144 0.948132
1.18331 0.0732368 0.774031
1.06259 -0.0321698 0.613307
1.19867 -0.00885802 0.765863
1.13234 -0.0980713 0.914533
1.16977 -0.00465345 0.685665
1.04804 -0.0812501 0.980492
1.07101 0.088252 0.964349
1.09003 -0.0810102 0.963173
1.18613 0.00355505 0.876888
1.02408 -0.0688015 0.614244
1.11839 -0.10205 0.669683
1.18089 -0.0212964 0.717258
1.20275 0.0104794 0.792402
1.19222 -0.0298052 0.765038
1.02577 -0.157955 0.915607
1.11778 0.00378756 0.642253
1.04666 0.198093 0.789164
1.16369 0.0900274 0.723952
1.18608 -0.0569471 0.810906
1.0278 -0.0189232 1.0004
1.08539 0.164598 0.883342
1.16799 -0.00262511 0.685062
1.05606 0.186032 0.764803
1.09205 0.142584 0.894728
1.06483 -0.0462345 0.990712
1.13897 0.14673 0.80474
1.00138 -0.160456 0.672787
1.13855 0.144456 0.847721
1.00315 0.189706 0.724066
1.20018 -0.013425 0.78497
1.15003 0.0209614 0.67406
1.19484 -0.0333886 0.788352
1.05094 0.186925 0.747814
1.12948 -0.0791392 0.931153
1.19844 0.0489578 0.774644
1.19098 0.0167984 0.861671
1.10151 -0.0960822 0.940976
1.14889 -0.139774 0.805767
1.19586 -0.0256834 0.778315
1.05731 -0.0585248 0.979367
1.19062 -0.0247457 0.728843
1.03315 -0.157548 0.92767
1.09046 0.114962 0.934854
1.05522 -0.144095 0.674335
1.01772 0.199233 0.811626
1.07734 0.162685 0.71223
1.10487 0.0958031 0.943049
1.0037 -0.198202 0.802542
1.19549 -0.0363534 0.786159
1.191 0.0141729 0.858888
1.1939 -0.0490918 0.763012
1.17966 -0.0845002 0.828936
1.13729 -0.144033 0.77854
1.11931 -0.152196 0.753907
1.04158 0.15294 0.678015
1.16292 0.0927056 0.865143
1.19499 -0.0132352 0.843688
1.19224 0.0403996 0.75659
1.16203 -0.0127705 0.681442
1.19197 0.0425196 0.787163
1.20114 0.0103225 0.801683
1.15153 -0.124049 0.839816
1.06591 0.14727 0.921405
1.00487 0.165736 0.681775
1.11453 -0.0237885 0.641267
1.06465 0.13217 0.669566
1.19357 0.0447914 0.802753
1.1714 -0.0903389 0.736636
1.1639 -0.00186961 0.914147
1.1834 0.0785563 0.782628
1.18036 0.0727999 0.805941
1.14786 -0.121898 0.737523
1.11538 -0.00145433 0.955924
1.13071 0.137015 0.859452
1.08145 0.0187033 0.979112
1.04452 -0.0529881 0.98849
1.18255 -0.0362622 0.877415
1.04805 0.143974 0.92866
1.19971 0.0230466 0.790147
1.14625 0.00930653 0.934332
1.18967 0.0364474 0.732948
1.1968 0.0243161 0.783532
1.18196 0.0522682 0.839669
1.1967 -0.0309486 0.794555
1.11433 0.0730468 0.952874
1.18888 -0.0384614 0.864442
1.18136 0.00313822 0.886398
1.19177 0.00107264 0.749653
1.13808 -0.0508182 0.935701
1.18983 -0.037624 0.828823
1.14937 -0.0525577 0.929069
1.18927 -0.0507299 0.859881
1.17397 -0.0773557 0.72702
1.14113 -0.110673 0.711254
1.11798 -0.0542969 0.952757
1.16483 0.0146936 0.92509
1.17792 0.0721625 0.744372
1.03084 -0.158477 0.674743
1.14706 0.0831883 0.68773
1.18482 0.0198382 0.724464
1.2012 -0.024567 0.819566
1.16844 0.0624687 0.88865
1.11204 -0.051699 0.646875
1.14232 0.102311 0.702588
1.06349 -0.173077 0.718703
1.19513 -0.00709329 0.792951
1.17447 0.0860611 0.830528
1.01385 -0.155717 0.9191
1.15175 0.132587 0.778983
1.17066 0.108167 0.825486
1.0622 -0.188008 0.779831
1.01875 0.193287 0.858663
1.18844 -0.00348135 0.729615
1.08225 0.177257 0.836145
1.16118 0.02399 0.687976
1.1043 0.113113 0.924894
1.17547 0.0711426 0.850607
1.01819 -0.114999 0.967521
1.19521 0.0269689 0.757762
1.14394 0.0652951 0.673251
1.18201 -0.0673383 0.841193
1.0903 0.169941 0.759785
1.18586 -0.0729433 0.773647
1.20001 0.0378633 0.817815
1.04448 -0.140043 0.671504
1.0903 0.0564143 0.632461
1.15889 0.0208038 0.677021
1.0121 0.0327359 0.997722
1.19996 -0.0291321 0.832072
1.16946 -0.0948196 0.862259
1.07451 -0.119282 0.933731
1.09293 0.169483 0.746185
1.19174 -0.0326924 0.776673
1.13387 -0.146385 0.8043
1.20455 0.00573981 0.798136
1.05111 0.172666 0.721681
1.15611 0.0490708 0.681145
1.0603 -0.161873 0.896086
1.17024 0.0382207 0.698485
1.0651 -0.0665928 0.981627
1.17174 0.038806 0.881833
1.1475 -0.034994 0.667786
1.18325 0.0770569 0.762544
1.18961 0.025092 0.847908
1.18164 0.066063 0.828017
1.1853 0.0402518 0.741399
1.18609 0.0349356 0.733706
1.06886 -0.165701 0.70018
1.16668 -0.0860006 0.859411
1.06661 0.133898 0.67292
1.18027 -0.0358167 0.883342
1.08761 0.119989 0.671264
1.17955 0.0723252 0.864139
1.07234 0.146542 0.91389
1.16166 0.0460582 0.697344
1.08627 0.135842 0.691766
1.03088 -0.164626 0.691264
1.19428 0.0300374 0.830026
1.1149 0.0995761 0.673152
1.20089 -0.00329876 0.795222
1.19195 0.0527193 0.813835
1.15849 -0.0959608 0.873309
1.17888 0.0459554 0.727662
1.17981 -0.043294 0.889859
1.03997 -0.0898725 0.626881
1.08468 0.057695 0.970667
1.04657 -0.149652 0.916392
1.18307 -0.0118083 0.875207
1.19155 -0.0435974 0.839897
1.07687 -0.101125 0.955943
1.1833 -0.0849937 0.78886
1.1887 0.0546501 0.788786
1.19783 0.0273208 0.796103
1.18176 0.0730603 0.780817
1.2007 0.00477353 0.823757
1.13272 0.146721 0.783443
1.17958 -0.0871435 0.789563
1.13045 -0.133496 0.727357
1.16846 0.0511145 0.709143
1.20279 0.00373758 0.799478
1.01699 0.177404 0.708784
1.19176 0.0620704 0.772724
1.18045 -0.0792711 0.836674
1.13605 -0.0511991 0.940312
1.20151 0.0194068 0.770459
1.19127 -0.0455549 0.810553
1.01494 -0.0999787 0.971209
1.10816 -0.0752708 0.652195
1.01999 -0.174498 0.897733
1.16866 -0.102123 0.865638
1.1989 0.0181105 0.834385
1.04043 0.145145 0.934286
1.06835 0.024501 0.983816
1.18549 0.0682322 0.837984
1.2012 0.0152084 0.777777
1.02505 -0.0101978 0.596447
1.10598 -0.153114 0.742553
1.17997 0.0089136 0.723601
1.15232 -0.131219 0.812336
1.03469 -0.19279 0.744664
1.05481 0.056188 0.60963
1.04755 0.104248 0.633954
1.07978 -0.161312 0.715638
1.04138 -0.158129 0.68855
1.15404 0.0148403 0.681347
1.07341 0.13667 0.927375
1.1553 -0.115565 0.850754
1.08691 0.178759 0.756219
1.19372 0.0334388 0.796855
1.01961 0.0869455 0.98059
1.04539 0.161408 0.902034
1.1255 -0.0548732 0.945533
1.15952 0.100433 0.740581
1.1985 0.0015254 0.763435
1.06296 -0.161873 0.711903
1.16655 -0.0140413 0.689624
1.04172 0.00508281 0.600662
1.17254 0.00968252 0.895565
1.06964 -0.156726 0.900783
1.19944 0.0172835 0.824321
1.09152 0.115345 0.6621
1.19588 0.00748606 0.756613
1.15023 0.00992729 0.934007
1.14 0.145595 0.835742
1.15564 0.0526728 0.687316
1.13778 -0.0772687 0.928629
1.18308 -0.0747613 0.816818
0.997847 0.0374285 1.0029
1.03695 0.175085 0.700019
1.10918 -0.11444 0.923758
1.20202 -0.00365985 0.784558
1.20223 -0.000140436 0.798855
1.19616 -0.0181843 0.802975
1.13981 -0.143983 0.798685
1.00779 -0.00784076 0.995801
1.19422 0.00213397 0.798917
1.04064 0.149222 0.922565
1.15867 -0.124928 0.792955
1.08977 -0.0853461 0.959278
1.06346 -0.161552 0.717119
1.02237 0.0118435 0.603972
1.19074 0.0514351 0.829322
1.19027 0.0534463 0.769005
1.19726 -0.0307929 0.782126
1.1813 0.0388016 0.886094
1.16643 0.110941 0.830852
1.16986 0.0816155 0.735734
1.05086 0.0760457 0.617486
1.16766 0.0365797 0.913517
1.01041 -0.0550662 0.605854
1.19411 -0.00647261 0.800893
1.03317 0.0542222 0.994064
1.20262 -0.00769936 0.791924
1.05904 0.114534 0.954583
1.07336 0.0947031 0.959891
1.09343 0.00982031 0.622732
1.181 -0.0132791 0.885919
1.19545 -0.0552362 0.810601
1.07395 0.182146 0.786458
1.09612 0.0345218 0.628922
1.04586 -0.192953 0.759103
1.08631 -0.113734 0.671005
1.03402 0.0782868 0.982942
1.16268 0.0358169 0.912768
1.06964 0.104941 0.951374
1.19952 -0.000520486 0.784082
1.14831 0.106211 0.888914
1.18313 -0.0818638 0.805475
1.11508 0.161347 0.801895
1.00659 0.180786 0.88528
1.10683 0.156576 0.882429
1.12391 -0.121645 0.7043
1.07039 0.0901638 0.962989
1.19171 0.0220312 0.840389
1.0238 -0.0959667 0.977174
1.19133 0.0474179 0.810601
1.1775 0.0560435 0.720132
1.18823 0.0120368 0.735038
1.09367 0.0906197 0.648659
1.04371 0.146988 0.677061
1.16349 0.0692404 0.886156
1.09368 0.13014 0.681312
1.12603 -0.13764 0.721662
1.16659 -0.11608 0.786128
1.07727 -0.0227138 0.985771
1.19914 0.00595492 0.825031
1.16277 -0.0985798 0.745992
1.19835 0.0356562 0.831261
1.03854 0.00934812 0.610403
1.20567 0.0107133 0.795672
1.04945 0.0278937 0.994224
1.19232 -0.0333808 0.851803
1.0271 -0.0968629 0.965783
1.1734 -0.0193317 0.707022
1.04749 0.135343 0.944953
1.16337 -0.00605191 0.916809
1.04007 0.160418 0.917879
1.17078 -0.0981721 0.739916
1.14749 -0.0100362 0.93473
1.06873 -0.185032 0.789795
1.16384 0.109476 0.784321
1.13504 -0.0184954 0.950092
1.04832 0.0431279 0.607416
1.18778 -0.0577589 0.784905
1.00159 -0.198078 0.758993
1.05813 -0.0666579 0.624416
1.1593 0.0159281 0.91432
1.06824 0.170747 0.888297
1.08008 -0.182628 0.771826
1.10086 0.150921 0.715377
1.19136 -0.0528656 0.813221
1.20387 -0.00515692 0.791797
1.03585 -0.0121925 0.605043
1.11405 -0.0473275 0.953443
1.15665 -0.0923759 0.879285
1.16253 -0.0133203 0.682473
1.08513 0.000232953 0.619683
1.20027 0.012746 0.805555
1.19117 -0.0413027 0.772293
1.19432 -0.00312057 0.793408
1.01866 -0.118797 0.64003
1.18555 -0.005127 0.86365
1.08234 0.0113213 0.617644
1.19824 0.0263768 0.762215
1.02264 -0.183646 0.872326
1.12952 0.0678973 0.667824
1.17175 0.0793284 0.885097
1.09167 0.169087 0.862894
1.07501 -0.028773 0.98354
1.2009 -0.00693914 0.802236
1.13547 -0.136976 0.847558
1.17116 0.0828893 0.723206
1.14568 0.00839995 0.659203
1.06275 0.172984 0.869654
1.01266 -0.100747 0.63413
1.19555 0.019636 0.842744
1.12062 0.0583878 0.649858
1.15722 -0.0459967 0.698893
1.10035 0.00490377 0.62537
1.10586 0.0342397 0.963369
1.03409 0.143389 0.934892
1.16402 -0.101268 0.853482
1.15474 0.0607928 0.682226
1.19634 0.0173209 0.804084
1.1507 -0.0865652 0.898958
1.13685 0.135533 0.751624
1.03601 -0.196533 0.792737
1.20224 0.020314 0.832567
1.19633 0.00909972 0.795925
1.06182 0.184503 0.85228
1.06196 -0.187505 0.836276
1.17838 -0.0712925 0.854591
1.19842 -0.0422784 0.781404
1.12442 0.0265111 0.952423
1.10934 0.15969 0.759011
1.1339 0.0424932 0.937751
1.15226 -0.0360405 0.928276
1.04177 0.150254 0.669112
1.11669 0.157161 0.763424
1.19108 0.0422547 0.858078
1.13483 0.117846 0.894623
1.1053 -0.10886 0.930906
1.12938 0.0712711 0.936711
1.08432 -0.103356 0.947996
1.18815 -0.0128985 0.744598
1.06466 0.104587 0.646699
1.19268 0.026302 0.769474
1.1861 -0.0719602 0.822114
1.14581 0.11415 0.71383
1.10837 0.16194 0.822063
1.15102 0.105847 0.719729
1.09391 -0.109682 0.930329
1.18859 0.0409065 0.875941
1.06437 -0.151123 0.691122
1.19963 0.0261675 0.775859
1.1287 -0.146817 0.830555
1.19145 0.0479595 0.815181
1.07162 0.177961 0.765255
1.12921 0.0274245 0.651551
1.01446 -0.138567 0.94644
1.14721 0.0425062 0.671731
1.19571 0.0195493 0.796536
1.11886 -0.0631928 0.94955
1.1207 0.0643936 0.655804
1.04479 0.0989895 0.969594
1.205 0.0208606 0.803853
1.16124 0.108901 0.848036
1.10499 0.159088 0.858421
1.19133 0.000469197 0.869711
1.19723 -0.00866414 0.809049
1.17396 -0.0587584 0.705054
1.09128 -0.175503 0.818666
1.18775 0.019439 0.873325
1.19539 -0.0372273 0.802685
1.18083 0.00347859 0.723071
1.09609 -0.165966 0.732443
1.20276 -0.0254954 0.806792
1.06702 0.148974 0.910856
1.20183 0.00643499 0.805792
1.0707 0.16838 0.882121
1.16113 -0.113969 0.852345
1.0823 0.0109841 0.615496
1.18244 0.0344964 0.720924
1.16509 0.0158621 0.688834
1.1316 0.135753 0.728342
1.20281 -0.00890333 0.793587
1.0566 -0.104239 0.63822
1.12674 0.131138 0.721715
1.1848 0.055305 0.842958
1.04955 0.184429 0.747245
1.19391 0.000968555 0.782403
1.05166 0.0982736 0.63103
1.10728 -0.0615091 0.956223
1.09783 0.000329609 0.626543
1.0391 -0.132422 0.653129
1.03318 0.0155475 0.605104
1.15015 0.116309 0.864278
1.17097 0.0988335 0.821196
1.15084 -0.133825 0.829789
1.17873 -0.0762694 0.760246
1.19988 0.014194 0.782596
1.12667 -0.138258 0.742358
1.17789 -0.0930408 0.806055
1.1073 0.0830037 0.656019
1.1993 0.0271702 0.768954
1.03342 -0.176598 0.879298
1.17621 0.0348848 0.887389
1.10136 0.121877 0.928174
1.19868 -0.0449019 0.796956
1.10901 -0.120967 0.915367
1.02711 0.0374358 0.995994
1.1312 -0.1255 0.884628
1.19927 -0.0206922 0.80101
1.02711 0.0080716 0.995316
1.20156 -0.00271727 0.787658
1.19633 -0.00781624 0.772744
1.18835 -0.037835 0.845152
1.18841 -0.0479113 0.845233
1.11797 0.15677 0.854495
1.13686 -0.1286 0.750511
1.06212 -0.134073 0.666786
1.16502 0.0515772 0.705151
1.19117 0.00264416 0.857067
1.18722 -0.0187646 0.741255
1.13401 -0.14522 0.76717
0.997948 -0.125592 0.642011
1.16481 0.0774544 0.736704
1.1963 -0.0422999 0.784126
1.16891 -0.0904277 0.751755
1.16117 -0.104301 0.745874
1.08485 -0.176332 0.750505
1.09914 0.0230642 0.971355
1.00631 0.193589 0.836494
1.19685 -0.0136969 0.775453
1.16134 -0.0584461 0.702146
1.15118 0.117029 0.735668
1.20077 0.0094738 0.799159
1.17635 0.02057 0.891267
1.19494 0.00454422 0.802771
1.10476 -0.0395655 0.634977
1.10725 0.137473 0.703953
1.02752 0.088404 0.618835
1.14295 0.131988 0.812916
1.19331 0.00649818 0.77103
1.09297 -0.178282 0.801887
1.20143 0.0103408 0.783571
1.19418 -0.0402473 0.75812
1.09239 0.150364 0.904863
1.17545 -0.0624834 0.734919
1.19158 0.0108252 0.867619
1.2037 0.00667317 0.800524
1.16791 0.0840848 0.735675
1.20016 0.0141753 0.838451
1.19211 -0.0039859 0.767582
1.07929 -0.151298 0.904122
1.0163 -0.165647 0.910011
1.02384 0.169946 0.907525
1.14216 0.142117 0.795328
1.11261 0.16283 0.797034
1.1936 0.0134095 0.865201
1.13063 0.059241 0.660339
1.06141 0.0869489 0.971644
1.15227 -0.0374732 0.67626
1.03745 -0.059297 0.98958
1.09994 -0.0453387 0.963393
1.17327 -0.0528593 0.87775
1.09653 0.0297195 0.974828
1.03339 0.187833 0.737121
1.18502 0.0640752 0.826039
1.16436 -0.0597192 0.889589
1.12774 -0.139159 0.847486
1.19174 -0.0623571 0.81394
1.03912 -0.0694216 0.614777
1.20249 -0.0090321 0.799772
1.01538 -0.0913697 0.977598
1.13852 -0.0135816 0.655949
1.17087 0.110957 0.790754
1.20064 -0.00519677 0.792885
1.01707 0.107948 0.6334
1.06962 0.188597 0.825757
1.14032 0.136743 0.757541
1.19971 0.00588072 0.768038
1.18098 -0.0804246 0.821682
1.00919 0.183414 0.726031
1.19894 -0.00278932 0.774657
1.13307 -0.140559 0.846226
1.13455 0.0776342 0.918774
1.10806 -0.0239721 0.624024
1.17898 0.00142162 0.718226
1.2026 0.00542451 0.789569
1.16137 -0.121271 0.792878
1.1363 -0.130789 0.760343
1.18755 0.0638809 0.844182
1.07308 0.0800759 0.973529
1.02789 0.191635 0.739836
1.12754 -0.0448512 0.647238
1.16732 -0.114435 0.814065
1.20161 0.0179306 0.82546
1.11136 0.157578 0.855596
1.13815 -0.073801 0.680645
1.06113 -0.1734 0.867387
1.00937 0.16536 0.69293
1.11174 0.0603763 0.95579
1.10836 -0.0520938 0.637288
1.07438 -0.0923916 0.95533
1.1268 0.0269442 0.647071
1.13397 0.117534 0.705727
1.17433 -0.0324722 0.902137
1.19048 -0.0440935 0.801283
1.15318 0.119055 0.842025
1.17169 -0.0891487 0.844473
1.13268 -0.0573454 0.938089
1.13162 -0.056345 0.656888
1.1547 0.122019 0.809489
1.09585 0.176312 0.829099
1.12215 0.0651711 0.653832
1.01627 0.143946 0.664498
1.16285 0.102521 0.750582
1.08133 -0.141249 0.679537
1.14912 -0.102041 0.885527
1.19547 0.0111515 0.810815
1.17878 -0.0759196 0.837416
1.0621 -0.0271711 0.988026
1.13409 0.145828 0.76792
1.16533 0.0182092 0.909776
1.12892 0.149457 0.831806
1.18259 -0.0646731 0.83771
1.20234 0.0109957 0.792491
1.13462 -0.0306034 0.656474
1.19075 0.0483017 0.762576
1.05014 0.186209 0.749801
1.08953 -0.0547772 0.972858
1.16239 0.0997287 0.751999
1.13849 -0.017871 0.946361
1.09101 0.151768 0.698629
1.12904 -0.0968018 0.914261
1.16207 -0.0837106 0.704522
1.07987 0.0224926 0.975859
1.01359 0.193797 0.780009
1.17563 -0.0901353 0.790742
1.05831 0.175357 0.88412
1.14724 -0.0988798 0.897776
1.17456 0.0945955 0.84027
1.02559 -0.0395917 0.99362
1.18813 0.0249024 0.752215
1.14459 0.019143 0.660028
1.19726 0.016236 0.814287
1.19738 0.0215773 0.815796
1.12455 0.156293 0.776032
1.15894 -0.0670622 0.903504
1.06643 -0.0833088 0.974953
1.14294 -0.135963 0.809885
1.1988 -0.00622155 0.769229
1.09301 -0.115581 0.933281
1.17974 -0.0679986 0.861976
1.1937 0.0530785 0.833982
1.01662 -0.187044 0.871176
1.20162 0.0187629 0.820111
1.11172 0.154577 0.84404
1.03859 0.167473 0.893839
1.20053 0.0323478 0.809658
1.19476 -0.0229822 0.837572
1.00641 0.167968 0.684098
1.18862 -0.0260224 0.761642
1.03764 0.194421 0.759516
1.05559 0.0835101 0.627994
1.19224 0.0164434 0.73508
1.17035 -0.0648655 0.876588
1.1813 -0.0712585 0.762706
1.03569 -0.189825 0.79144
1.20126 0.0107504 0.793976
1.16106 0.100288 0.849102
1.07882 0.158481 0.703688
1.09071 -0.156532 0.876603
1.2025 0.00182257 0.791265
1.2017 -0.0114192 0.779367
1.01954 -0.194792 0.762617
1.09289 0.0264223 0.980254
1.14362 0.0967361 0.699031
1.20198 0.0222933 0.805301
1.16598 -0.0437908 0.69601
1.16065 0.0945109 0.731018
1.1732 0.0647694 0.727463
1.08719 -0.0959391 0.645846
1.14414 0.0931486 0.912368
1.20357 0.0150734 0.780808
1.07594 0.071816 0.632859
1.0714 -0.0344653 0.617945
1.19784 -0.0392499 0.805888
1.17504 0.0347189 0.71185
0.999868 -0.0168362 0.60123
1.16015 0.130106 0.815681
1.13946 -0.0678533 0.917992
1.06925 -0.17636 0.733186
1.12324 -0.0666198 0.942595
1.11676 0.00201397 0.642459
1.19027 0.0217423 0.733386
1.18738 0.0587482 0.764915
1.14725 -0.0376525 0.924209
1.17123 0.0679552 0.727976
1.17978 0.041816 0.877976
1.08066 0.170836 0.732582
1.09712 0.00249988 0.622153
0.999734 -0.153948 0.927491
1.10411 -0.00748131 0.972522
1.10455 0.0795239 0.653256
1.15918 0.0927115 0.882063
1.0293 -0.0843642 0.978475
1.02784 -0.00657289 0.603726
1.03507 -0.165627 0.907571
1.0949 -0.134782 0.68256
1.15887 -0.117941 0.792729
1.18831 0.0460264 0.744577
1.20238 0.0030575 0.809048
1.0815 -0.0748305 0.965398
1.16861 0.0774457 0.728391
1.15482 0.000573125 0.922793
1.20184 -0.00414934 0.801513
1.02624 0.0867459 0.980639
1.19328 -0.0378409 0.818372
1.16341 0.0667097 0.886062
1.0541 -0.0647067 0.621533
1.18071 0.0121407 0.889363
1.05269 -0.0404238 0.607952
1.13347 0.0651623 0.663849
1.02251 -0.0564288 0.611162
1.00129 -0.200943 0.822473
1.1758 -0.0256337 0.706439
1.17136 -0.0857644 0.854764
1.05433 0.0539323 0.982798
1.19691 0.025404 0.800311
1.02459 0.120981 0.63897
1.18726 0.0489962 0.7767
1.05206 -0.117675 0.951247
1.09512 -0.15071 0.886475
1.06246 -0.0952074 0.633974
1.19459 0.0108293 0.737289
1.11051 -0.1541 0.868054
1.0591 0.144779 0.924803
1.06815 -0.177219 0.859616
1.18587 0.0496094 0.74264
1.10882 -0.10457 0.930293
1.01781 0.179476 0.718455
1.04867 0.0897067 0.982235
1.14362 -0.136925 0.783748
1.18975 0.0492097 0.842448
1.13743 0.0365358 0.659229
1.00362 -0.0761632 0.613831
1.09182 -0.0670008 0.640777
1.15917 0.0136952 0.672141
1.04547 0.182767 0.869358
1.18381 0.0742532 0.818949
1.20137 0.00142737 0.798806
1.04452 0.065113 0.984765
1.18291 0.0525309 0.749636
1.19619 0.0387642 0.82545
1.0884 0.162834 0.876571
1.07133 0.00459921 0.990046
1.14386 -0.0225687 0.661973
1.16537 0.0159865 0.684092
1.19446 -0.0447578 0.777385
1.18908 0.0573946 0.781322
1.1664 -0.116108 0.790872
1.07778 -0.0235324 0.979588
1.2013 -0.00278853 0.790951
1.10546 -0.0680989 0.958777
1.20241 0.0276264 0.810596
1.20238 0.0221659 0.811389
1.14679 0.0601615 0.924732
1.0297 -0.0382464 0.993987
1.16139 0.0690395 0.69297
1.20375 -0.0222048 0.785046
1.08396 0.174792 0.8381
1.14019 0.0934079 0.688029
1.19436 -0.0399036 0.839725
1.08353 0.096073 0.959248
1.14326 0.131621 0.824056
1.09447 0.118766 0.671242
1.19761 -0.00723893 0.796379
1.06595 -0.148156 0.913184
1.19555 0.0231115 0.773204
1.07506 -0.151816 0.687218
1.17547 0.0323174 0.707617
1.06144 -0.0654972 0.615833
1.16794 0.0132541 0.694518
1.04646 0.0464855 0.611986
1.19512 -0.000376781 0.803625
1.05312 -0.184703 0.768052
1.14612 -0.135176 0.80911
1.15196 0.0625749 0.674553
1.2015 -0.0286362 0.805337
1.178 -0.0669693 0.858196
1.16099 -0.0769523 0.722659
1.18386 0.0153213 0.712558
1.12635 0.149972 0.804257
1.19301 0.0376543 0.794332
1.18152 0.067512 0.859337
1.19385 -0.0389617 0.779465
1.1819 0.0707398 0.765204
1.10888 -0.0805334 0.949335
1.01619 0.0432781 0.991654
1.10381 0.0899224 0.9478
1.19893 -0.0054174 0.810574
1.13197 -0.0888474 0.679932
1.1305 -0.146095 0.757312
1.12905 -0.110459 0.696394
1.18471 -0.0586306 0.773645
1.16044 0.0645607 0.912247
1.02778 -0.0878788 0.977712
1.17393 -0.0589895 0.723036
1.16895 -0.0391221 0.707645
1.1236 0.135731 0.742737
1.14137 0.110638 0.8858
1.08431 -0.0394885 0.624548
1.18203 0.059029 0.730388
1.13177 -0.127556 0.71332
1.19778 -0.019559 0.777694
1.00982 -0.199118 0.755793
1.18772 0.053062 0.833684
1.10347 0.171904 0.798419
1.04374 -0.0213105 0.606787
1.00762 0.196619 0.774089
1.18314 0.0455468 0.862499
1.19619 0.00421709 0.814603
1.07852 -0.153238 0.698416
1.19987 0.015857 0.790475
1.0965 -0.060542 0.963084
1.17539 -0.0908677 0.784569
1.085 -0.149113 0.910627
1.18891 0.0456159 0.773541
1.15643 -0.117011 0.754912
1.08399 -0.161324 0.878007
1.18377 -0.0208929 0.743148
1.17892 0.0749353 0.746978
1.1313 0.0979574 0.689311
1.19976 -0.00509931 0.807741
1.19282 -0.0276578 0.773788
1.19461 0.0424406 0.765763
1.12651 0.07627 0.929274
1.19308 -0.0375873 0.832435
1.07441 0.147465 0.679658
1.0958 -0.0784805 0.644317
1.19412 -0.0200177 0.777209
1.1981 0.0204846 0.822867
1.01581 -0.15156 0.672331
1.14365 0.102868 0.884855
1.10592 0.0417766 0.633975
1.12784 0.130326 0.883854
1.19194 -0.0463277 0.79102
1.16555 0.0781747 0.738045
1.19979 0.00432826 0.802401
1.06795 -0.147542 0.688609
1.18238 0.0659473 0.77142
1.07824 0.166174 0.880935
1.19629 -0.0235879 0.801601
1.18752 -0.0610649 0.742845
1.20249 0.00357639 0.805703
1.1399 0.0180853 0.942902
1.16663 0.0955148 0.850734
1.15479 0.117368 0.825982
1.14794 0.128482 0.755381
1.11622 -0.00916179 0.636168
1.19031 -0.0273039 0.844962
1.04805 0.119763 0.952723
1.16365 -0.106163 0.779474
1.05164 0.0164059 0.992664
1.18687 -0.0573309 0.770013
1.18781 -0.0566773 0.806859
1.0942 -0.0194851 0.629122
1.14624 -0.115265 0.872332
1.19751 -0.00854495 0.796069
1.14233 -0.00179937 0.936376
1.17404 0.0696025 0.736018
1.00169 -0.174156 0.900725
1.07311 -0.119258 0.940438
1.12287 0.140148 0.859471
1.06932 -0.192462 0.808461
1.05907 0.0249461 0.61234
1.12196 0.140965 0.844616
1.19069 0.0093928 0.856738
1.04364 0.186795 0.844287
1.12844 0.151147 0.774587
1.14146 0.0205705 0.942486
1.01518 -0.19932 0.790264
1.19739 -0.0244748 0.776063
1.19512 0.0142532 0.795221
1.00754 0.087166 0.977483
1.19645 0.0380917 0.795878
1.11843 -0.110901 0.678214
1.00516 0.199259 0.833715
1.19914 -0.0279106 0.757814
1.0172 0.0540385 0.60778
1.14919 0.105814 0.711525
1.19155 -0.058262 0.775561
1.20087 0.0099042 0.787596
1.02504 0.0394137 0.608369
1.17709 0.0333374 0.715467
1.02147 -0.00965815 1.00041
1.0046 0.199671 0.813916
1.14476 0.137379 0.810928
1.19814 0.0153694 0.832607
1.11323 -0.0320418 0.96319
1.19907 0.0145575 0.784688
1.14205 -0.137702 0.827376
1.1628 -0.0517957 0.696043
1.15795 0.037488 0.91265
1.08211 -0.141859 0.90498
1.19931 -0.00113655 0.808221
1.00566 0.198581 0.769458
1.17554 0.0452791 0.894182
1.19783 0.011142 0.790182
1.1819 -0.0711286 0.760025
1.20404 -0.0198073 0.786366
1.1795 0.0757262 0.848297
1.1305 -0.121351 0.710926
1.16733 -0.0860901 0.855863
1.13145 0.144325 0.866617
1.17735 -0.0312259 0.727711
1.00524 0.198392 0.824556
1.17951 -0.0428113 0.869171
1.04048 -0.0154223 0.60214
1.19383 -0.00154909 0.754609
1.11418 -0.159901 0.823097
1.01925 0.189759 0.740797
1.19737 -0.01694 0.808053
1.01446 -0.0510265 0.608406
1.19328 0.0222118 0.860088
1.16055 0.0499115 0.915866
1.17947 -0.0716085 0.742179
1.19949 -0.0226448 0.787906
1.13777 -0.151541 0.797843
1.16884 0.030668 0.904092
1.16135 -0.0160364 0.91782
1.06015 -0.190446 0.797919
1.10484 -0.0407554 0.969017
1.14474 -0.142715 0.822757
1.12939 -0.13143 0.744887
1.16459 -0.0935847 0.859249
1.19858 0.0165351 0.802558
1.13291 -0.1497 0.830063
1.12437 -0.025738 0.643783
1.19169 -0.031266 0.784254
1.16461 -0.0234597 0.903378
1.00863 0.198525 0.769762
1.19931 0.000983973 0.792406
1.10563 0.0288488 0.968652
1.1823 0.0299038 0.878555
1.1842 0.055717 0.745838
1.15692 -0.0125179 0.684815
1.19806 -0.0174684 0.811553
1.085 -0.10656 0.651152
1.03579 -0.189316 0.849689
1.06738 0.0548512 0.621811
1.13262 -0.129758 0.735109
1.09671 0.0724423 0.955492
1.10036 -0.00478687 0.974194
1.16147 0.111575 0.822686
1.17999 -0.0730898 0.845076
1.19216 -0.0136621 0.790111
1.17335 0.0871043 0.855079
1.17011 0.00208959 0.693314
1.03135 -0.0943634 0.621061
1.18265 0.0151016 0.72711
1.19479 0.0221518 0.859291
1.16101 0.0653656 0.704951
1.05598 0.0955524 0.972279
1.1231 0.135465 0.875596
1.17637 -0.0861125 0.771979
1.19792 0.017469 0.768361
1.08704 0.131255 0.925819
1.19808 -0.0423416 0.781497
1.17386 -0.0713635 0.737766
1.14008 0.113173 0.697143
1.0848 0.1435 0.907985
1.12898 0.147063 0.762292
1.18524 0.0694693 0.812158
1.0255 0.108528 0.967837
1.05981 0.0945697 0.972613
1.02237 0.187189 0.874864
1.14884 0.0798855 0.902207
1.13252 0.0159787 0.647073
1.10406 0.00340266 0.971894
1.19449 0.0229405 0.841388
1.05515 -0.0589808 0.980954
1.06515 0.186898 0.777931
1.01242 -0.200493 0.831
1.08048 -0.130622 0.681915
1.17211 -0.0585842 0.702857
1.11298 0.157653 0.847848
1.11293 0.157243 0.738925
1.19604 0.010188 0.821735
1.19429 0.0328094 0.794011
1.02937 0.196555 0.805569
1.19961 0.0246239 0.761351
1.16106 -0.117163 0.81741
1.19707 0.000544334 0.765468
1.10668 -0.0297818 0.635056
1.06175 -0.135002 0.66341
1.1924 0.038545 0.823349
1.16911 -0.0541838 0.879608
1.0067 0.124812 0.95483
1.02017 0.019883 0.599529
1.04233 -0.147242 0.921001
1.19125 -0.0624327 0.794921
1.11108 0.0847172 0.942615
1.09921 -0.142054 0.903264
1.1919 -0.0594946 0.78237
1.17633 0.0969711 0.811776
1.11874 0.155183 0.807437
1.00667 -0.144834 0.935335
1.17649 0.0529727 0.849992
1.11584 -0.0710298 0.946869
1.10146 0.130314 0.904785
1.18193 0.0836043 0.788343
1.08276 0.145673 0.908365
1.18917 -0.00894529 0.7292
1.20209 -0.00550336 0.805858
1.00481 -0.17512 0.88722
1.01813 -0.177514 0.881798
1.11505 0.141302 0.722481
1.19096 0.0487413 0.770173
1.12709 0.152958 0.811034
1.14221 -0.0310678 0.937315
1.14961 -0.0697044 0.697169
1.20102 0.017151 0.771803
1.00848 0.177251 0.706183
1.1847 -0.0176457 0.861206
1.13645 -0.0924565 0.690289
1.18135 -0.036925 0.718935
1.01053 -0.0680031 0.610572
1.06311 -0.133396 0.930133
1.2022 -0.00204627 0.797553
1.17422 -0.0789986 0.8506
1.1489 -0.0085557 0.936786
1.19414 0.03996 0.827222
1.09219 0.0825876 0.954198
1.04021 -0.143234 0.664022
0.998494 0.196581 0.83739
1.10905 0.0542117 0.954308
1.18868 0.0631102 0.762553
1.20034 0.0270689 0.814491
1.0534 -0.0968159 0.965277
1.19643 -0.00363161 0.80307
1.05281 -0.078939 0.978871
1.04377 0.0115908 1.00132
1.13301 0.14835 0.831627
1.14556 0.141582 0.776034
1.00919 -0.201401 0.801815
1.20413 0.00853342 0.778159
1.20322 0.00706951 0.799796
1.01669 -0.0948049 0.626792
1.01677 -0.189317 0.850662
1.18253 -0.0818532 0.804321
1.16354 -0.114476 0.764503
1.014 0.101806 0.630088
1.18792 -0.0467028 0.840612
1.1131 0.0764428 0.660289
1.18575 -0.0219572 0.857444
1.09674 -0.140696 0.697032
1.05859 0.0211163 0.607392
0.998643 -0.200742 0.823917
1.2007 -0.00135578 0.82223
1.0138 0.196613 0.827359
1.00085 -0.13292 0.951748
1.19261 0.0431367 0.784955
1.06257 -0.0577913 0.981304
1.13629 0.0740218 0.666676
1.20108 0.00440986 0.763013
1.07236 0.167782 0.878369
1.14369 -0.0254198 0.664337
1.0149 -0.146741 0.669126
1.12503 -0.121388 0.904604
1.18232 0.0345217 0.718435
1.06373 -0.130643 0.938939
1.18392 0.0744693 0.83758
1.13265 -0.100181 0.906616
0.999759 0.0292455 0.601488
1.00458 0.185802 0.731036
1.18526 0.000265344 0.726037
1.19937 0.00255531 0.813917
1.03947 0.0562812 0.990035
1.19235 0.00945381 0.787862
1.13874 0.133177 0.85778
1.20212 -0.0224277 0.806716
1.09596 -0.044622 0.966743
1.07535 -0.14134 0.923046
1.1665 -0.0932392 0.758453
1.09878 -0.095454 0.652443
1.13501 0.0604319 0.934618
1.16894 -0.0569298 0.714525
1.19498 -0.00318726 0.803971
1.098 0.0975863 0.656235
1.12685 -0.019174 0.95198
1.14151 0.061158 0.670451
1.16845 -0.0831127 0.875289
1.19871 0.00315209 0.802072
1.0028 -0.198155 0.821955
1.18426 -0.0176913 0.872597
1.14099 0.121787 0.716881
1.09961 0.0389677 0.62896
1.09949 -0.166789 0.855032
1.08037 0.165888 0.732362
1.02481 0.193603 0.765981
1.00778 0.0462266 0.993094
1.1721 0.0219427 0.898336
1.01726 0.19222 0.874361
1.07342 -0.00410401 0.985057
1.1941 -0.0261724 0.831427
1.05746 0.191456 0.799635
1.16777 0.100794 0.828763
1.10721 0.162859 0.755105
1.17866 -0.0677354 0.739199
1.16578 -0.117657 0.785831
1.05864 0.191168 0.843282
1.12397 0.128495 0.716517
1.16685 -0.0778192 0.87686
1.1515 -0.0332584 0.9294
1.13748 0.101833 0.698591
1.02828 0.08259 0.980129
1.13572 0.119381 0.879171
1.10997 0.0905315 0.943194
1.19061 -0.0278475 0.74276
1.1837 -0.0784845 0.797115
1.02914 -0.157591 0.914029
1.19433 0.0326045 0.850674
1.19906 -0.00573211 0.815624
1.17657 0.0958134 0.772773
1.18975 0.0756788 0.79688
1.18202 0.0887238 0.786282
1.08099 -0.14284 0.913305
1.04146 0.195467 0.792425
1.18616 0.0277591 0.88064
1.14442 -0.139946 0.792426
1.19413 0.000390627 0.802119
1.12865 -0.0970028 0.914596
1.1705 0.0558549 0.897508
1.17605 -0.0559139 0.722194
1.19282 0.0357599 0.856209
1.12644 0.132556 0.717638
1.17127 -0.0888234 0.75192
1.18203 -0.0515723 0.735154
1.02024 0.0619529 0.604178
1.19503 -0.00664732 0.810828
1.00685 0.0719932 0.61292
1.19436 0.0625971 0.809542
1.18162 0.0629346 0.735309
1.05608 0.155317 0.899436
1.17425 0.0977172 0.831477
1.05099 -0.0308617 0.988672
1.17753 -0.0427471 0.71277
1.08688 -0.0524648 0.634615
1.18527 -0.0465632 0.737924
1.11554 -0.0539177 0.957237
1.20118 0.0188883 0.811144
1.18254 -0.0274078 0.865085
1.19288 -0.0464735 0.75568
1.20022 -0.0343241 0.78812
1.18961 0.0633295 0.840254
1.19729 -0.00501902 0.802728
1.19783 0.0103666 0.793491
1.19468 -0.0247878 0.819135
1.14024 -0.0485551 0.66524
1.01475 0.0580053 0.99157
1.15493 -0.129788 0.820796
1.11716 0.157844 0.84684
1.1894 -0.0299639 0.757028
1.10955 0.00816725 0.969024
1.159 -0.126154 0.781488
1.15875 0.0718221 0.70497
1.19632 0.0464489 0.806949
1.13019 -0.0792777 0.65545
1.14724 -0.13019 0.828608
1.19493 -0.00573661 0.775345
1.05264 -0.18966 0.812791
1.15382 -0.0377245 0.673534
1.01761 0.199966 0.817577
1.01568 0.194935 0.844014
1.18881 0.0163396 0.857336
1.01822 -0.182245 0.720012
1.0497 0.125862 0.648309
1.16391 0.0552984 0.710916
1.1096 -0.0521848 0.9646
1.18747 0.0193491 0.848121
1.15882 -0.124303 0.803487
1.18902 0.0102747 0.747032
1.19213 0.0655581 0.808996
1.13471 0.13013 0.871716
1.15359 0.0422754 0.677676
1.14675 -0.115547 0.731475
1.18946 -0.0572362 0.79404
1.12613 0.104532 0.919983
1.01758 0.190151 0.746895
1.19442 0.00451157 0.809245
1.07365 -0.15817 0.910848
1.12999 -0.00337691 0.9488
1.12052 -0.0924687 0.925048
1.17746 0.0315672 0.723086
1.1621 -0.087816 0.718348
1.20098 0.00912502 0.762489
1.15078 0.132148 0.815258
1.184 -0.076549 0.82475
1.12109 0.0994915 0.678081
1.12714 -0.00197672 0.954123
1.15474 0.0789625 0.693385
1.19867 -0.021036 0.786401
1.19925 -0.0103454 0.78046
1.19918 -0.0215582 0.814427
1.17312 -0.0772827 0.861077
1.19936 -0.00973409 0.83478
1.15106 0.137031 0.836694
1.19475 -0.0454187 0.774232
1.14747 0.0802027 0.688413
1.0165 -0.00509362 0.995866
1.18916 0.0416576 0.759871
1.1222 -0.0500514 0.655197
1.18463 -0.0694671 0.788223
1.19762 -0.0102051 0.802722
1.03628 -0.05127 0.608916
1.04583 -0.0563224 0.985494
1.09492 -0.0331088 0.633802
1.15067 0.108101 0.718138
1.13131 0.149074 0.826455
1.19449 -0.0229985 0.853096
1.16264 -0.0648748 0.90164
1.08587 -0.0699738 0.628398
1.13485 -0.145806 0.818265
1.10095 0.174499 0.778654
1.19373 -0.00148721 0.816757
1.19517 0.0179257 0.827084
1.15336 -0.121296 0.821914
1.02726 -0.0993142 0.973925
1.15162 0.0931556 0.714244
1.06621 -0.142739 0.925376
1.01225 0.169738 0.695786
1.05799 0.185838 0.85706
1.08561 -0.0885157 0.959996
1.10646 -0.146765 0.890619
1.17663 -0.0647412 0.733396
1.15208 0.114589 0.85017
1.19651 -0.00205805 0.788583
1.19447 -0.0064903 0.756135
1.1194 -0.157915 0.825028
1.20088 -0.00478893 0.804461
1.06433 0.0298743 0.986081
1.19134 0.0514454 0.813512
1.13256 -0.123801 0.719756
1.03124 0.17235 0.903059
1.12734 -0.0669078 0.649014
1.16675 -0.0647529 0.719905
1.08448 -0.107835 0.942862
1.1051 -0.16215 0.831541
1.09281 0.064388 0.971034
1.16873 -0.0465185 0.709932
1.19238 -0.0599275 0.797142
1.15526 0.0760478 0.704462
1.06485 0.191342 0.842254
1.16489 0.0903481 0.842205
1.19366 -0.00622943 0.796196
1.14715 0.0378326 0.934072
1.04343 0.154425 0.921908
1.09528 0.00589395 0.627
1.12769 0.145144 0.755149
1.18768 0.0337131 0.752017
1.02034 0.191837 0.815848
1.17143 0.0589159 0.723487
1.1587 -0.0154063 0.684847
1.19314 0.0248842 0.744758
1.15749 -0.0627778 0.685545
1.11194 -0.165948 0.78058
1.09212 -0.0935608 0.649155
1.08929 -0.0284581 0.61554
1.18735 -0.0579438 0.826578
1.19545 0.0058648 0.834673
1.11434 0.112037 0.91916
1.04835 -0.136588 0.933912
1.16802 0.101165 0.844042
1.19385 -0.0188612 0.745735
1.08514 -0.00423289 0.621116
1.04708 -0.157156 0.91609
1.19055 0.0234475 0.798258
1.11039 -0.144219 0.882251
1.06095 0.161315 0.900021
1.12976 -0.150377 0.809845
1.12388 0.0936343 0.929864
1.13103 0.126276 0.721334
1.19428 -0.0111443 0.829538
1.12576 -0.0222969 0.947024
1.03469 0.0680337 0.614027
1.1533 -0.103514 0.743096
1.11658 -0.161086 0.795266
1.19031 -0.0336294 0.769363
1.10578 -0.164117 0.79513
1.12644 0.0981384 0.927892
1.14813 -0.115119 0.872362
1.13834 -0.139749 0.800224
1.1963 -0.00323478 0.802339
1.14899 -0.0912041 0.889544
1.04366 0.0831865 0.62477
1.19768 -0.0324415 0.812149
1.05716 0.0958074 0.633507
1.03492 -0.174889 0.705002
1.16138 -0.0789217 0.715907
1.17717 0.0960282 0.811179
1.14125 0.142804 0.834523
1.19692 0.0208695 0.813181
1.20531 -0.00525722 0.804862
1.2016 -0.0135619 0.792266
1.14514 -0.117165 0.745401
1.19652 -0.0325835 0.789744
1.16918 -0.00570585 0.907002
1.19789 0.0142124 0.771454
1.20204 0.00519757 0.799786
1.16539 -0.102526 0.763537
1.03175 -0.0308629 0.997951
1.09725 0.168287 0.84852
1.13667 -0.133108 0.740723
1.05337 -0.15374 0.923744
1.14018 0.147801 0.802002
1.03636 -0.160057 0.9217
1.14872 0.0493751 0.924462
1.00656 0.199847 0.781275
1.02493 -0.0908435 0.970681
1.14173 -0.126885 0.7573
1.17599 0.100342 0.774472
1.1629 -0.113552 0.766009
0.998554 0.141635 0.939694
1.11628 0.152217 0.854604
1.07815 0.123748 0.942622
1.11093 -0.165993 0.82211
1.16202 0.105842 0.741632
1.04397 -0.173453 0.721482
1.16274 0.0745674 0.714534
1.18608 -0.00914013 0.866945
1.1674 0.103931 0.840098
1.19259 -0.0506647 0.791823
1.20414 -0.0202633 0.828026
1.10007 0.00621847 0.971597
1.05299 0.179447 0.882684
1.13333 0.151703 0.798706
1.19856 -0.0236757 0.822443
1.19374 0.0328721 0.830809
1.20184 0.0151616 0.797677
1.06536 -0.175749 0.724562
1.07546 0.00501322 0.984228
1.1057 -0.032449 0.635688
1.1976 -0.0105146 0.812452
1.19094 0.0357465 0.857179
1.13253 -0.0262741 0.644824
1.1431 -0.13726 0.809039
1.11266 -0.159346 0.845537
1.16605 0.082068 0.876071
1.16052 -0.0229401 0.92425
1.04633 0.190419 0.859889
1.13736 -0.0707171 0.673649
1.08572 0.172044 0.862711
1.07651 -0.00456774 0.985572
1.1568 0.0607402 0.911975
1.06419 -0.182563 0.865289
1.16818 0.0563451 0.892266
1.15393 0.0905336 0.89137
1.09129 0.150707 0.70408
1.18726 -0.0492454 0.83744
1.1429 -0.108837 0.887751
1.18649 -0.02082 0.737013
1.12827 -0.152513 0.788096
1.13843 -0.140063 0.777771
1.17 -0.102526 0.814125
1.14235 -0.0392851 0.661469
1.17776 0.079991 0.757656
1.19703 -0.0218381 0.822831
1.18551 -0.00101683 0.874479
1.11069 0.163981 0.76728
1.19429 0.0197895 0.859608
1.19287 0.0307047 0.752581
1.13237 -0.0619496 0.668047
1.14436 0.0235451 0.662039
1.17113 0.0911459 0.86989
1.03389 -0.0352143 0.992591
1.00637 -0.131879 0.953156
1.19341 0.021702 0.8302
1.19679 -0.00255418 0.773265
1.01692 -0.197324 0.821527
1.1063 -0.165344 0.835973
1.16431 0.0425753 0.91291
1.17827 0.0801113 0.819979
1.05958 0.167568 0.710401
1.06159 0.0600167 0.98853
1.17309 -0.0901369 0.844901
1.10703 0.0733725 0.649313
1.18758 -0.00781733 0.727762
1.20111 -0.00513483 0.839972
1.14631 -0.0423274 0.677419
1.17513 -0.0928052 0.839805
1.19326 0.00394281 0.759021
1.20041 -0.00978143 0.802146
1.07135 -0.168261 0.712013
1.07743 0.162483 0.889309
1.17491 -0.0292723 0.702136
1.14055 0.131806 0.848521
1.12257 0.0527588 0.945951
1.18197 -0.0776919 0.765592
1.15808 0.117729 0.749209
1.17865 0.0259943 0.70687
1.07683 0.00419927 0.987653
1.08591 0.0847833 0.640491
1.02707 0.198957 0.779986
1.19919 0.00242496 0.829418
1.00721 0.106574 0.968903
1.19287 0.0399849 0.752616
1.10491 0.132798 0.700529
1.15131 0.0790987 0.679458
1.16828 0.0941531 0.74154
1.13813 0.0921505 0.688121
1.10217 -0.119257 0.927461
1.17107 0.0923824 0.834119
1.04584 0.0611173 0.612751
1.17478 0.0650499 0.723156
1.15056 -0.0920569 0.882633
1.15456 0.0219794 0.66959
1.20059 0.0144063 0.817625
1.19404 0.00776335 0.810316
1.06954 0.190963 0.787857
1.17108 0.0851788 0.850394
1.16849 -0.0142825 0.687837
1.19654 0.0271476 0.813027
1.00664 0.0560029 0.608621
1.0597 -0.156449 0.908425
1.19212 0.0382937 0.748226
1.09366 0.134445 0.684227
1.18902 -0.0588532 0.782553
1.00334 0.141432 0.944687
1.1355 -0.0861852 0.67481
1.17192 0.106599 0.80798
0.999952 0.147803 0.931033
1.14493 0.0571495 0.920315
1.18959 -0.0549798 0.836997
1.00488 0.0854286 0.620392
1.01347 0.196992 0.83342
1.07963 0.0186276 0.616332
1.1908 0.0123537 0.738169
1.15865 -0.044613 0.68794
1.16464 -0.0648007 0.715746
1.17649 0.0150032 0.881982
1.09343 0.125176 0.926126
1.00589 -0.079898 0.623435
1.10558 -0.136775 0.897374
1.17029 0.104695 0.839876
1.0195 -0.128645 0.946893
1.16201 -0.108347 0.760264
1.1939 -0.0550538 0.784011
1.19657 0.040989 0.786949
1.09819 -0.168556 0.866375
1.13781 0.127252 0.866516
1.20391 -0.000459881 0.798925
1.10941 0.0651106 0.647847
1.03458 0.126723 0.652656
1.194 -0.00363011 0.777718
1.13554 -0.00998656 0.644798
1.18889 0.0649772 0.791116
1.1312 -0.0866172 0.66698
1.19627 0.0266406 0.813263
1.18343 0.0792476 0.82137
1.12751 0.104737 0.90948
1.06421 -0.0316605 0.611703
1.00332 0.160087 0.908123
1.09995 -0.117716 0.924975
1.16772 -0.00785642 0.686466
1.03052 -0.0726798 0.618785
1.18486 -0.0496129 0.751914
1.1073 -0.152018 0.745302
1.02607 -0.00744362 1.00571
1.19233 0.0484509 0.826201
1.19788 -0.00260533 0.775464
1.20361 -0.00279477 0.798683
1.09626 0.00170562 0.978277
1.14327 0.106056 0.714419
1.1706 0.0471646 0.705638
1.11717 -0.113454 0.91535
1.18697 0.0295244 0.84309
1.03878 0.183998 0.863587
1.19419 -0.0405937 0.759731
1.13781 -0.0383949 0.940806
1.00136 0.0557744 0.990499
1.16006 0.118494 0.803719
1.13507 0.132508 0.724791
1.00422 0.155686 0.918349
1.19177 0.0513832 0.777556
1.06968 0.113195 0.657894
1.1658 -0.0707638 0.880355
1.17704 0.0776808 0.849978
1.2017 0.0100414 0.798888
1.1817 0.0742714 0.82359
1.20254 0.0277799 0.780509
1.05442 -0.0423361 0.987654
1.09763 0.0628905 0.955443
1.16588 0.097584 0.837866
1.0438 -0.107979 0.96729
1.18483 0.049802 0.753024
1.19446 -0.0235384 0.816615
1.0623 -0.0998852 0.635314
1.08657 0.111496 0.657575
1.05206 0.0663457 0.620978
1.02724 0.19359 0.831839
1.17319 -0.0915816 0.839157
1.04579 -0.0657823 0.982291
1.14297 -0.0563284 0.670523
1.06721 -0.00630329 0.98039
1.09501 0.106217 0.933072
1.18806 -0.00681023 0.872369
1.08662 0.0424798 0.981312
1.13822 0.108743 0.705242
1.15091 0.0742018 0.692894
1.08317 -0.00569506 0.612283
1.05107 -0.19322 0.781601
1.118 0.0981229 0.67266
1.1898 0.0325434 0.793433
1.10327 0.154846 0.868768
1.00824 -0.140792 0.94114
1.15118 -0.129206 0.748005
1.13638 0.138727 0.753775
1.18691 0.0719497 0.785289
1.07716 0.183904 0.766022
1.07463 -0.172799 0.739194
1.20123 -0.00537353 0.791487
1.15131 -0.0795899 0.704683
1.15518 0.030594 0.924623
1.19372 -0.0416339 0.806942
1.18589 0.00580151 0.882264
1.18105 -0.0389631 0.731137
1.18827 0.0323163 0.748717
1.11387 -0.110734 0.924687
1.03077 0.169282 0.700021
1.18749 0.0524043 0.849148
1.04147 -0.151787 0.920682
1.13586 -0.133924 0.829191
1.16286 0.112287 0.778475
1.20093 0.00996088 0.785188
1.20006 -0.00229488 0.797204
1.18886 -0.0413138 0.820665
1.18774 -0.0286273 0.862747
1.07667 0.171123 0.726635
1.17541 -0.100455 0.78451
1.17589 -0.000449648 0.700596
1.16769 -0.0947947 0.762749
1.13852 0.0664485 0.685396
1.09628 -0.170567 0.854134
1.12919 -0.0864069 0.678224
1.19531 0.0422011 0.796582
1.18907 0.0769476 0.807144
1.09975 0.079252 0.954189
1.20018 -0.0191698 0.824755
1.19996 0.0116964 0.815635
1.19423 0.0109318 0.821795
1.11011 -0.161397 0.847939
1.1988 0.0447518 0.806749
1.06512 0.0566916 0.619828
1.16484 -0.103934 0.832385
1.05707 0.151653 0.922601
1.17803 0.0828791 0.843033
1.11395 0.159604 0.755765
1.14435 -0.0167159 0.938839
1.01976 -0.133027 0.952826
1.16119 -0.1205 0.784119
1.12316 0.151437 0.767275
1.18632 -0.0192026 0.731213
1.18461 0.0649858 0.751147
1.19169 -0.0311399 0.784572
1.20066 0.026247 0.831231
1.08136 -0.159532 0.880203
1.04511 0.0301879 0.99275
1.04328 0.14933 0.923356
1.0573 -0.147194 0.921873
1.1425 0.00119909 0.656048
1.15377 0.0735067 0.696144
1.19467 -0.0101524 0.834976
1.17232 0.0158341 0.692314
1.08103 0.0482093 0.975162
1.01574 -0.0699415 0.613651
1.0628 0.186251 0.799246
1.18536 -0.064738 0.761543
1.07506 0.114946 0.652979
1.19588 0.0320937 0.764545
1.01461 0.066245 0.987474
1.11293 0.1603 0.84543
1.11685 -0.0911268 0.926116
1.1856 -0.0227572 0.719041
1.19138 0.0180636 0.741115
1.09658 -0.149309 0.704652
1.03006 -0.195416 0.8286
1.16851 0.0943288 0.753963
1.08973 -0.136925 0.90765
1.12174 0.00301976 0.641771
1.17434 -0.0215397 0.892105
1.04746 0.167363 0.697389
1.09343 0.152289 0.884092
1.11906 0.131309 0.706934
1.08093 -0.118875 0.661236
1.18905 0.0697912 0.83076
1.09984 -0.107515 0.937284
1.19357 0.0576754 0.767532
1.19284 -0.0312068 0.761994
1.18367 0.0243374 0.869965
1.11682 0.159536 0.821835
1.14905 -0.114484 0.724807
1.19872 -0.00311391 0.804352
1.17046 -0.0490173 0.700895
1.09386 -0.169215 0.830822
1.19081 0.0655642 0.798662
1.13927 -0.0263682 0.662957
1.16901 0.0504405 0.704488
1.09832 -0.00403891 0.625385
1.12999 -0.151903 0.793094
1.12504 -0.0646239 0.936595
1.05952 0.139298 0.667228
1.19576 0.00864928 0.799497
1.06953 -0.158591 0.693554
1.00415 0.190827 0.869864
1.15667 -0.124938 0.78537
1.10779 -0.0860313 0.934773
1.17682 0.0807885 0.776538
1.06521 -0.15329 0.688105
1.05264 -0.0170744 0.612321
1.14283 0.0595372 0.672574
1.16087 0.05221 0.903019
1.11882 0.12016 0.90955
1.07758 0.135656 0.676476
1.19997 0.0281387 0.77929
1.02151 -0.150311 0.928631
1.08806 -0.0861645 0.644798
1.10679 0.135601 0.91282
1.19057 -0.00308275 0.854954
1.1358 -0.108206 0.702554
1.0706 0.17861 0.854663
1.19414 -0.0429103 0.796644
1.10952 -0.0505148 0.638672
1.13042 0.12667 0.88707
1.08709 0.124092 0.933987
1.0271 0.151416 0.679967
1.1893 0.0631277 0.745289
1.19753 -0.0022055 0.808774
1.11452 -0.160162 0.797641
1.10834 0.149149 0.717868
1.17067 0.042285 0.727759
1.14192 0.0865344 0.904781
1.18077 -0.0746627 0.772383
1.08056 0.000420197 0.983699
1.07668 -0.0311669 0.619558
1.03257 -0.179919 0.711415
1.06129 0.175778 0.86234
1.20436 -0.000423135 0.801759
1.19616 -0.0286311 0.759156
1.10513 -0.0846852 0.65494
1.02849 0.044103 0.994768
1.11707 -0.0713471 0.947404
1.19161 -0.0118191 0.847428
1.18717 0.0431627 0.737259
1.19475 0.0151415 0.814613
1.07237 0.0730037 0.627068
1.10409 -0.125776 0.681961
1.09416 -0.135166 0.687042
1.2004 0.00530108 0.821938
1.20183 0.00720716 0.806249
1.03838 -0.109245 0.641649
1.00864 -0.190712 0.865961
1.12966 -0.142607 0.844003
1.14377 0.0707738 0.683588
1.19162 -0.0358159 0.841271
1.09145 -0.117207 0.669911
1.0956 0.0799066 0.646004
1.13065 0.147061 0.848339
1.16453 0.0396563 0.91343
1.19757 -0.0203482 0.822116
1.15254 -0.0949064 0.885482
1.04711 0.195864 0.772702
1.17402 -0.0054234 0.901796
1.14811 -0.129881 0.783695
1.12832 0.115094 0.904078
1.18283 -0.0731246 0.786271
1.13749 -0.14058 0.776838
1.20606 -0.00529719 0.801186
1.12427 -0.152652 0.839856
1.15651 -0.116034 0.830513
1.10863 0.144336 0.873091
1.03788 -0.137733 0.947316
1.06468 0.0916354 0.964345
1.18348 0.0810711 0.831962
1.022 0.192675 0.824442
1.07942 0.0625969 0.971861
1.19323 0.0542726 0.813809
1.17412 0.039625 0.712702
1.20077 0.0014365 0.813915
1.09597 -0.130474 0.924036
1.06711 -0.0333766 0.613658
1.05837 0.0903573 0.970061
1.10486 0.0622073 0.636767
1.18989 0.0525029 0.82753
1.19653 -0.00341481 0.838789
1.19862 -0.0477847 0.821456
1.15812 0.120092 0.820301
1.01864 0.190283 0.730242
1.11101 -0.105434 0.665143
1.06006 0.117754 0.649246
1.00314 -0.18344 0.874391
1.20051 0.0256232 0.804704
1.19503 0.00594734 0.762572
1.19571 0.0556536 0.792356
1.00444 -0.199117 0.777622
1.1097 0.168111 0.793139
1.12566 0.156692 0.808795
1.19657 -0.011332 0.808013
1.18858 0.0436958 0.81077
1.09296 0.176163 0.804056
1.14812 -0.0821599 0.701863
1.13577 0.112007 0.712843
1.03723 -0.0148141 0.603986
1.08347 -0.0037512 0.980818
1.19153 -0.0293562 0.750848
1.02773 0.195499 0.770956
1.20091 -0.0119257 0.798787
1.15669 0.0177995 0.928335
1.18455 -0.0721952 0.747005
1.15391 -0.00945373 0.665537
1.00726 0.184722 0.887719
1.10281 -0.154001 0.713663
1.09843 -0.138531 0.903462
1.18208 -0.0623468 0.836774
1.18694 0.0371338 0.8636
1.0974 -0.174349 0.777166
1.16952 -0.0603644 0.711789
1.12212 0.128298 0.719601
1.20269 -0.00237531 0.797663
1.12779 0.0819255 0.675434
1.14183 -0.027974 0.932728
1.19976 0.0281584 0.778322
1.17889 -0.0193703 0.715091
1.138 -0.0907094 0.908979
1.07251 0.185233 0.807836
1.17304 -0.00190678 0.699688
1.19437 0.00893754 0.761612
1.06277 -0.138447 0.673895
1.20391 0.00356279 0.79715
1.1232 0.0991154 0.923098
1.1049 -0.129446 0.909801
1.14118 -0.128195 0.749465
1.07175 -0.0763087 0.964153
1.18528 -0.0437982 0.788459
1.19866 0.00431451 0.810286
1.18365 -0.0561628 0.863944
1.08567 -0.0237847 0.974815
1.13642 0.130972 0.854329
1.0483 -0.0978126 0.631741
1.09032 -0.165778 0.7253
1.17875 -0.0684243 0.728334
1.18502 -0.0323599 0.7325
1.02721 0.131926 0.653568
1.19992 -0.016789 0.838159
1.12769 0.0230161 0.950623
1.19784 -0.00501626 0.810429
1.1985 -0.0140125 0.836538
1.13022 -0.0729291 0.665826
1.03199 -0.178433 0.878473
1.17198 0.00381528 0.905923
1.00331 0.129986 0.653216
1.08872 -0.180289 0.7572
1.01319 0.169876 0.698506
1.2004 0.00218899 0.828913
1.18922 0.0554596 0.803025
1.1078 -0.159793 0.760413
1.19817 -0.0189303 0.790098
1.06268 0.0749569 0.967419
1.13793 -0.0743727 0.6767
1.19004 0.0523904 0.796844
1.13034 -0.048367 0.657323
1.18675 0.0747861 0.817703
1.18735 0.0129941 0.737304
1.15469 0.0847712 0.705031
1.19358 0.0375883 0.81927
1.1365 0.146632 0.769819
1.1061 0.163422 0.838237
1.03884 0.0899023 0.626536
1.20116 0.00427756 0.789506
1.17778 -0.0894061 0.846619
1.17536 0.0685898 0.856617
1.15195 0.125672 0.829938
1.19085 -0.0669951 0.774432
1.10625 -0.122207 0.679469
1.04263 0.108946 0.96056
1.09708 -0.16527 0.839575
1.02105 -0.148567 0.927635
1.15078 -0.0639115 0.912688
1.15714 0.0997596 0.878454
1.12279 -0.02231 0.643035
1.08159 0.0819452 0.634259
1.19844 0.0119875 0.799308
1.20101 0.00940649 0.801573
1.17288 0.0123456 0.702262
1.14354 0.0961329 0.899578
1.06241 0.174995 0.730408
1.19159 0.0347255 0.762659
1.14451 0.0860354 0.912823
1.13277 0.151201 0.832489
1.19274 0.0135349 0.807377
1.17576 -0.00236188 0.896555
1.15369 -0.0133038 0.675199
1.04035 0.183029 0.876003
1.08054 -0.103417 0.652376
1.19251 0.0577162 0.806064
1.1666 0.0637565 0.713626
1.19685 -0.000811515 0.802783
1.15637 -0.055619 0.899748
1.04385 -0.142969 0.928308
1.12583 0.140146 0.860728
1.11398 0.160322 0.768865
1.11599 -0.0219239 0.958497
1.18781 0.0405312 0.852196
1.13716 0.0926411 0.905221
1.1951 -0.0196109 0.801941
1.02597 0.138278 0.655328
1.20007 0.0411359 0.816807
1.19422 0.0401032 0.775668
1.16266 -0.0720013 0.886093
1.18099 0.0173128 0.72706
1.06873 -0.077503 0.626491
1.16869 0.0845345 0.734913
1.08461 0.166373 0.735325
1.00804 0.135512 0.657342
1.20367 0.00233043 0.79616
1.07125 -0.176975 0.868447
1.18357 0.0186898 0.722023
1.19031 0.0674261 0.808089
1.06725 -0.179566 0.848328
1.19114 -0.0194482 0.820373
1.194 0.00590247 0.741232
1.19151 0.0579876 0.764993
1.18174 -0.0101209 0.88043
1.18409 -0.0635345 0.830107
1.19931 0.00381948 0.791878
1.04238 -0.135432 0.656904
1.19893 -0.00164689 0.788952
1.07128 -0.183276 0.816004
1.07047 -0.150874 0.685454
1.14304 0.143356 0.794737
1.13931 -0.124107 0.858082
1.13302 -0.121523 0.708837
1.14145 -0.0616984 0.919238
1.12801 -0.0945976 0.674648
1.13144 -0.0460996 0.657946
1.14717 -0.028812 0.670895
1.16092 0.0178475 0.922711
1.16159 0.0511911 0.691522
1.16515 0.0820303 0.71516
