ply
format ascii 1.0
comment Created by Open3D
element vertex 1792
property double x
property double y
property double z
end_header
0.555541 0.60072 1.0295
0.973421 0.365129 0.777808
0.651629 0.574817 0.975693
0.904564 -0.439504 0.951133
1.09622 -0.0491973 0.985985
1.0387 -0.259731 0.686809
1.04785 0.259012 0.641862
0.868323 0.474607 0.518885
1.06261 -0.217666 0.760115
0.975118 -0.360933 1.00892
1.1012 -0.0507152 0.594059
1.08195 -0.146551 0.763484
0.768394 -0.532187 0.556492
0.509506 0.606439 0.646841
0.534321 0.597357 0.629975
0.597854 -0.588656 0.629983
1.09993 -0.0178703 1.07484
1.09545 -0.100716 0.668954
0.62575 -0.585827 0.518858
0.677735 0.577487 0.621012
0.907853 0.432585 0.580673
0.923893 -0.414708 0.817349
0.959069 -0.384726 0.941653
1.10144 -0.0417397 0.703131
1.0553 0.225009 0.999951
1.03746 -0.263691 0.806117
1.0664 0.203315 0.699846
0.790981 0.528577 0.573435
0.730477 -0.553625 0.714676
0.75787 0.542343 1.07134
1.03782 0.261981 0.554497
1.06739 -0.202632 0.760097
1.00416 -0.328983 1.03294
0.521577 -0.598296 0.99997
0.813895 0.510681 0.930486
0.801207 0.522857 0.747876
0.826628 0.50079 0.801257
1.09679 0.0400086 0.596274
0.846511 0.491391 0.969499
0.967894 0.378944 1.07234
1.04746 -0.231865 0.822861
0.996269 -0.337966 1.01342
0.790881 -0.520575 1.07148
0.826243 -0.499985 0.966042
0.895985 0.449532 0.610725
0.657734 0.580011 1.08498
0.826104 -0.502038 0.864566
1.09953 0.00668544 0.731022
0.763861 0.53905 0.582729
0.972919 -0.373089 1.10389
1.09596 -0.0931671 0.946159
0.900351 0.453062 1.04604
1.0144 -0.316863 1.04184
0.625799 -0.585282 0.654309
0.515479 0.604528 1.0795
0.737068 0.546438 0.832128
0.708441 0.561001 1.07649
0.612884 -0.585797 0.515139
1.09522 0.00952474 0.663296
0.532844 -0.60293 0.639827
0.93591 0.409255 0.94481
1.04564 0.248199 0.565422
1.07252 -0.18342 0.503747
1.10287 0.0141577 0.770791
1.01114 0.32475 1.07074
0.507269 0.597776 0.584441
1.08206 -0.142444 0.777073
1.00362 0.333156 0.948484
0.549307 -0.590049 0.687596
0.964511 0.372485 1.09396
0.973089 0.368705 1.07487
1.00219 0.334878 0.652889
0.977547 -0.358844 0.612178
0.635926 0.584429 0.556049
1.07748 -0.146951 0.844139
0.871348 0.473034 0.834584
0.896858 0.448055 1.07547
0.996002 0.326016 0.882528
1.01699 -0.298957 1.05555
1.06653 0.21499 0.95754
1.09603 -0.0766564 0.864192
1.08851 -0.119711 0.551162
0.929039 -0.417819 0.97376
0.943401 -0.416057 0.814814
0.914332 -0.440089 0.89341
0.922884 0.42606 0.635718
1.04775 0.252347 0.752223
0.834779 -0.503783 1.01268
1.08936 0.099109 0.507603
0.819777 0.505718 1.05163
0.899377 -0.444818 0.843416
1.07906 0.145075 0.612186
0.85535 -0.48275 0.515731
1.00194 0.330796 1.09581
1.03473 -0.2769 0.519521
0.606776 -0.591881 0.550069
1.00745 -0.316692 0.864521
1.10624 -0.00553934 0.980778
0.897707 0.446733 0.727058
1.02154 -0.291438 1.03438
1.08592 0.0922312 0.922636
1.09883 0.0749624 1.00501
1.08195 0.136347 0.983475
1.05397 -0.220047 0.583384
1.09136 0.0906024 0.910226
0.931345 0.416472 0.598645
0.969384 0.368703 0.839721
0.931847 -0.417892 0.928311
1.08551 0.106915 0.756875
0.895956 -0.445241 0.596276
0.946257 -0.399659 0.771313
1.0369 0.25397 0.77308
0.779361 0.534761 0.864413
0.711757 -0.563252 0.814252
1.08176 0.116936 0.780242
0.921597 0.429436 0.635629
1.08763 0.140084 0.857563
0.943682 0.40278 0.698044
0.556213 0.595617 0.666817
0.628353 0.586801 0.562994
1.07535 -0.178572 0.88054
0.736724 0.549733 1.07983
0.911026 -0.4451 0.794096
1.09793 0.0478755 0.884425
0.850315 -0.489265 1.07016
1.05252 0.243763 1.07766
1.09161 -0.0975293 0.609937
0.834773 -0.491142 0.920909
0.743779 -0.549875 0.623786
1.08368 0.11597 0.699943
1.07491 0.17064 0.508739
0.897221 -0.449531 0.998887
1.10254 0.00512394 0.51975
1.09032 -0.0934533 0.720881
1.03704 -0.263597 0.804123
1.09495 0.0860703 1.04711
0.943429 -0.3985 1.04999
0.688255 0.565774 0.537682
1.05878 -0.211405 0.597786
1.03368 -0.28257 0.830075
0.836212 -0.494013 0.514686
0.826114 0.502583 0.883779
0.737725 0.549631 0.611127
0.95423 0.392254 0.786884
0.679417 -0.574816 1.0892
1.04686 0.247842 0.539079
1.09909 0.0514795 0.58721
0.734071 0.559057 0.652653
0.831815 0.501036 0.630218
0.583138 -0.594079 0.549189
0.797761 0.513089 0.704939
0.999701 0.327784 1.06099
1.06178 -0.221263 0.739547
1.09826 0.0652362 0.792027
0.987006 0.350266 0.895584
1.08496 0.125883 0.505203
1.02328 -0.289377 0.879793
1.08639 0.105883 0.680794
1.0979 -0.0743414 0.957493
1.09422 0.0801884 1.01274
0.615414 0.589888 0.886475
1.09456 0.10736 0.627048
1.08162 -0.148545 0.59755
0.844221 -0.493698 0.547441
0.546863 -0.597895 0.696681
1.02191 -0.297476 1.0349
0.997179 0.326553 1.01902
0.553399 0.596548 1.08969
0.708113 -0.561927 0.725899
0.929097 0.42265 0.742692
1.0395 -0.266241 0.723961
0.762105 0.53818 0.574082
0.889676 -0.457617 1.04711
0.557062 0.5995 0.664943
0.620126 0.58978 0.653671
0.818678 0.50943 0.773351
0.849958 0.487202 1.06586
1.10051 0.0727248 0.784731
0.875492 0.468802 0.514008
0.655921 -0.579319 0.920966
1.06101 -0.207899 0.879389
0.917854 0.437343 1.00839
1.10629 -0.0332219 0.90069
0.522749 -0.596692 0.698771
0.727689 -0.556081 0.779892
0.768775 -0.542641 0.625126
0.948794 0.398908 0.674497
0.73631 -0.549347 0.918808
1.0754 -0.160877 0.810038
0.949155 0.38468 0.803241
0.750321 -0.547924 0.892045
0.911966 -0.435282 0.716889
0.893527 0.455585 0.874996
0.685579 -0.575749 0.821863
1.02834 0.286671 0.533717
0.77814 0.531658 0.681414
1.03977 -0.250141 0.519029
1.09016 0.14004 0.582296
0.977728 0.356716 0.834435
0.823218 0.503569 0.882425
1.09536 0.0850722 0.735713
0.772205 0.533938 0.572515
0.841094 0.495189 0.760189
1.09441 -0.0461131 0.94517
0.789737 0.526696 0.547101
1.02731 0.289551 0.97968
0.630839 0.583272 0.837261
0.777077 -0.533822 0.739765
0.899658 -0.444082 1.07224
0.772943 -0.534454 0.826901
0.727295 -0.557015 1.08194
0.922747 -0.432784 1.01627
1.00461 0.325608 0.881533
0.779013 0.522993 0.528578
0.972682 0.363596 0.678173
1.04182 -0.254802 0.530598
0.661528 -0.581295 0.918652
0.633614 -0.588321 1.04974
1.09918 -0.0226398 0.921943
0.761143 0.540573 0.622497
1.00862 -0.317213 0.948569
0.846306 -0.490232 0.620187
0.76797 0.535423 1.06574
0.730165 0.547171 1.08729
0.611767 -0.585905 0.636734
0.55649 -0.597972 0.706173
0.968265 -0.379993 0.837806
0.881277 -0.463892 0.705931
0.628297 0.580914 1.01049
0.876068 0.46825 0.85586
1.01606 0.303008 1.05907
1.05651 0.223353 0.55494
0.586419 0.592481 0.570578
1.03784 -0.276912 0.534636
0.896592 -0.457555 0.958354
1.10372 0.0336067 0.573411
0.733387 0.550128 0.977792
1.03388 -0.277645 0.684768
1.08227 0.141594 0.820876
0.627877 0.584903 1.08102
0.883168 -0.459047 0.668368
0.95502 -0.398455 0.509256
0.797028 -0.521258 0.71284
0.512806 0.596314 0.68421
0.889027 0.45678 0.687575
0.914418 0.428879 0.950785
0.910493 0.433198 0.7781
0.968706 0.377939 0.860329
0.963923 0.379944 0.969003
0.823061 0.500967 0.560033
0.963745 -0.377586 0.925192
0.652092 0.575447 1.03183
1.05564 -0.219836 0.878349
0.590249 -0.588907 0.759305
1.09082 0.10235 1.01582
1.06984 -0.184236 1.06639
1.06822 0.199147 1.08454
0.860979 -0.4829 0.94545
0.898529 -0.448973 0.962134
0.801769 -0.516105 0.670811
0.764591 -0.540524 0.748102
1.10041 0.0727506 0.572959
0.728735 0.559099 0.943302
0.72512 -0.556881 0.989378
0.604531 -0.592751 1.07223
0.851768 0.491133 0.67131
0.823633 -0.504503 0.535113
1.03154 -0.273421 1.03647
0.742349 -0.546309 0.837625
1.09862 0.0347655 0.633503
0.712357 -0.55497 1.01172
1.07947 -0.15587 0.960797
0.855431 0.480551 0.841673
0.737528 -0.548483 1.07229
0.968715 0.376843 0.518082
0.972257 0.36818 0.946746
0.770972 -0.52814 0.655347
1.08932 0.111036 0.678508
1.0938 -0.0795885 0.779363
0.681559 -0.573924 0.975966
0.974427 -0.355185 0.632095
1.07494 -0.171702 0.590183
1.05811 -0.204541 0.962289
0.684448 -0.570612 0.638938
0.768274 0.539891 0.580944
0.865235 0.478073 0.78219
0.57391 -0.600417 0.519305
0.887914 0.453522 0.968609
0.784054 -0.527518 1.07517
1.07784 0.160507 1.08665
0.606564 0.591186 1.08424
0.944317 -0.403308 0.723531
1.09951 0.0172905 0.731709
0.901192 -0.45095 0.830656
1.08065 0.153537 0.866701
1.01799 0.312495 0.85098
0.880627 0.466789 0.641152
1.04608 -0.233706 0.50634
1.09814 0.0726519 0.982222
0.934301 -0.417187 0.831777
1.04406 -0.261919 0.540529
0.927877 0.42078 0.688357
0.660588 0.576417 0.95048
0.945141 0.402803 0.711844
0.88429 -0.466735 0.726979
0.807239 0.509267 0.741661
0.694007 -0.566381 0.59783
0.864169 0.472306 0.532021
0.668141 0.5758 0.630791
1.00947 -0.321559 0.883902
0.533123 -0.598043 1.01931
0.62631 0.58633 0.876177
0.89392 0.456945 0.519631
0.542446 0.598138 0.54569
0.908381 -0.445098 0.91227
1.08212 0.143325 1.05496
0.635914 -0.587142 0.57184
0.583254 -0.596589 1.05796
1.08208 0.137857 0.779041
1.06606 0.187653 0.808144
0.840691 -0.494992 1.0195
1.10003 -0.0424016 1.04152
1.08777 -0.105934 0.566123
1.09801 0.0459836 0.825405
0.593648 -0.590828 0.880038
0.764174 -0.538331 0.839806
0.912728 0.441356 1.08526
0.658344 0.57634 0.74204
0.618845 0.586414 0.717563
1.05077 0.244052 0.771406
0.923434 0.432249 0.941702
1.10236 -0.0135365 1.10215
0.749382 -0.54373 1.05783
1.04695 0.252936 0.57477
1.05454 -0.229182 0.557203
0.624666 0.590049 0.700325
1.0399 -0.268714 0.64256
1.09298 0.077297 0.717233
1.04285 0.262062 0.607863
0.810643 0.515374 0.693114
0.923899 0.424232 0.893994
0.964757 -0.378984 0.90394
0.837966 -0.495397 0.770231
0.649682 0.588449 0.894531
1.10061 -0.0477097 1.01621
0.70901 0.561445 0.817259
0.996873 -0.337185 0.601928
1.08358 0.137321 0.960962
0.733033 -0.554994 0.887417
0.79469 -0.518314 0.596341
0.950295 0.394642 0.526519
0.945048 -0.404756 0.655569
1.06577 0.187652 0.77339
0.685196 0.567092 1.09634
1.06328 -0.196543 0.866553
1.01841 0.299503 0.770716
1.06114 0.198266 1.02535
0.737228 -0.555711 1.06655
0.683694 0.568664 0.773846
0.90772 0.443848 0.871566
1.09318 0.0944847 0.618826
0.887548 -0.460475 0.905539
1.07134 0.18209 0.95944
0.571902 -0.596978 0.88689
1.03038 -0.277448 0.610206
1.02352 0.297015 1.00372
1.03344 -0.282317 0.677833
1.05214 -0.233461 0.740075
0.614808 0.589907 0.613268
0.755738 0.541104 1.08736
0.809127 0.514477 0.643925
1.09308 0.125228 0.946879
0.866916 -0.479664 0.529126
1.05931 -0.223108 0.735886
0.696098 0.566696 0.92735
1.10206 0.0122025 0.993593
0.507664 0.602177 1.00975
0.95274 0.39505 0.620225
0.717438 0.556958 1.04894
1.04179 -0.266509 0.539947
1.06822 0.1942 1.05134
0.878369 0.465374 0.565742
0.982499 -0.365111 0.73814
1.0974 -0.0590918 0.591216
0.744827 -0.550984 0.979325
0.55468 -0.591691 1.09972
1.03999 -0.26004 0.902401
1.05003 -0.244759 1.07463
0.815117 -0.514023 0.497585
1.05241 -0.234186 0.881828
0.930092 -0.416243 0.70297
0.519236 0.601324 0.964908
0.533199 0.596688 0.902921
1.04393 0.253452 0.876539
1.08656 -0.142845 0.679341
0.867096 0.47849 0.959136
0.955464 0.395346 0.71763
0.842347 -0.49542 0.588734
1.06969 -0.192337 0.921268
0.851907 -0.48551 0.518608
1.0577 0.221167 0.832661
0.911263 -0.430251 0.557895
1.065 -0.194341 0.499455
0.569115 -0.594939 0.753997
0.956718 -0.382453 0.960527
0.634416 -0.589221 0.824918
0.756114 0.531471 0.700857
1.00053 0.326804 0.583703
0.757498 -0.53769 0.982545
0.837774 0.489258 0.892823
0.5398 -0.600147 1.01716
0.645329 0.586555 0.757634
1.015 0.312768 0.991113
0.584022 0.594981 0.899791
1.07515 0.191842 0.831003
0.536326 0.598666 0.612785
1.10221 0.00247978 0.761135
1.0512 0.229565 0.697969
0.990615 0.342138 0.881849
0.762951 0.541109 0.837116
0.910759 0.437662 0.866691
0.918053 -0.437336 0.856987
0.669695 0.576464 1.0435
1.1041 0.0233647 0.521535
1.09907 0.0818451 0.850669
0.87115 -0.473041 0.793803
1.09898 0.0342768 0.721746
0.527927 0.59873 0.75076
0.532506 0.601038 0.891188
1.0966 0.0885088 0.76308
0.863655 0.478146 0.881524
0.926491 0.415309 0.992612
1.03099 0.283757 0.685727
1.06352 0.209898 1.0694
0.905048 0.439721 0.752352
1.01959 0.292806 0.716759
1.05842 0.23377 1.09382
0.917598 0.435267 1.03547
1.01143 0.3162 1.03562
1.06634 0.197458 0.811455
0.840128 -0.496204 0.587364
1.09619 -0.0754203 0.534776
1.04471 0.249194 0.710418
1.08414 -0.136635 0.647644
0.928666 -0.41885 0.611054
0.774293 0.532996 0.873412
0.711238 0.560588 1.00973
0.623049 -0.591704 1.10328
0.980614 0.365582 0.651123
0.619345 -0.591372 0.954995
0.666929 -0.571453 0.57947
1.09475 -0.0227019 1.04316
1.04177 -0.256644 0.60338
0.840757 -0.490587 0.991261
1.07405 -0.183358 0.581271
0.976051 -0.366575 0.882673
1.0828 0.134805 0.93973
1.06417 0.200615 0.752982
0.625045 -0.585129 0.958259
0.815025 -0.511223 0.944816
0.686094 -0.571789 0.668575
0.51089 -0.598609 0.615662
0.526171 0.600023 0.567908
1.02576 -0.299507 0.634654
0.811694 0.503134 0.847038
1.09489 0.0857284 0.513485
0.694207 -0.568306 0.503586
0.593562 -0.596393 0.932201
0.596459 -0.590022 0.884453
1.06112 0.208533 0.830494
1.09759 -0.0391762 1.02768
0.899883 -0.442524 1.044
1.08977 -0.0844331 0.666735
1.01359 -0.317216 0.54724
1.05913 -0.216702 0.884405
0.732336 -0.555479 0.841857
0.926425 0.419882 0.863059
0.778788 0.536244 0.877084
1.10095 -0.0390468 0.936168
0.905348 0.448099 1.08486
0.584229 -0.589138 0.615743
1.01328 -0.313235 0.656793
1.09214 0.113194 1.00249
1.0475 0.25006 1.06083
0.624251 -0.587668 0.960267
1.04247 0.259868 0.990682
0.618906 0.589432 0.75422
1.08187 0.159104 0.870762
0.691309 -0.570272 1.01554
0.917701 0.434564 0.61171
0.947731 0.390075 0.808183
1.10001 0.00849109 0.817645
0.726544 -0.555244 0.672321
1.0943 0.0484772 0.612365
1.09924 0.0484916 0.822751
0.836209 0.501149 0.781376
0.692451 -0.56979 0.978356
0.583285 -0.599305 0.791852
1.07787 -0.158495 0.540995
0.940261 0.41451 1.03989
0.990237 -0.350466 0.864203
0.710953 0.563296 0.648274
0.739506 -0.545454 0.937447
1.02493 0.285968 0.516513
1.07659 -0.149297 0.81036
1.09172 -0.108106 0.861037
1.07539 -0.170742 1.06638
0.751768 -0.550236 0.929978
0.649086 -0.57497 0.632138
1.08325 0.173842 0.712034
0.509641 -0.602776 0.796527
0.674049 0.576683 1.07151
0.988194 0.349862 0.611477
0.9722 0.363466 0.877292
0.710265 0.561152 1.08956
0.57193 0.597899 0.811964
0.977988 -0.366122 1.03284
0.511057 -0.601956 0.507591
0.766913 0.53338 0.669918
1.09075 -0.097544 0.904105
0.782844 -0.529766 0.913794
0.736818 0.551096 0.509984
0.878261 0.469419 0.770889
0.539809 -0.599888 0.652876
1.04883 0.241134 0.917946
1.06481 0.18823 0.72054
0.80373 -0.516237 0.848495
1.09515 -0.0781874 1.05081
1.09052 0.128668 0.79432
1.08567 0.151059 0.902072
0.948613 -0.395267 0.986706
1.10292 0.040436 0.777845
1.09153 -0.0691299 0.764325
0.523407 -0.603414 0.692064
0.500587 0.601431 0.633552
0.540294 -0.595454 0.737421
0.623101 -0.586124 0.749943
0.549776 -0.599374 0.852104
0.914623 0.432669 1.01395
1.08347 -0.142583 0.828399
1.09905 -0.0628659 1.03443
1.09336 -0.036214 0.852765
0.918396 -0.426114 1.03267
1.03806 0.27301 1.02556
0.647392 -0.583295 0.77473
1.09959 -0.060341 0.926409
0.532244 0.602826 0.507565
0.711339 0.559197 0.927152
0.854801 -0.491452 1.0036
0.768095 0.532454 0.804658
1.09562 0.023411 0.594324
0.797463 -0.517303 1.01085
0.548715 -0.598125 0.510431
0.712557 0.561449 0.55793
1.09816 0.0314306 0.983066
1.09054 0.120933 0.730466
0.894895 0.444163 0.908945
0.578252 -0.601421 0.597564
0.999298 0.318328 1.00412
0.599712 -0.591807 0.734761
0.747868 -0.547325 0.851399
0.602157 0.593504 0.763697
1.03634 0.273109 0.559884
0.82954 0.503875 0.680817
0.669595 0.572926 0.527029
1.03947 -0.265349 0.506346
1.09034 0.13201 0.660683
0.875155 0.467386 0.663618
1.09191 -0.12225 0.810446
0.81874 -0.513329 0.651961
0.857332 0.481072 0.528123
1.09733 0.0552633 0.789582
1.00642 -0.32705 0.639536
1.01775 0.30546 0.845755
0.672768 -0.570426 0.692707
0.57673 0.59089 0.981836
0.89367 0.451005 0.563767
1.07228 -0.187091 0.828961
1.08458 0.160055 0.640846
1.10251 -0.0393616 0.711076
0.905709 0.446833 0.980169
1.00065 0.337567 0.726081
0.89587 -0.448218 1.02419
1.10008 0.0785119 0.68663
0.820611 -0.506267 0.744616
0.853157 -0.483791 1.01027
0.909273 0.440654 0.773825
0.513572 -0.602007 0.597573
0.665775 -0.573488 0.516946
1.1024 0.00317426 1.08761
0.804907 -0.518656 0.969224
0.929734 0.420132 0.951879
0.59798 0.588649 0.971371
0.775247 0.532802 0.963834
0.589021 0.592796 0.80616
0.854004 0.483417 0.718999
1.00182 0.329803 0.648765
0.874295 0.471873 0.593012
1.04723 0.249401 0.506888
1.01612 0.297264 0.563363
0.60716 -0.589838 0.854802
0.829129 -0.497444 0.692056
0.92779 0.416685 0.806934
0.989842 -0.344172 0.587675
0.527128 -0.594924 0.753494
1.04718 0.245197 1.09643
1.09964 -0.037148 1.0754
0.946825 -0.403539 1.06968
1.10163 -0.0313198 0.718813
1.05473 0.215438 1.09804
0.661626 -0.574168 0.523339
0.880007 0.465379 0.733618
0.536475 0.59257 0.998454
0.797192 0.520567 0.507626
0.537318 -0.596676 0.791216
0.932659 -0.412215 0.908204
1.09504 -0.0843172 0.781191
1.01511 0.310783 0.553664
1.09825 -0.0522841 0.686364
1.10203 0.0015998 0.519097
0.622884 -0.585821 0.688626
0.983055 -0.350854 0.669968
0.5527 -0.59579 0.698661
1.09722 0.0264921 1.09022
1.09993 0.00688085 0.600216
1.01601 0.310812 0.754052
0.792184 0.522656 0.530567
0.536659 -0.600189 1.08211
0.561221 -0.594556 0.575044
1.01905 0.290426 0.940786
1.01726 -0.304115 0.904687
0.566124 0.595177 0.654625
1.09753 -0.0914599 0.970459
0.838151 0.498103 0.942574
0.643447 0.576886 1.00221
0.639671 -0.582401 0.954686
0.58092 -0.596473 0.673216
0.719952 0.55143 0.622176
1.04942 -0.242774 0.798186
1.04859 -0.237914 0.935581
1.09371 0.107504 1.08056
0.6387 -0.584575 0.53419
1.09908 0.00428699 0.706831
0.513998 0.600062 0.932633
0.704141 0.561162 0.89199
0.980619 0.350553 0.720501
0.613915 -0.588136 0.852084
0.963541 -0.376597 0.986496
1.00242 0.330748 0.999797
0.702128 -0.56225 0.725455
0.749759 -0.548542 0.6041
1.05812 -0.223839 1.03618
0.598721 0.592006 0.611747
0.982683 0.356412 0.713531
1.09753 0.0720992 0.50833
1.10151 -0.0436922 0.573731
0.939377 -0.408825 1.01984
1.06009 0.232444 0.76719
1.07881 0.144703 0.970745
1.07469 -0.16083 0.671844
0.869465 -0.474081 0.766432
1.0297 0.283586 0.952923
0.689522 -0.567225 0.689321
1.07493 0.173612 0.63067
1.08921 -0.121124 0.686541
1.05183 -0.234286 0.802799
0.5131 0.595067 0.70206
1.02982 -0.283577 0.688267
1.09295 -0.0396577 0.741512
1.04442 0.269842 0.707199
0.558406 0.599113 0.568396
1.09771 -0.000229589 1.06495
0.830276 -0.49892 0.926812
0.578675 0.593622 0.700218
0.537775 0.598445 0.937771
1.06562 0.199493 0.789988
0.556968 -0.597182 0.90567
1.08818 0.101323 0.712485
0.841661 0.49075 0.703651
0.578823 0.592801 1.03565
0.737307 -0.554135 1.00091
0.912383 -0.437951 0.945046
1.09292 0.086519 0.64872
0.795015 -0.522208 0.541057
0.839433 0.498704 0.905616
0.822508 -0.510719 0.725493
0.660787 0.581833 0.595532
1.05131 -0.236361 0.579257
1.0096 0.317656 0.590511
1.08867 -0.102215 0.871567
0.839348 -0.494513 0.973729
1.05329 0.254953 1.03538
1.08969 0.122085 0.923043
1.0188 -0.305484 0.873194
0.69839 -0.568126 0.831104
1.07094 -0.171355 0.957196
0.866488 -0.473969 0.707391
1.07676 0.151133 1.06606
0.721533 0.552549 0.637091
0.745874 -0.547362 1.03694
1.04617 0.245663 0.889225
1.09305 0.0196984 1.03093
0.919108 -0.423871 0.895992
1.03075 0.277485 1.00262
0.965119 0.383056 0.869102
1.01483 -0.309601 0.610045
0.547548 0.601227 0.980725
0.796628 0.518385 0.70679
0.937073 -0.414593 0.947359
1.10002 0.0463929 0.752409
0.816506 -0.510539 0.698409
0.797831 -0.518239 1.04699
1.05911 0.214725 1.07372
0.643376 0.578829 0.890348
0.731271 0.553999 0.709296
0.84696 -0.481479 0.672444
0.557292 -0.596334 0.665154
1.05689 -0.23331 1.09544
0.816618 0.505906 0.948498
0.840504 -0.496349 0.624097
0.856489 0.480727 0.613113
0.912345 0.442347 0.992492
0.94233 0.406497 0.703901
0.840339 -0.497256 0.603671
0.523716 0.601098 0.504363
1.07427 0.150703 0.838778
1.08448 -0.137068 0.903121
0.976121 0.372618 1.03252
1.05793 -0.21727 0.94823
1.00776 -0.310896 0.515308
0.814281 -0.512191 0.922021
1.09264 -0.105587 1.01596
0.999027 0.330197 0.697976
0.584369 -0.594204 1.05592
1.0657 -0.203479 0.544873
1.09302 -0.0570579 0.585016
0.805988 -0.511772 1.05702
0.812917 0.518756 0.87576
1.09278 0.0881858 0.892768
1.09027 0.110071 1.08716
0.910977 0.44049 0.542528
0.759419 0.541627 0.512928
1.06296 0.206881 0.596248
0.706435 -0.56368 0.659764
0.698511 -0.568049 0.922783
1.09689 0.036685 0.644172
0.505503 0.597269 0.660608
1.08394 -0.147472 0.869847
0.988267 0.342035 0.964671
1.0672 0.187579 0.85548
1.0732 0.185885 0.505075
0.846477 -0.490255 0.764122
1.05278 0.233426 0.842902
0.689404 -0.569852 0.831945
0.748211 0.547063 0.784473
0.76182 0.537798 0.679506
1.0413 -0.254086 0.836999
0.865919 -0.476693 0.978613
0.887375 0.454738 0.592338
0.602906 -0.598014 0.975904
1.08718 -0.0954628 1.00772
0.883029 0.46 0.757749
0.987455 -0.344774 0.812331
0.699076 -0.566097 0.587709
1.0124 -0.31612 1.03698
0.906404 -0.440993 0.669895
0.804975 -0.517559 0.920028
1.10418 -0.0201083 1.08851
1.04502 0.24122 0.916192
1.03324 -0.286664 0.606847
0.864304 0.483265 0.873102
0.808024 -0.519854 0.581897
0.607391 -0.582111 0.827379
1.03714 -0.258274 0.682506
0.630389 -0.580656 0.781621
0.883741 -0.46016 0.551528
0.825088 -0.509845 0.527825
1.0663 0.202839 0.71372
0.758448 0.542818 0.658298
1.03122 -0.278747 0.539866
0.645333 -0.581632 0.565292
0.975138 0.362525 0.754561
0.856519 -0.482973 0.919884
0.862684 0.481021 1.03118
0.619261 -0.586671 0.711965
0.507086 0.602331 0.908575
1.06336 0.191622 0.821916
1.06687 0.207761 0.523335
0.863689 -0.4782 0.694378
0.600637 0.589907 1.08342
0.898228 -0.455555 0.978258
1.00297 0.329127 0.964449
0.951016 -0.39774 0.759563
1.00818 -0.319795 0.757669
1.02604 0.29252 0.955477
0.718648 -0.557211 0.531557
0.929612 0.419414 0.803442
0.498647 -0.603197 0.605661
1.04795 0.240345 0.887813
0.600464 -0.595549 0.693507
0.9221 0.435654 0.988176
1.06287 0.210528 0.818105
0.775271 0.538629 0.527949
1.06535 -0.199376 0.699285
0.903681 -0.442065 0.835469
0.721205 0.557859 1.07174
0.657989 -0.584487 0.754618
0.897085 -0.452788 0.802858
0.914903 -0.428621 0.80956
1.03355 0.269038 0.924803
0.980989 -0.35902 0.626708
1.09794 -0.0380777 0.887708
0.902228 -0.442848 0.96582
1.07746 -0.165588 0.978381
0.805087 0.513934 0.622241
0.577423 0.593065 0.715987
0.899525 0.445112 0.644417
0.903135 -0.446823 0.776279
0.838591 -0.497939 0.762048
1.08907 0.104374 0.926812
1.09221 0.109064 0.889416
0.679788 -0.573821 0.967537
0.626229 -0.588773 0.880792
0.809812 0.51304 0.502928
0.987132 0.344721 0.967614
1.05858 0.215453 1.00022
0.904461 -0.438236 1.06431
0.959685 -0.392062 0.732108
0.695101 -0.564554 0.844084
0.975211 -0.367172 1.08918
1.08892 0.10948 0.758
0.73041 0.551677 0.996609
0.561145 0.595999 0.959755
0.613875 -0.588694 0.569895
1.03027 0.282871 0.529955
0.707877 -0.564708 0.639347
0.792036 -0.528304 0.690352
1.10387 0.0537673 1.08172
0.520232 -0.602346 0.625788
1.03117 -0.279511 0.833886
1.09407 0.0876022 0.635166
0.741942 0.553716 0.896065
1.07553 -0.155758 0.927554
1.02014 -0.29505 0.541121
0.699355 -0.563142 0.723085
1.03084 -0.291838 1.07171
1.09127 -0.0816104 0.883431
0.676308 0.573367 0.940397
0.960041 -0.386489 1.08651
0.868915 0.472285 0.519353
0.969623 0.371212 1.04056
0.885954 -0.458194 0.941988
0.755409 0.54121 0.898849
1.08374 -0.132178 1.0356
0.921025 0.424108 1.07832
1.08611 -0.125189 0.815176
0.646344 -0.587435 0.615525
0.953382 -0.3964 0.686171
1.05802 -0.210719 1.00098
0.684257 -0.570606 0.638724
1.10011 -0.0360172 1.04394
0.576294 -0.597555 1.02582
1.03192 0.271438 0.72835
0.808797 0.513859 0.948052
1.07854 -0.157616 1.02456
0.873074 -0.471445 0.694648
1.06582 -0.198729 0.858868
0.984854 0.34618 1.03075
0.733955 -0.549292 0.657349
1.03448 0.263263 0.511198
1.06793 0.177872 0.841136
0.790487 -0.521777 0.64377
0.717693 -0.556482 0.53309
0.788071 0.533715 0.697907
1.09575 0.00283496 0.942328
1.1018 -0.0135872 0.686398
0.955068 -0.388666 0.892073
0.520921 -0.5994 0.892064
0.945314 0.39746 0.554342
1.0955 0.0841541 1.05585
0.750237 -0.543256 0.672985
1.09553 -0.000373115 1.07741
1.09276 0.0901833 0.617344
0.739267 -0.547027 0.838721
1.10135 -0.0119403 0.968592
0.641762 0.583353 0.959495
0.56859 -0.592595 0.961689
0.714054 0.55691 1.07385
1.0923 0.0887706 0.770615
1.03753 0.268159 0.760176
1.05175 -0.22866 0.542659
1.09043 0.111971 0.547352
0.83706 -0.496529 0.593053
1.03758 -0.262781 0.614564
1.03336 0.27767 0.74495
1.08998 0.116215 0.691674
1.09892 0.00613174 0.902008
0.967941 -0.384478 0.540894
1.0934 0.0872507 0.865857
1.07406 0.165445 0.677966
0.736014 -0.549613 0.6737
0.989358 0.348023 0.754744
1.06169 -0.195533 1.02899
1.01026 0.316039 1.05069
0.939937 -0.408777 0.673871
1.09826 -0.00512272 0.641212
0.661059 0.579973 0.810284
0.882864 0.463567 1.05335
1.09529 -0.0831441 0.525142
0.881621 -0.460809 0.81145
0.821005 -0.507708 0.51215
1.07228 -0.175148 1.0483
1.07867 0.153439 0.630541
0.612789 -0.591848 1.09631
0.513903 -0.598645 0.985933
0.723171 -0.551601 0.843045
0.878014 -0.468536 1.02671
0.964609 0.378501 0.541341
1.06749 -0.191233 0.605241
0.657235 0.580735 0.537863
0.824339 0.5038 0.986484
0.948169 0.400038 0.855228
1.02683 0.282886 1.08327
0.578747 0.596522 1.02701
0.524668 0.597336 0.891278
0.530987 -0.600496 0.580366
0.81192 0.510382 0.79384
0.519721 0.602174 0.765976
0.516984 0.599609 1.07914
1.07895 0.176307 0.697799
0.804674 0.512554 0.865164
0.874134 -0.462941 0.640742
0.983174 -0.356716 0.79959
0.641244 -0.584521 0.841842
1.08191 -0.142048 0.596428
1.08953 0.0889225 0.813561
0.984761 0.35389 0.627755
0.589205 0.596522 0.733126
0.853311 0.48727 0.790246
0.715876 -0.56267 0.883749
1.01307 0.31145 0.7635
1.08711 -0.141084 0.88568
0.542352 -0.594629 1.05384
0.67121 -0.57804 0.663887
0.911887 -0.440809 0.610794
0.985313 0.356383 1.00355
1.09273 -0.0738238 0.991328
1.05133 0.236958 1.01548
0.926319 -0.423237 0.723091
0.999715 -0.336317 0.737069
0.978337 -0.35757 0.763928
1.04009 0.264208 0.708666
0.831719 -0.496345 0.920232
1.10182 0.0200775 1.00588
0.843798 0.4855 0.51054
0.691416 0.576233 0.753088
0.593888 -0.593609 0.533589
0.790459 0.527996 0.825074
1.05671 0.214742 0.652506
1.07547 -0.15749 0.881817
1.10091 0.074987 0.646826
0.621208 -0.581793 0.577291
0.714697 -0.567538 0.897158
0.737403 -0.549988 0.949422
1.03124 0.287974 0.560406
0.544025 -0.597996 0.994659
1.09689 0.0619377 0.968406
0.85618 -0.486959 0.951292
0.570844 -0.595465 0.520478
1.08729 0.119465 0.90944
0.892793 0.452846 0.747733
0.567252 -0.593335 0.652525
0.664615 -0.57545 0.763766
0.969087 -0.377647 0.629432
1.07558 0.176722 1.0331
1.09953 -0.0652645 0.574604
1.09658 -0.0763406 0.502521
1.08644 -0.116182 0.614735
0.779262 -0.528358 0.845119
1.00151 -0.331753 0.774857
1.10326 -0.00529933 0.711772
1.10389 -0.00745861 0.622717
0.764831 -0.536014 0.520172
1.02698 0.294753 0.736449
0.567189 0.596156 1.01666
0.853398 0.476147 0.914235
1.0955 -0.0889684 1.02808
0.818474 -0.50895 0.824408
0.996123 0.333792 0.760772
1.08332 -0.146193 0.71083
1.03734 0.268361 0.518172
0.953642 0.398863 0.710764
0.523032 -0.596811 0.85811
1.09347 0.0281315 1.01941
0.78254 0.530122 0.73189
0.580605 -0.594105 0.989746
1.09916 -0.0230541 0.988972
0.894861 0.445356 0.621427
0.985279 -0.356834 0.728347
0.977728 0.358602 0.581438
1.09121 -0.127554 0.814455
0.61063 -0.591017 0.723774
0.814847 -0.511487 0.893922
0.735029 -0.550198 0.963955
0.661264 0.570985 0.824151
0.793176 0.522103 0.561766
0.916497 0.435041 0.67034
0.694976 0.568949 0.902534
0.859844 -0.480337 0.757883
0.902142 -0.441374 0.969825
1.10057 0.044874 0.520948
1.03092 0.275706 0.910479
1.09427 0.107657 0.737667
0.977493 0.366697 0.932545
0.686952 -0.574386 0.856712
0.906044 -0.4379 0.684023
0.988221 0.350551 0.872441
0.980356 -0.369079 0.954625
0.980304 -0.361239 0.941557
0.857109 -0.47719 0.926165
1.00622 -0.329409 1.09508
0.920863 0.428889 0.979753
1.09672 -0.0474112 0.804278
1.09601 0.0862778 0.551579
1.09685 0.0584249 0.946706
0.860436 -0.477688 0.62445
0.814069 -0.510662 0.639246
1.03594 0.266873 0.912824
0.617451 0.590012 0.527935
1.08153 -0.135503 1.09016
0.568289 -0.597231 0.963171
0.692606 -0.565615 0.64093
0.903749 0.447653 0.623214
0.768131 -0.535446 0.749026
0.804896 -0.518909 0.55864
1.02627 -0.285869 0.972971
0.952288 0.397924 0.982343
0.867287 -0.479166 0.975992
0.952468 0.392423 0.751585
0.852345 0.488459 0.670658
0.990834 -0.346846 0.958256
1.03232 0.272596 0.72604
0.715389 0.56041 0.800579
1.10274 0.0164921 0.508713
1.08217 -0.153447 0.746043
0.74983 0.545502 0.897938
0.867925 0.479194 0.746293
1.06135 -0.220485 0.801518
0.96241 -0.377815 0.901211
1.02847 0.282716 0.814866
1.08119 -0.153488 0.834949
0.862927 0.476848 0.734184
0.526545 -0.594377 0.554228
1.03474 -0.266671 1.07079
0.674485 0.575213 0.76039
0.96487 0.382768 0.81777
0.887782 0.44558 0.801994
0.780067 -0.535356 0.621985
0.608086 0.590068 0.698442
0.592625 0.593208 0.766077
0.519024 0.601342 1.08295
0.782969 -0.533305 0.559689
1.07095 0.193231 0.542851
1.08263 -0.165704 0.52539
1.09448 0.0769992 0.506103
0.844481 0.492429 0.519063
1.0938 0.0947599 0.997168
0.867871 0.468481 0.664498
0.866095 0.476684 1.00862
0.846797 0.490489 0.51944
1.01856 -0.307724 0.8725
0.522922 0.601026 1.00029
0.799833 0.515645 0.63537
1.00101 -0.330127 0.96507
1.07788 0.157119 0.892325
1.08705 0.153713 1.01492
1.04131 -0.259244 0.524548
0.851354 0.487198 0.510614
0.833349 0.496516 0.648489
0.996658 0.329781 0.678122
0.582143 0.596994 0.757735
1.05626 -0.242004 0.790366
0.997341 -0.343356 1.01327
1.05584 -0.221052 0.872332
1.08924 -0.101809 0.599546
0.766158 0.538572 1.08926
0.971908 0.373263 0.716069
0.989414 0.348161 0.525021
0.98363 0.349787 0.581893
0.803732 0.512166 0.723502
1.07926 -0.169426 1.04057
0.868857 0.479581 0.510865
0.824615 0.509789 0.534053
0.782874 0.529908 0.655481
1.05806 -0.216869 0.938851
0.735247 -0.554706 0.650376
1.03481 -0.280451 0.680432
0.676049 -0.57483 0.850895
0.940681 -0.406012 0.536513
0.803282 0.516943 1.08348
1.03573 -0.260557 0.764672
0.692637 0.568403 0.66802
1.06093 0.205735 0.701327
1.08747 -0.149857 0.859253
0.953122 0.382717 0.974613
0.607903 0.590005 1.00398
1.08678 0.121902 0.927569
0.820898 -0.498516 1.03911
1.09394 -0.071155 0.873183
0.512958 -0.598815 0.521326
1.08804 -0.149009 0.674125
1.08582 -0.0985299 0.593112
1.02316 0.291772 0.688458
1.02729 -0.290837 0.51984
0.645463 -0.581525 0.698557
1.0268 0.291093 0.65423
1.10336 0.0212988 0.773155
1.0329 0.268124 0.911383
0.793078 0.524289 1.02993
0.98562 0.354767 0.620222
0.511805 0.601902 0.707401
0.834143 -0.503249 1.05485
0.788421 0.516025 0.627489
0.857071 -0.477214 0.650645
0.646171 0.583509 0.786506
1.09788 -0.0625396 0.62287
0.932442 -0.42031 1.07267
0.823627 0.501004 0.867489
0.762227 -0.535191 1.03962
1.07323 -0.194649 1.04265
1.04968 0.239757 0.507357
0.935671 0.418629 0.750776
1.06321 -0.222429 0.87293
0.764513 0.535204 0.525795
1.10199 0.0215686 1.03002
1.03137 -0.278238 1.00697
0.940283 -0.405555 0.954296
0.785204 -0.527569 0.684233
0.928861 -0.422024 0.825696
1.10099 0.00981312 0.633665
0.917187 0.430413 1.08945
0.653944 -0.580112 0.536335
0.578661 -0.587807 0.733637
0.939073 0.407773 0.866789
0.904836 -0.440934 0.622043
0.971118 -0.376113 1.02446
1.10522 -0.0203362 0.753392
1.08602 -0.140061 0.903182
0.555076 0.598526 0.773938
0.993737 -0.344382 1.08877
0.929898 -0.421225 0.937498
1.01428 0.305524 0.74555
0.834384 0.500959 0.909643
0.687067 0.569745 0.65367
0.831619 -0.49992 0.758989
0.585968 0.594033 0.556569
1.1039 0.0135733 0.590034
1.0809 -0.163192 0.831428
0.528716 0.600886 0.932616
1.08885 -0.111727 0.524592
1.07494 -0.14886 0.536686
1.0984 -0.0277086 0.748727
1.09524 -0.0296333 0.809583
0.86281 0.473445 1.00205
0.628483 -0.589475 1.0284
1.09899 0.0319695 1.02795
1.09125 -0.112083 0.994023
1.03476 0.271896 0.928619
0.676218 0.576454 0.60256
0.710948 -0.565678 0.806582
0.739022 0.549676 1.02124
1.10117 0.026953 1.05715
1.10008 0.0123988 1.05618
0.783352 0.526101 0.727533
0.817626 -0.509873 0.857778
0.662973 0.578386 0.797878
0.911624 -0.436586 0.498056
0.813219 0.512001 0.99284
1.09823 0.0380781 0.585905
1.05169 0.235086 0.609008
1.02054 0.29854 1.09034
0.955155 -0.391377 1.08764
1.08736 -0.125892 0.718029
0.571731 0.593586 0.881903
1.05309 0.236834 0.685907
0.995508 0.344595 0.522097
0.518819 -0.599206 0.556059
0.705448 -0.565915 0.559179
1.08942 -0.0925667 0.685885
0.904372 0.45133 0.936008
1.0141 0.309714 1.03602
0.901351 0.452245 1.0976
1.0944 0.012341 1.02889
1.09746 -0.0621975 1.03106
0.563545 -0.59109 0.509507
0.697805 -0.561493 0.662307
0.826547 -0.506163 0.892072
0.974532 0.36159 0.751893
0.675984 0.572073 0.59531
0.994352 -0.341507 0.504343
1.03702 -0.255993 0.531658
0.566101 0.599308 0.560272
0.803183 0.52167 0.799572
0.855196 0.492553 0.738726
1.10057 0.0472153 0.854286
0.712548 -0.562667 0.999722
0.591139 -0.591408 0.883353
0.761896 0.538901 0.519593
0.892248 0.45876 1.01258
1.07449 -0.186799 0.710044
0.860512 0.480031 0.957356
1.08 -0.17366 0.516816
0.772717 0.537282 0.621676
0.572453 -0.589305 1.00084
0.900693 0.450916 0.565883
1.08373 0.160683 1.0937
0.799668 -0.518201 1.03813
1.10307 0.00803813 0.657435
0.99567 -0.339683 0.932292
1.00264 -0.319712 1.00677
1.10018 -0.0751449 0.986245
0.816389 -0.512846 0.56428
0.557302 -0.601583 0.640087
0.94261 -0.409286 0.846116
1.05129 0.223593 1.04145
0.699719 0.566836 1.08219
0.878437 -0.459075 0.499008
1.09367 -0.0805774 0.775881
0.963124 -0.380899 0.635846
1.10005 -0.0507444 1.01412
0.936537 0.41599 0.556909
0.984157 0.347446 0.696548
1.09746 -0.0337618 0.58208
0.685881 0.576719 0.764609
0.585336 0.594539 0.525617
0.516528 -0.605467 0.783392
0.972709 0.374819 1.08447
1.01333 0.305682 0.77198
0.849671 0.491579 1.05095
1.08942 -0.114059 0.735761
1.03363 -0.284124 0.560134
1.07676 -0.156273 1.09271
0.602529 0.586603 1.02383
1.10342 -0.0271884 0.640626
0.749296 -0.544372 0.58528
0.979584 0.359609 0.532611
1.09859 -0.0105249 0.564586
1.09794 -0.0200063 0.684275
0.963528 -0.379078 0.839826
0.524754 0.596582 0.707758
0.888198 -0.459274 0.663459
0.52783 0.594809 0.82185
0.833498 0.49935 0.564002
0.760356 0.535037 0.902447
1.05201 -0.245615 0.743892
1.03883 0.264912 1.06123
1.07375 0.175714 0.615882
0.712374 0.560106 0.659994
0.954833 -0.396326 0.759208
0.995166 -0.344452 0.936179
1.09192 -0.0889109 1.02682
0.858601 -0.47959 1.06284
1.0593 -0.204206 1.08984
0.756807 -0.541064 0.833398
0.946814 0.401847 0.861179
1.08114 -0.14317 0.926251
0.586195 -0.595275 0.978248
1.05671 -0.217211 0.719496
1.01121 -0.322155 0.614738
1.09944 -0.0455083 0.9632
1.03391 -0.275588 0.85706
1.08432 0.145079 0.891375
1.0787 0.147794 0.951109
1.01058 -0.306664 0.940911
0.765869 0.540764 1.08329
0.948358 0.394424 0.547536
1.09498 0.063327 0.933867
0.670342 0.564325 0.564359
0.612238 0.587613 0.719321
0.743092 -0.54597 0.812488
0.925992 -0.41739 0.839997
0.86263 0.480731 0.977826
1.05022 0.234289 0.984767
0.965306 0.374059 0.958525
1.03551 -0.271184 1.03126
0.759103 0.542437 0.994756
1.10374 0.0107929 0.926479
1.08998 0.0803959 0.861042
0.844781 0.485339 0.759367
0.612194 0.589795 0.90812
1.08837 0.0865081 0.952089
1.07049 0.187805 0.952988
0.958209 0.3805 0.611259
1.09054 0.0983858 0.807337
1.09194 -0.132652 0.821643
0.772964 0.531468 0.784601
1.01512 0.318039 0.91024
0.517013 -0.600681 0.884183
0.980148 0.356887 0.807666
1.08806 -0.124809 0.853475
0.587748 -0.594855 0.913779
0.822227 -0.505652 0.727883
0.786372 -0.528331 0.949856
0.862191 0.473003 1.04844
0.635903 0.58632 0.692749
1.07828 0.1475 0.74761
1.04943 -0.242639 0.562697
0.958509 -0.392884 0.845929
0.62352 0.587382 1.04455
1.0987 0.00737346 0.944433
0.515894 -0.597089 0.91719
1.03216 -0.276789 0.904861
1.0846 -0.131476 0.827428
0.941536 -0.405254 0.84628
0.897163 0.444678 0.757236
0.985898 -0.35131 1.00882
0.932128 0.419772 1.09332
0.974834 0.368403 0.526318
0.756651 0.544271 0.735764
0.602076 -0.592253 0.634272
0.980468 0.362881 0.868326
0.583434 0.593447 0.569072
0.965071 -0.380732 0.611671
1.09689 -0.0790074 1.0392
1.07129 0.175474 0.74974
1.07817 0.173425 0.79823
0.687324 -0.574763 1.01815
0.628616 0.587173 0.548127
1.02349 0.295305 0.678857
0.961529 -0.388684 0.612644
1.02381 -0.292386 0.97389
0.909219 -0.438004 0.5224
0.929378 -0.41993 0.655406
0.731775 -0.562254 1.02611
1.00198 0.330394 0.624149
1.05662 -0.228492 0.542316
0.975469 0.366444 1.02509
1.04809 -0.252446 0.687754
0.786204 0.523653 1.05908
0.829249 -0.506058 1.09331
0.887895 -0.462679 0.579237
0.9892 -0.345905 0.812415
1.01759 -0.309205 0.525242
0.744183 0.545785 1.02826
0.9225 0.425819 0.846778
0.57602 0.596194 0.928936
0.980733 0.369358 0.513581
1.09846 -0.0191977 0.64758
1.04187 0.259734 0.907301
1.09052 0.0742507 0.826718
0.994725 0.346151 0.842784
1.08661 -0.140734 0.975453
0.972938 0.366743 0.646951
0.767213 0.544734 1.00353
0.630853 0.588414 0.815028
0.943175 -0.400431 0.771979
0.611636 0.588997 0.838052
1.09708 0.0662819 0.827464
0.724509 -0.553351 0.693412
1.03671 0.281289 0.975882
1.03227 0.28104 0.820225
0.795311 0.524042 0.989233
0.89744 -0.447694 1.01152
1.09771 -0.0209649 0.692258
1.09435 -0.0334101 0.510954
0.585083 -0.59604 0.811757
0.626279 -0.581589 0.897609
1.03839 0.264705 0.77326
0.830202 -0.501237 1.01097
0.632945 0.586838 1.06633
0.76174 -0.539828 0.589275
1.0425 -0.252172 1.03123
0.879835 -0.464097 1.01328
1.00637 -0.319763 0.605149
1.03524 0.278438 0.511672
0.582239 -0.594492 1.07476
0.646337 0.58249 0.920978
1.02625 0.282563 0.743571
0.590271 0.594667 1.06053
1.0087 -0.321189 0.681115
0.938254 0.406074 0.749652
1.03362 -0.275834 0.881348
0.810166 -0.513077 1.04448
0.944077 0.397044 1.0521
1.09795 -0.037781 0.962056
1.01935 0.294216 0.966617
0.877764 -0.46977 0.646092
0.998029 -0.333232 1.03421
0.811257 0.512993 0.703016
0.93946 -0.404997 0.739956
1.09674 0.0512235 0.526532
0.652588 -0.582583 0.611715
1.00631 -0.322582 0.852715
1.08456 -0.128447 0.627116
0.891414 0.449017 0.602159
1.08297 0.153156 0.871541
0.631141 -0.587691 0.65619
0.708011 0.562104 0.868378
0.914481 0.431269 0.504707
1.09755 -0.0586459 1.07757
0.941442 0.402458 0.897147
1.08933 0.118647 0.934098
0.911112 -0.434091 0.926732
0.584209 -0.59571 0.920542
0.77056 0.542434 0.803094
1.09036 0.110472 0.791006
0.772732 -0.536035 0.742202
1.09058 0.123665 0.522088
1.0242 0.286354 0.845197
0.690236 -0.571087 0.884242
0.811699 0.512072 1.03558
0.579955 0.594851 1.09629
0.821896 -0.506678 1.03662
0.83497 0.494061 0.81865
0.72563 -0.554753 0.689774
0.607749 -0.588698 0.978249
0.578148 0.592658 0.520001
0.988708 0.346773 1.04321
1.01123 -0.314067 0.888321
1.10037 -0.0397496 0.676391
0.674121 -0.571052 1.07479
1.02085 0.297167 0.747739
0.532912 -0.5939 0.945827
1.02496 0.283455 0.888506
0.785544 0.524972 0.974855
1.09344 0.116282 0.835043
1.0922 0.0964995 0.882501
1.08083 -0.163063 0.755554
0.747604 -0.54658 0.957666
0.649837 -0.572746 0.535169
0.969002 -0.37396 0.550666
0.983217 0.362008 0.736065
0.661704 0.578971 0.868331
0.7902 0.522077 0.688466
0.736822 -0.552065 0.834492
1.06525 0.190165 0.505116
0.762936 0.537261 1.0786
0.927569 0.423304 0.803767
1.03528 0.26867 0.779921
0.861307 -0.479565 0.5551
0.658987 -0.577569 0.748607
0.902122 -0.446938 0.658365
1.01654 0.310194 0.803254
0.574393 0.594042 0.987407
0.598085 -0.595081 0.632704
0.815388 0.508295 0.668595
0.963256 -0.384357 0.951464
0.907615 -0.439098 0.796905
0.992917 0.338324 1.05861
0.551663 0.602881 0.600414
0.847853 0.485397 0.670651
1.09313 0.11822 0.680535
0.594686 0.586459 0.769424
0.856705 0.483029 0.898643
0.521379 -0.607326 0.990137
1.00836 -0.316489 0.764707
0.646454 0.5798 0.539706
1.03264 -0.266813 1.01796
1.06594 0.211283 0.687457
1.06811 -0.19774 0.814915
1.07288 0.172385 0.617207
0.819218 -0.508992 0.594169
1.07494 0.183718 0.775688
0.677669 -0.568252 1.02369
0.936329 0.405359 0.513792
0.697524 0.568157 0.98304
0.758287 0.542052 0.724643
1.05456 0.227986 0.807257
0.565453 0.599665 0.906013
0.799931 0.522141 0.88036
0.996539 -0.340016 0.556809
1.10334 0.00764852 0.848137
0.760918 0.53813 0.566113
1.03588 -0.253166 1.09231
0.936713 -0.413635 0.797097
0.927986 -0.416381 0.766049
0.961438 0.388502 0.986438
1.08965 0.139266 1.07632
0.855352 -0.489096 1.03584
0.923582 -0.425267 0.876101
0.564588 -0.599508 1.07867
0.877342 0.475663 0.626538
1.06324 0.190377 0.726452
1.08739 0.0673147 0.616613
0.847499 0.48982 0.620096
0.806158 -0.520955 0.717983
1.0685 -0.191712 1.10445
0.921423 -0.427552 1.08644
0.572925 -0.600423 1.08287
0.569511 0.595116 0.988301
0.701031 0.563632 1.08356
1.08468 -0.135853 0.892284
1.04754 -0.246595 1.03084
0.790584 0.524546 1.08914
1.09922 -0.021983 0.579689
0.956307 0.378051 0.899264
0.881468 -0.462958 0.676327
1.1035 -0.0405926 0.710709
1.06843 -0.20127 1.04262
0.803135 -0.515758 1.03578
1.07492 0.177975 0.811033
0.781467 0.526242 0.508332
1.08968 0.10771 0.965234
1.08714 -0.0693206 0.536048
1.08622 -0.12358 0.559325
0.769481 -0.54031 0.977363
0.933569 0.407272 0.747478
1.09666 0.0679339 0.947763
0.928541 -0.429403 0.834256
0.651476 0.584547 0.768833
1.02032 0.296257 0.618719
0.663592 0.576837 0.632384
1.09728 0.0705411 0.803587
0.768418 -0.545467 0.527997
1.03067 -0.286939 0.723694
1.05131 0.234441 0.629674
1.09597 0.0632519 0.936343
1.09809 -0.102695 0.740813
0.627853 0.588386 0.74629
0.868776 -0.470968 0.72113
0.875143 0.471078 0.917118
1.08993 -0.12738 0.764331
1.09921 -0.0187671 1.00672
1.02416 -0.29094 0.798211
1.09078 0.103883 0.871299
0.900304 -0.44832 0.71025
0.642034 -0.586994 0.841436
1.05426 -0.238398 0.760832
1.04843 0.250139 0.745603
0.65179 0.580904 0.636581
0.936983 -0.408434 0.535812
1.08293 0.166038 0.725174
0.503271 -0.603556 0.82002
0.781925 0.526945 0.612276
0.879706 0.467768 0.840464
1.0845 0.127621 0.624749
1.09604 -0.0716063 0.549008
1.09333 -0.102231 0.570492
1.09442 0.0952338 0.682965
0.524419 0.598745 1.012
0.96834 0.376286 0.592759
1.00029 -0.332991 0.808768
0.777039 0.527999 0.610162
0.892334 -0.447289 0.755585
0.606436 -0.590353 0.757757
0.83907 0.496449 0.945523
0.931398 -0.415554 0.5666
1.05971 -0.236153 0.953191
1.09982 -0.0134714 1.02696
0.800237 0.521891 0.853889
0.570935 0.59298 0.63831
1.07303 0.174805 0.752827
0.693699 -0.56953 1.00991
0.618094 0.588933 0.674139
1.0329 0.278974 0.659169
0.626566 0.585564 0.876662
1.04771 0.248436 1.06047
0.892144 -0.457899 0.564607
1.00502 0.326125 0.703039
0.985188 -0.355097 0.561041
0.742321 0.550412 0.519609
0.76 -0.544743 0.688853
0.692777 0.567835 0.496686
0.720518 0.554829 0.902552
1.06948 -0.189301 0.775891
0.935043 -0.413283 0.754331
0.874959 0.469936 0.817443
1.10067 -0.0119785 0.631172
1.0696 -0.189376 0.914819
1.09727 0.0366316 0.522093
1.07597 0.170855 0.940023
1.05982 -0.234897 0.593347
0.932534 -0.417507 0.56426
1.08249 -0.148374 0.723379
0.571831 0.593982 0.66769
0.811 0.517114 0.932705
0.827751 0.504588 0.806684
1.0936 0.113392 1.03878
0.96253 -0.388029 0.734718
0.60346 -0.588809 0.69296
0.995327 0.331604 0.591708
0.723258 -0.556111 0.53096
0.596871 -0.59795 0.740594
0.887654 0.454424 0.620563
1.08716 0.115646 0.88432
0.991087 0.340616 0.80562
1.07057 -0.192414 0.819868
0.811075 0.511949 0.617249
0.979628 -0.362627 0.601407
0.88216 0.459878 0.625872
0.694208 -0.566539 0.92146
0.955433 0.383504 0.653758
1.08544 0.132557 0.537682
1.09627 0.0585632 0.695895
0.77953 -0.526315 1.08027
0.633272 -0.584483 0.953175
1.01653 -0.311939 0.580028
1.08765 0.13265 1.02007
0.772914 -0.529935 0.783971
0.574387 0.598053 0.913747
1.0473 -0.252105 0.696742
0.839337 -0.493726 0.573115
1.03797 0.273708 0.761033
0.986069 -0.349134 0.775259
0.741518 0.552088 1.04645
0.902813 0.448606 0.973065
1.01265 0.301446 0.58215
0.557751 -0.596714 0.784134
0.897211 -0.444841 0.807641
1.06659 -0.193663 0.969726
0.948041 0.394547 0.724221
0.575685 -0.596499 0.997785
1.04751 -0.242262 0.68567
0.79586 -0.525696 0.944752
0.614266 0.58442 0.939931
0.561041 -0.597111 1.07862
0.76971 0.533459 0.67016
0.971378 0.365559 0.533208
1.07311 -0.173653 0.57821
1.06701 -0.179524 0.68592
0.915372 0.429704 0.772209
1.09948 0.0477964 0.886519
0.918941 0.427935 0.683743
1.0957 0.0582621 0.858103
0.975409 -0.369862 0.542966
1.04199 -0.250504 0.535007
1.04094 -0.252515 0.672547
0.837404 0.492703 0.573252
1.03816 0.27038 0.542511
1.089 0.118703 0.798549
1.02635 0.294563 0.941673
1.07861 0.124423 0.89815
1.06795 0.19362 0.907279
1.0297 -0.271578 0.67399
0.891755 -0.451776 0.530202
1.09709 -0.0145339 0.629799
1.05712 -0.212849 0.717274
1.07816 0.156664 0.993981
1.07438 0.179632 1.09527
0.625559 0.587191 0.966245
1.08265 -0.144724 0.801045
0.526954 -0.59848 1.08298
0.856839 -0.479702 0.589096
0.671288 -0.57531 0.796964
1.09938 -0.0327022 1.07275
1.03363 -0.278699 0.525549
0.579732 0.590739 0.713585
0.749391 -0.546767 0.598977
1.06831 -0.171032 0.674863
0.926266 0.428878 0.848657
0.674987 -0.573841 0.737
0.860231 0.47855 0.66464
0.917409 0.432934 1.00317
0.748637 -0.551454 0.732039
0.533942 -0.602939 0.988152
1.06216 -0.199191 0.610309
0.717285 0.563741 1.02925
1.09805 0.0685738 1.03494
0.85751 -0.479748 0.594828
1.00092 0.328222 0.566579
0.751624 0.5426 0.858638
0.726683 0.557813 0.619842
1.07919 0.169589 0.607945
0.879265 -0.460216 0.854582
0.957236 0.392097 0.902379
0.658033 0.580918 0.501969
0.700504 -0.56385 0.763456
0.910974 0.437554 0.907021
0.831374 0.498294 0.850598
0.901207 -0.434074 0.51023
1.09399 0.0745232 1.01707
0.978985 0.362733 0.808152
0.759997 -0.532692 0.861898
0.989755 0.345751 0.556538
0.967489 -0.376189 0.997413
0.538587 0.599749 1.0888
0.568576 -0.593408 0.877004
0.971144 -0.373604 0.837073
1.06185 -0.211786 0.615401
1.098 0.0207785 1.08842
0.62965 -0.581135 0.934591
0.821761 0.505192 0.90444
1.096 0.0793477 0.84533
0.894086 0.454383 0.934605
0.58375 -0.594076 0.944471
0.703596 -0.560775 0.799215
0.580215 0.593896 0.587918
1.05334 0.229102 1.00745
1.06699 -0.197223 0.648824
0.88284 -0.460371 0.715719
0.898001 0.4516 1.05613
0.629375 0.590555 0.819621
1.09711 -0.038923 0.785622
1.09687 0.0787679 0.885678
1.09142 -0.098763 0.792569
0.81129 0.511761 1.03796
1.0427 -0.25882 0.661215
0.890387 0.452662 0.740378
0.647846 -0.579188 0.686299
1.09195 -0.111919 0.940909
0.508673 -0.600582 0.642558
1.09419 0.071015 1.03416
1.01124 -0.314809 0.670725
1.0656 0.204874 0.871091
0.778877 0.535462 0.566496
1.06838 -0.203269 1.03067
1.05332 0.2405 0.961209
1.04097 -0.265369 0.617703
0.843296 -0.49438 0.638969
0.663618 0.578239 0.557667
1.03562 0.272357 0.777436
0.943438 0.412291 1.00541
0.750496 -0.543221 0.701067
0.523959 -0.602158 1.09831
1.08322 0.130557 0.508743
0.854008 0.48267 0.69531
1.08628 -0.139924 0.688034
0.721662 -0.556077 0.65752
0.784477 0.531312 0.910315
1.07414 0.170918 1.07083
0.739386 -0.546255 0.959745
0.501322 0.603857 1.02634
1.09405 0.100704 0.869042
0.783175 0.531512 0.827279
0.804126 -0.516658 0.689616
0.702631 0.570508 0.652862
1.10454 -0.0413648 0.734133
1.06509 0.208933 0.794115
0.965291 0.374944 0.738817
1.07039 0.187219 0.850412
0.945493 0.403032 0.762382
1.09954 -0.0330637 0.788921
1.08206 -0.159918 0.887329
0.972125 0.370149 0.730702
0.615108 -0.588292 0.585975
0.571352 0.597693 0.849161
1.08253 0.136227 0.840947
1.07404 0.179581 0.718405
1.01859 0.307674 0.675115
0.63165 -0.588606 0.784899
0.869936 0.475109 0.515546
1.04241 0.256648 0.632573
1.04971 -0.253123 0.626684
0.631413 -0.585853 0.793852
1.09217 0.0506927 0.574134
0.85104 -0.484795 0.677626
1.02143 -0.301454 0.958705
1.09573 -0.106634 0.994811
1.09762 -0.0321513 0.553322
0.532341 0.600514 0.521119
1.05504 0.225641 0.837798
0.901841 0.443369 0.967233
1.10174 -0.024181 0.873814
0.697934 0.562686 0.533757
1.07099 -0.183141 0.933686
0.591355 -0.591757 0.818814
1.06136 0.209267 0.894185
1.10087 0.00965262 0.55373
0.97555 0.366049 1.00451
0.97887 -0.355429 0.904431
1.00075 0.331947 1.02515
1.101 0.0283319 0.999776
1.0912 0.093482 0.506521
1.02701 -0.27812 0.526685
0.718933 0.561281 0.69123
0.752735 0.540457 0.73722
0.589793 -0.591044 0.853439
1.08579 -0.121243 0.914834
0.506286 0.594667 0.64753
0.815506 -0.506508 0.671522
0.667545 0.5733 0.514274
1.07975 0.136534 0.53734
0.933023 0.414282 0.938145
1.01221 -0.313865 1.04373
1.01798 0.305126 0.640976
0.915865 0.435799 0.959147
1.09435 -0.0831342 0.5537
0.874623 0.465367 0.905933
0.617743 0.59213 1.07346
1.07732 0.162447 0.530117
0.899458 0.446015 0.574862
0.502311 -0.596151 1.06668
1.00309 0.318961 0.822522
1.01078 0.317595 0.805748
0.735155 -0.55233 1.00293
0.941116 0.401762 0.816178
1.04602 -0.245125 0.590151
0.727832 0.548071 0.97192
1.01545 -0.311542 1.05965
0.847761 -0.482998 0.987914
0.831378 0.501326 0.961278
1.06563 -0.194571 0.659434
