ply
format ascii 1.0
comment Created by Open3D
element vertex 1714
property double x
property double y
property double z
end_header
0.994836 0.0808328 0.976655
0.804301 0.0275449 0.772528
0.79576 -0.0229348 0.798038
0.796673 -0.00118469 0.798893
0.805572 0.0139909 0.838863
0.808269 -0.0376417 0.789615
0.856252 -0.0891698 0.912727
0.815713 0.0819989 0.766433
0.823999 -0.0862121 0.844723
0.961966 -0.192764 0.736915
0.967749 0.187188 0.733826
0.847977 0.127007 0.820864
0.817567 -0.0583225 0.747051
0.856191 -0.0690499 0.67104
0.918895 0.0246526 0.621153
0.966696 0.119723 0.957326
0.798062 -0.0137565 0.806532
0.925 -0.179765 0.752304
0.890919 -0.163222 0.80789
0.956173 0.184815 0.74814
0.799599 -0.00219485 0.803896
0.919741 0.0665455 0.971815
0.987038 -0.200127 0.830409
0.849479 -0.0591333 0.684117
0.91753 -0.172281 0.831668
0.813713 0.000985241 0.876467
0.905082 0.163741 0.748174
0.801786 -0.00442291 0.765872
0.840623 -0.10601 0.838443
0.921196 -0.115656 0.940168
0.899101 -0.075314 0.954909
0.82039 0.082524 0.781314
0.802345 -0.0193075 0.818848
0.814147 0.00555464 0.872336
0.843444 -0.053702 0.91936
0.829093 -0.0178168 0.697723
0.955354 -0.168404 0.898993
0.923674 -0.0699549 0.96324
0.79652 -0.0134564 0.800812
0.796367 -0.00485443 0.801887
0.807101 -0.00240376 0.843918
0.805162 -0.0570443 0.821699
0.980192 -0.0734483 0.988951
0.82866 0.0592515 0.714949
0.866461 0.139492 0.750991
0.874132 0.068808 0.933424
0.817045 0.0554919 0.729786
0.800099 -0.0217521 0.76704
0.809628 0.0405766 0.845029
0.7931 -0.00931784 0.788015
0.963413 -0.150718 0.930565
0.85367 -0.117922 0.731768
0.917866 -0.174133 0.86199
0.814651 0.0592082 0.843284
0.95568 0.0637514 0.61667
0.821044 -0.0109361 0.893876
0.812684 -0.0140779 0.850786
0.811244 -0.0650116 0.795193
0.889429 0.145829 0.889586
0.902934 -0.170005 0.776299
0.889335 0.163047 0.800014
0.861329 -0.139097 0.851932
0.910056 0.0541654 0.971451
0.854044 -0.0276774 0.930066
0.947168 0.168736 0.89518
0.825059 0.0947357 0.786081
0.824996 0.0655868 0.715687
0.810169 -0.0165308 0.749921
0.99518 0.189256 0.736205
0.989565 0.0538555 0.987587
0.80491 -0.0128732 0.783464
0.869827 -0.149044 0.788599
0.824463 0.0420141 0.865128
0.984596 -0.0560281 0.987339
0.997576 0.161197 0.677721
0.8856 0.117498 0.682781
0.905773 -0.132236 0.919418
0.99271 -0.195618 0.85175
0.824087 0.0983426 0.772902
0.803444 -0.0152535 0.778079
0.835708 0.103628 0.855987
0.990796 0.0374655 0.602967
0.988029 0.0557929 0.61011
0.990988 0.0414837 0.604397
0.926298 -0.00444298 0.986764
0.911573 0.134179 0.917112
0.814579 -0.0218369 0.739278
0.893054 -0.0426671 0.648747
0.823022 -0.0164108 0.70637
0.79762 -0.0076601 0.80561
0.83201 0.0502946 0.712287
0.881953 -0.114025 0.69141
0.800766 -0.0224471 0.780283
0.914032 0.177482 0.798956
0.811646 -0.0462096 0.774736
0.836867 -0.103999 0.820051
0.911407 0.173777 0.793979
0.972262 -0.195973 0.781348
0.801065 0.0212123 0.790901
0.846387 0.12732 0.788537
0.838928 -0.0359659 0.68741
0.802259 0.0189668 0.794023
0.812235 -0.0447369 0.754423
0.977384 0.0712604 0.988964
1.00167 0.0859028 0.97656
0.841825 -0.102897 0.865312
0.886119 -0.115835 0.683167
0.839712 -0.0676831 0.901115
0.979124 -0.183343 0.7208
0.817827 0.0833613 0.785271
0.799388 -0.00355218 0.827965
0.813213 0.00818635 0.734052
0.847809 0.114381 0.748128
0.990656 0.0790242 0.980461
0.950743 0.185751 0.823772
0.921298 0.153805 0.903322
0.851233 -0.0801003 0.696853
0.862357 0.0803303 0.925582
0.804298 0.0347768 0.787663
0.813918 -0.0513936 0.746834
0.924459 0.0751122 0.965145
0.802154 0.00413942 0.789737
0.91979 0.13279 0.922549
0.966538 0.0282249 0.601872
0.906568 -0.0799833 0.641331
0.845997 0.0328446 0.926853
0.820092 -0.0147568 0.887751
0.833679 0.0234962 0.684829
0.800561 -0.0225974 0.798246
0.881379 0.107365 0.912967
0.878996 -0.138869 0.726387
0.857247 -0.0809931 0.916398
0.976981 -0.19593 0.814187
0.815638 0.0595379 0.832826
0.807964 0.000713365 0.738264
0.944979 -0.143594 0.919637
0.807083 0.00608287 0.740158
0.823161 0.0910831 0.834908
0.93713 -0.131203 0.668261
0.830502 0.0177605 0.693612
0.890723 0.155845 0.850662
0.947845 0.160563 0.905293
0.803344 0.0350969 0.764676
0.848677 0.118407 0.766119
0.805752 0.0315249 0.863652
0.855096 -0.1263 0.744001
0.871908 -0.129239 0.880836
0.892563 0.162533 0.83564
0.812055 -0.0045926 0.731953
0.895126 0.108083 0.668774
0.940633 -0.127322 0.940809
0.79479 -0.00108381 0.798078
0.810198 0.0130372 0.8373
0.995488 -0.191932 0.839796
0.864436 -0.0781097 0.662302
0.953069 -0.128782 0.957663
0.979305 0.146391 0.931691
0.88108 0.139561 0.725828
0.868406 -0.137103 0.743204
0.839096 0.108907 0.827402
0.803294 0.0355331 0.824462
0.952274 -0.0293931 0.605524
0.934865 0.0501019 0.979821
0.988145 0.166401 0.920796
0.812577 -0.0249189 0.846069
0.834476 0.0738094 0.705455
0.863723 -0.0775133 0.934919
0.982755 -0.0232069 0.605339
0.937397 -0.0738399 0.624008
0.913129 0.023353 0.62036
0.859492 0.0574946 0.934507
0.809725 0.0773484 0.802243
0.813592 0.0535806 0.856302
0.839682 0.0520529 0.910302
0.793169 0.00531194 0.7992
0.965471 -0.0990388 0.635222
0.987332 -0.198962 0.784228
0.969526 0.0475644 0.610218
0.855939 -0.137192 0.83091
0.974959 0.134465 0.945795
0.927802 -0.17634 0.753107
0.914988 -0.169094 0.73405
0.807691 -0.0210503 0.770766
0.809161 -0.0529106 0.823744
0.852168 -0.130649 0.82902
0.931362 -0.174723 0.884909
0.908908 0.108332 0.660615
0.816099 0.0653205 0.824092
0.807778 -0.0396262 0.806475
0.890697 -0.103705 0.939711
0.941145 0.0554283 0.617806
0.82611 0.0647579 0.867785
0.908565 0.0660354 0.632181
0.885416 0.173619 0.803453
0.991295 -0.157894 0.668815
0.966375 0.00308449 0.998575
0.799478 -0.000137593 0.802311
0.807637 -0.0437296 0.789985
0.934166 0.191174 0.782221
0.862343 0.147125 0.789364
0.804083 0.0338319 0.758581
0.897446 0.0342159 0.631567
0.894214 0.0647717 0.954501
0.799628 -0.0173007 0.809238
0.81115 0.034305 0.860584
0.975981 -0.12928 0.649665
0.839761 -0.104502 0.862998
0.826067 0.0758435 0.739955
0.815019 0.0606163 0.764788
0.829267 -0.104029 0.842979
0.911804 0.0341956 0.625095
0.939706 -0.191292 0.796458
0.80796 -0.0113032 0.859141
0.948064 0.138248 0.935036
0.804032 0.0509592 0.804876
0.879512 -0.156437 0.742935
0.814213 0.0588914 0.739246
0.800745 -0.00477847 0.804923
0.866646 -0.124732 0.712159
0.997105 0.181209 0.883231
0.903031 0.119753 0.667719
0.882492 0.0741227 0.652294
0.881224 -0.14856 0.875509
0.820613 0.0245214 0.720787
0.894168 -0.170999 0.825449
0.893161 0.0323602 0.96762
1.00121 0.0842488 0.620359
0.978306 0.00407247 0.596506
0.84013 -0.0952978 0.736083
0.800841 -0.0138977 0.787518
0.799939 0.0444712 0.762927
0.819644 0.0213951 0.878733
0.887472 -0.143338 0.735423
0.947032 0.171921 0.712665
0.940278 -0.00937083 0.985563
0.797711 -4.55923e-05 0.767326
0.807043 0.0319586 0.780328
0.861945 -0.122635 0.713853
0.88867 -0.159845 0.777951
0.799628 0.0131845 0.797338
0.993072 0.197985 0.768065
0.806616 -0.0459372 0.772241
0.90106 -0.17586 0.794013
0.838644 0.0141015 0.690098
0.893058 -0.0868372 0.94877
0.807358 -0.0210267 0.781862
0.859827 -0.0896575 0.687719
0.836931 -0.101425 0.867616
0.885131 0.068834 0.656412
0.844459 -0.0531709 0.913625
0.800723 -0.014548 0.805093
0.796226 -0.0105656 0.805513
0.960071 0.179971 0.726157
0.885745 0.0931488 0.937365
0.973127 -0.135627 0.946849
0.807485 0.0606779 0.810087
0.86932 0.120896 0.716053
0.805808 -0.0442964 0.776717
0.860597 0.105514 0.702439
0.85901 -0.0428023 0.933984
0.883733 0.160208 0.854096
0.826163 0.108144 0.818581
0.814946 0.0129107 0.868847
0.823068 0.0877271 0.826257
0.801864 -0.00318789 0.764697
0.897281 -0.0645954 0.645568
0.954263 -0.158483 0.682697
0.962015 -0.100795 0.971001
0.802944 -1.04577e-05 0.815449
0.80453 -0.0562192 0.796399
0.908021 0.180764 0.805164
0.843199 -0.125649 0.789251
0.984771 -0.199255 0.782176
0.8201 -0.0660781 0.744869
0.800218 -0.0109229 0.797301
0.884265 0.147281 0.714163
0.860364 -0.125849 0.732982
0.933626 -0.188065 0.834265
0.80161 0.0334485 0.825119
0.892086 -0.162708 0.748564
0.957898 -0.176348 0.894673
0.999859 -0.131172 0.649447
0.796156 0.0220671 0.799865
0.849834 -0.108045 0.870765
0.862996 -0.0251992 0.947311
0.824723 -0.0141634 0.717823
0.823715 -0.0930951 0.800555
0.805031 -0.0342907 0.801247
0.872531 0.0108826 0.645016
0.903192 0.0891126 0.646221
0.799486 0.0253206 0.817202
0.815857 -0.0232873 0.867558
0.802898 0.00239555 0.804695
0.837718 0.00879922 0.682507
0.966839 -0.141173 0.937742
0.80174 -0.0272551 0.786559
0.796795 -0.0161577 0.82761
0.87548 -0.0751085 0.941169
0.796919 0.0115096 0.783697
0.853199 0.129482 0.817528
0.846874 -0.0848048 0.904494
0.995155 -0.077098 0.982468
0.880757 -0.0402199 0.954267
0.896535 0.109297 0.669005
0.931532 -0.000894579 0.988628
0.836587 -0.0390307 0.898183
0.85235 0.122468 0.855626
0.96098 0.192121 0.742279
0.844527 -0.0933638 0.724855
0.803479 -0.0280319 0.811885
0.798194 0.00198034 0.799132
0.811262 -0.0304537 0.730066
0.799004 0.045082 0.791474
0.798545 0.0021486 0.814058
0.900664 -0.118719 0.671686
0.805958 -0.019728 0.779628
0.810095 0.0435978 0.764109
0.869082 -0.0947388 0.921627
0.910328 0.0263771 0.616515
0.862463 -0.0730871 0.671026
0.966857 0.132173 0.649576
0.875256 0.155716 0.823526
0.872357 0.0868081 0.680677
0.824285 -0.089493 0.833571
0.951471 -0.105461 0.966559
0.795982 0.0133927 0.811156
0.838084 -0.0245487 0.680646
0.880788 -0.0532914 0.955968
0.806596 0.054567 0.836367
0.828998 0.0356567 0.902998
0.93697 -0.0348402 0.990242
0.908844 0.1391 0.905109
0.80532 0.0228096 0.817529
0.801225 0.00942131 0.790025
0.864462 -0.13367 0.742113
0.949639 0.188149 0.763703
0.907374 -0.170499 0.773673
0.97637 0.198242 0.755201
0.802432 -0.0162665 0.816322
0.862954 0.147139 0.794533
0.8034 -0.0131669 0.811277
0.996494 0.205469 0.785988
0.881524 -0.107324 0.919585
0.904228 0.0183046 0.975707
0.978118 -0.179162 0.710632
0.889535 0.0183398 0.962741
0.794997 0.00714535 0.789173
0.803605 -0.000856493 0.7887
0.797522 -0.00379995 0.802326
0.954874 0.190251 0.806814
0.901712 -0.0114681 0.974149
0.815983 0.0666058 0.769185
0.82558 0.0538846 0.876827
0.899123 0.0467495 0.634783
0.895548 -0.137356 0.69148
0.989149 -0.0593415 0.989746
0.84229 -0.125038 0.828734
0.921706 -0.146773 0.695881
0.814621 -0.0607031 0.858131
0.931465 0.179452 0.875763
0.975922 0.193061 0.761751
0.955909 -0.114672 0.646495
0.818162 0.0689635 0.829014
0.987611 -0.0842253 0.615504
0.83302 -0.0601432 0.697703
0.84316 0.0301803 0.681642
0.800321 0.00979663 0.821267
0.80189 -0.00553744 0.770984
0.819408 0.0652283 0.742043
0.90073 0.173384 0.773273
0.947541 0.0470739 0.99284
0.926969 0.0162737 0.981694
0.924612 -0.123546 0.932366
0.796531 0.000432853 0.801003
0.994408 0.182805 0.71131
0.937849 -0.185738 0.831287
0.993442 0.125331 0.95904
0.797007 0.00315125 0.822608
0.953085 0.190807 0.797426
0.841001 0.113384 0.81356
0.983995 -0.00426027 0.998783
0.984578 -0.0520304 0.993036
0.800812 -0.000773664 0.80315
0.834559 -0.0407253 0.907053
0.947503 -0.0425509 0.610775
0.809989 -0.0430191 0.781593
0.812551 -0.0687506 0.816866
0.842124 -0.0503077 0.906639
0.798898 -0.00784062 0.843736
0.802144 -0.0119537 0.802659
0.966077 0.0243771 0.601015
0.823417 0.0837496 0.830526
0.801969 0.00450912 0.793254
0.897749 0.117404 0.927437
0.9131 0.136616 0.924821
0.844516 -0.0273153 0.919514
0.802147 0.00553647 0.800834
0.959749 0.183479 0.859172
0.870014 -0.143447 0.741524
0.885622 -0.076155 0.940706
0.888548 -0.164871 0.805276
0.807024 -0.00141342 0.794998
0.856147 -0.124284 0.8706
0.976813 -0.162481 0.918423
0.799632 0.00176908 0.804993
0.974062 -0.166742 0.899775
0.910123 0.12767 0.926132
0.974413 0.147079 0.661027
0.984013 -0.149601 0.665125
0.855204 -0.140456 0.783172
0.861914 -0.0315507 0.655529
0.94708 -0.175543 0.885564
0.826186 0.0690297 0.734893
0.808975 -0.0279173 0.736047
0.80274 -0.000952931 0.781936
0.955988 -0.147658 0.670315
0.978234 0.0997429 0.968252
0.795467 -0.00582783 0.804321
0.979878 0.186563 0.724543
0.837648 0.0576464 0.905802
0.803298 0.0206196 0.779199
0.926533 -0.0226902 0.621098
0.944536 0.192841 0.80706
0.869335 -0.128644 0.724718
0.905716 0.164587 0.754829
0.849717 -0.0841949 0.902239
0.891334 0.139203 0.903252
0.879596 0.0472208 0.944979
0.987738 0.00641478 1.00111
0.856593 -0.057052 0.925583
0.838364 0.0735905 0.707192
0.994884 -0.153626 0.669723
0.806621 0.0161526 0.8146
0.801409 0.000745491 0.808891
0.827135 0.0271166 0.897583
0.879867 -0.130591 0.892875
0.79669 0.0175276 0.798968
0.825091 0.0412854 0.886618
0.904089 0.179721 0.785257
0.900612 0.148945 0.714265
0.843329 -0.126529 0.810723
0.840364 0.0420092 0.910188
0.941124 -0.117192 0.659603
0.914686 0.18306 0.807755
0.822917 0.0917851 0.807729
0.810616 0.0628636 0.775943
0.824594 -0.026526 0.896841
0.968342 0.183176 0.874075
0.980726 -0.116541 0.963553
0.818774 -0.0649262 0.73357
0.848905 -0.102226 0.722873
0.853724 -0.0266185 0.939033
0.983201 -0.196894 0.785581
0.816697 0.0144932 0.727773
0.825211 0.0910402 0.831687
0.819839 -0.0445494 0.73663
0.821842 -0.0226103 0.875442
0.982613 0.19416 0.788095
0.825379 -0.0424135 0.880701
0.92881 -0.186765 0.788904
0.854754 0.0212117 0.668917
0.909552 0.186135 0.777841
0.918155 -0.186422 0.806801
0.899956 0.0248697 0.969285
0.88504 0.130688 0.694745
0.898694 -0.160354 0.740941
0.802718 -0.048008 0.789868
0.834029 0.0530585 0.685978
0.803757 0.0310666 0.78764
0.839226 0.101073 0.85083
0.829909 -0.047655 0.890213
0.958186 0.197405 0.813945
0.848326 0.104484 0.873735
0.808877 0.024252 0.817255
0.863202 0.0222033 0.939811
0.958077 -0.195157 0.782572
0.889881 -0.170625 0.785167
0.806081 0.0326469 0.824777
0.90896 -0.0847186 0.955668
0.869601 0.128693 0.879259
0.871575 -0.0587278 0.935822
0.995658 -0.202412 0.835017
0.807504 -0.0542362 0.757769
0.969499 -0.0351814 0.602307
0.923876 0.11057 0.652338
0.813172 0.0242903 0.752551
0.93218 0.0289014 0.979571
0.840595 0.0712537 0.70232
0.849136 -0.126809 0.766839
0.859021 -0.0648114 0.681847
0.959359 -0.157446 0.687451
0.795646 -0.0170616 0.797215
0.83057 0.0503967 0.888336
0.798478 0.0267397 0.777973
0.827819 0.0933907 0.79068
0.880705 0.147382 0.737905
0.801189 -0.00683967 0.796918
0.850724 -0.0142727 0.932713
0.848996 0.0848639 0.90031
0.859404 0.120542 0.873437
0.824861 -0.0565712 0.731493
0.939026 -0.192664 0.76204
0.876952 -0.0204097 0.635004
0.889953 0.0382048 0.962768
0.856366 0.116463 0.894066
0.868133 0.0455018 0.655248
0.804498 0.0160579 0.795618
0.823182 0.0538422 0.725379
0.95115 0.156951 0.917487
0.907877 -0.00973978 0.621948
0.842283 0.0613698 0.695841
0.957682 0.0115814 0.605218
0.801685 -0.00501038 0.832862
0.892245 -0.137614 0.701002
0.868151 -0.111365 0.890834
0.994788 0.142709 0.937689
0.868531 -0.0820694 0.674548
0.805709 0.0367374 0.816037
0.888727 -0.149417 0.72468
0.900931 -0.0917871 0.95136
0.899929 0.086968 0.640962
0.925006 -0.133716 0.923753
0.993662 0.145436 0.670843
0.807576 -0.0471807 0.775129
0.978271 -0.0397294 0.603592
0.88659 0.131419 0.896975
0.942413 0.0811753 0.623946
0.859652 -0.125892 0.735668
0.979357 -0.118169 0.642662
0.822081 -0.0323264 0.8744
0.846847 0.122649 0.807728
0.880875 0.157652 0.798893
0.868824 -0.00730092 0.653811
0.805084 -0.0446139 0.772243
0.978731 -0.16492 0.687472
0.886221 -0.135725 0.897082
0.807541 0.0400879 0.771758
0.804988 0.00548926 0.820628
0.979554 -0.181534 0.735598
0.937305 0.190567 0.758063
0.872668 0.0251643 0.65127
0.913038 0.117958 0.928489
0.867919 0.00444505 0.953651
0.921805 -0.153864 0.69561
0.92736 -0.0690253 0.623004
0.924456 -0.143034 0.919903
0.878984 0.11097 0.922033
0.836759 -0.107742 0.750037
0.899257 -0.020287 0.629902
0.801866 0.0216882 0.842419
0.870344 0.123685 0.713658
0.875544 -0.0643263 0.665569
0.867473 0.00682018 0.951351
0.944545 0.105233 0.640285
0.860926 -0.101764 0.699073
0.911739 -0.0587748 0.971543
0.807045 0.0717888 0.767917
0.846686 -0.0839907 0.885828
0.814435 0.0570133 0.836726
0.884245 0.161432 0.843748
0.969037 0.190498 0.757081
0.821367 -0.0827676 0.805724
0.799384 -0.00504561 0.803123
0.952412 0.0781654 0.978922
0.977409 0.182949 0.727775
0.919886 0.154581 0.696819
0.898896 0.12014 0.917066
0.79509 -0.0203672 0.79539
0.824149 0.0506218 0.865918
0.882185 0.118295 0.909767
0.802419 -0.0195774 0.816424
0.875572 0.151965 0.842828
0.972466 -0.149325 0.671803
0.800626 0.00248588 0.794578
0.981758 -0.185257 0.878921
0.801571 -0.00158151 0.798371
0.812936 0.0561519 0.77687
0.970259 0.101373 0.968498
0.905956 -0.0267435 0.621749
0.839727 -0.11179 0.835363
0.879355 0.0121663 0.961971
0.797084 0.0300852 0.819465
0.968675 -0.0142376 0.603262
0.811285 0.0407595 0.745744
0.934776 0.175661 0.727584
0.812218 0.05623 0.766553
0.796508 0.00203884 0.802485
0.991539 0.152618 0.922723
0.822986 0.0632808 0.734249
0.841535 -0.0759596 0.697204
0.872759 0.128175 0.886058
0.964022 0.00945734 0.607293
0.797612 0.017394 0.790177
0.903041 0.155727 0.73174
0.887704 0.156494 0.856942
0.797875 -0.00759448 0.807634
0.798139 0.0162297 0.804012
0.804535 0.0061845 0.795614
0.99238 0.0343449 0.612724
0.852274 -0.0914318 0.705444
0.927889 -0.0501737 0.619512
0.814278 0.0143221 0.854642
0.833189 0.106229 0.790204
0.799744 -0.013153 0.791293
0.935262 0.157259 0.912393
0.81047 0.0557603 0.771867
0.817133 0.0565934 0.868241
0.974306 0.138593 0.942598
0.860357 0.0437812 0.937365
0.799215 -0.00118725 0.787512
0.816307 0.0629733 0.836793
0.841739 -0.0697688 0.706079
0.867415 -0.155894 0.788165
0.942741 -0.150028 0.68086
0.809143 -0.00336581 0.770986
0.80244 0.0283841 0.781581
0.911328 -0.0411126 0.970144
0.805773 -0.0291267 0.853765
0.809445 -0.0374094 0.797966
0.870404 0.0290711 0.655608
0.900183 0.171698 0.811732
0.802412 -0.000888311 0.800429
0.796124 -0.00209294 0.805225
0.816582 -0.0761566 0.839039
0.826616 -0.0367038 0.717101
0.978865 -0.0989597 0.972953
0.874812 -0.0640324 0.94534
0.985403 0.114745 0.638308
0.839923 -0.0194878 0.921679
0.888495 0.159526 0.751695
0.914439 -0.0785217 0.967722
0.941102 0.0862442 0.969756
0.933193 0.185053 0.832637
0.947176 -0.0261316 0.991978
0.866093 0.127444 0.722336
0.871861 0.136827 0.735195
0.979303 0.0762359 0.613134
0.867063 -0.0490138 0.946074
0.861435 -0.0532563 0.936497
0.816005 -0.0755401 0.769561
0.91715 0.155026 0.890634
0.787939 -0.0134412 0.797178
0.985795 -0.107259 0.969846
0.825652 -0.0192306 0.899425
0.857901 0.075724 0.913248
0.928949 -0.181173 0.760025
0.861659 0.140465 0.748147
0.79816 0.0183116 0.799924
0.792095 0.00152341 0.79339
0.946375 0.0522816 0.981591
0.805217 -0.00234007 0.771101
0.978773 0.183607 0.722759
0.824705 -0.100568 0.81977
0.82244 -0.0954533 0.819144
0.803555 -0.0242839 0.839675
0.920822 0.0879742 0.959097
0.802755 0.00268494 0.799926
0.83188 -0.0258324 0.898461
0.853637 0.125986 0.772477
0.993328 0.135385 0.659376
0.81633 -0.0316418 0.88565
0.86268 0.0246693 0.651476
0.868434 -0.138467 0.733647
0.807268 0.0676637 0.801747
0.809123 0.0126742 0.724447
0.910169 -0.171858 0.857673
0.898998 -0.166723 0.755074
0.819773 0.056401 0.734655
0.852618 -0.091078 0.911688
0.815895 0.00604455 0.872785
0.928807 -0.0804677 0.975181
0.828603 -0.0740237 0.719517
0.902949 0.0518126 0.629563
0.834248 -0.105721 0.759474
0.927371 -0.0196735 0.982045
0.898646 0.125481 0.679814
0.796108 0.0150509 0.776878
0.804137 -0.00675069 0.767722
0.858854 -0.0103168 0.94318
0.830766 -0.00055853 0.903951
0.839703 -0.0153042 0.679005
0.898462 -0.166391 0.825505
0.826105 -0.101103 0.778347
0.831547 0.0258197 0.70077
0.916554 -0.157585 0.705284
0.819197 0.00751532 0.890645
0.861231 0.0747318 0.923706
0.80604 0.0184579 0.776778
0.902657 -0.0246414 0.625004
0.802853 0.00929838 0.811377
0.808486 -0.054447 0.81716
0.822491 0.00919258 0.719016
0.973484 -0.187202 0.8477
0.895094 0.065147 0.639582
0.84155 0.118102 0.784162
0.917131 0.181633 0.768261
0.844382 -0.110914 0.73045
0.931412 -0.108037 0.955176
0.891749 0.096383 0.663427
0.998016 -0.0955811 0.974142
0.80433 -0.0223267 0.792762
0.831564 0.0621793 0.711447
0.801601 0.0523521 0.796007
0.934358 0.125372 0.656713
0.813115 0.0154145 0.864967
0.811373 0.0692655 0.830659
0.986345 -0.154841 0.677505
0.952546 0.0921474 0.626172
0.877916 -0.00247869 0.956228
0.979839 -0.201552 0.793997
0.845372 -0.105224 0.745685
0.842909 -0.130193 0.815318
0.899723 -0.173988 0.746022
0.801482 0.0181756 0.837096
0.884113 -0.0849321 0.940782
0.851937 -0.024048 0.932136
0.8616 0.0101904 0.950245
0.855626 -0.130324 0.762265
0.865858 0.0464373 0.666017
0.970381 -0.0589676 0.987339
0.804296 -0.0620697 0.791419
0.875098 -0.104844 0.909183
0.830541 -0.0372324 0.900755
0.790197 0.00809204 0.790741
0.936109 0.187717 0.811128
0.835729 -0.114952 0.825582
0.850288 -0.129955 0.809739
0.816238 0.026544 0.885704
0.877906 0.0382392 0.643667
0.935524 0.10544 0.96182
0.853611 0.0626269 0.677104
0.857707 -0.0299183 0.670072
0.848316 0.0859159 0.70464
0.830955 -0.0964098 0.741737
0.829887 -0.085446 0.858952
0.941271 -0.159871 0.906842
0.802537 -0.0166957 0.815761
0.823272 0.043979 0.71505
0.986262 0.14095 0.946688
0.820773 -0.0639253 0.768874
0.800555 0.0400323 0.811025
0.852796 -0.110181 0.861054
0.954378 0.0626108 0.98586
0.810648 -0.0401013 0.749358
0.806994 0.0337102 0.784884
0.844076 -0.0753216 0.703291
0.832276 -0.0158664 0.90783
0.902594 0.131527 0.90871
0.807929 -0.0272427 0.779971
0.802733 0.00792525 0.817095
0.843415 0.0239438 0.678993
1.00387 0.0564171 0.996407
0.803993 0.0354656 0.782882
0.824305 0.0883867 0.792852
0.902259 -0.139802 0.908917
0.866091 -0.0729861 0.673243
0.799708 -0.0413509 0.793912
0.801788 0.0162977 0.785131
0.80261 0.0267476 0.797786
0.816475 -0.0687228 0.807799
0.805734 -0.021996 0.820095
0.809224 0.0147784 0.851073
0.832669 -0.00696151 0.892349
0.897944 -0.0885942 0.649075
0.986988 0.16286 0.923795
0.867774 -0.0518754 0.941715
0.905575 0.0440629 0.632188
0.887379 -0.140251 0.704739
0.804005 0.0173436 0.770861
0.80344 0.00704571 0.833459
0.874673 0.00879043 0.64633
0.836658 -0.102951 0.778036
0.808213 0.0548393 0.821892
0.942789 -0.102924 0.963066
0.803657 -0.0343322 0.780397
0.880169 -0.156147 0.825418
0.924854 0.129216 0.664155
0.837225 -0.12272 0.816772
0.824551 -0.0352417 0.892604
0.894592 0.13909 0.692775
0.799117 0.0298167 0.770737
0.935329 0.171524 0.892341
0.854909 0.0508871 0.673365
0.855345 -0.126176 0.738226
0.959589 -0.173386 0.705533
0.950459 -0.0290533 0.989346
0.808954 0.0272192 0.727036
0.810618 -0.0210777 0.717477
0.930002 -0.053269 0.621619
0.833537 0.0290868 0.906772
0.87838 0.148414 0.739738
0.975488 0.129594 0.950253
0.851359 0.0118455 0.674945
0.831295 -0.0234956 0.904295
0.946346 -0.17326 0.891563
0.858922 0.127243 0.840265
0.80697 -0.0113329 0.759668
0.806131 -0.0131876 0.753825
0.816099 -0.0671211 0.814
0.881197 0.113107 0.915099
0.884075 0.0777428 0.659513
0.89427 0.00953119 0.631067
0.838545 -0.0307148 0.913688
0.940588 -0.189796 0.789711
0.883376 -0.0877514 0.937919
0.816436 0.0349022 0.859655
0.881452 -0.131715 0.887937
0.807551 0.0538603 0.797624
0.809128 -0.0324988 0.850334
0.797624 -0.0174709 0.785062
0.856702 -0.0278067 0.936283
0.802976 -0.0361212 0.842887
0.86191 0.12912 0.853658
0.867947 -0.102546 0.912965
0.908693 -0.0802388 0.958569
0.875157 -0.0631484 0.942663
0.804729 -0.0462186 0.810757
0.808778 -0.049784 0.834633
0.831406 -0.0592821 0.714765
0.950576 -0.140525 0.661565
0.806346 0.0263233 0.799428
0.93404 0.184955 0.766708
0.906623 -0.154496 0.879547
0.831317 0.0769125 0.864279
0.803777 0.00847086 0.803017
0.838024 0.0462979 0.912619
0.819908 0.0631319 0.859106
0.82416 -0.097524 0.804206
0.819146 0.00993175 0.880686
0.803856 0.00576368 0.832437
0.797881 -0.00679293 0.827026
0.874129 0.154584 0.810523
0.862751 -0.029906 0.653807
0.828021 -0.104534 0.816957
0.949502 -0.0423035 0.986653
0.916148 -0.112672 0.938274
0.815806 0.0613442 0.817593
0.816023 0.0400719 0.713932
0.839275 0.0937294 0.724382
0.923742 0.0934061 0.642873
0.874673 -0.0426085 0.644236
0.805273 0.0129979 0.826417
0.810914 -0.0243611 0.744781
0.915029 -0.123466 0.670221
0.815892 -0.0615499 0.74687
0.809008 0.0548233 0.76859
0.81493 -0.0605673 0.775499
0.853349 -0.127138 0.840711
0.954199 -0.170337 0.889269
0.916446 0.154225 0.89839
0.961578 0.0638014 0.986449
0.958822 0.00220103 0.994082
0.812613 -0.0679033 0.82479
0.945498 -0.151892 0.696596
0.836692 0.113966 0.790752
0.809556 -0.00772217 0.863922
0.921562 0.115568 0.937653
0.801894 -0.0201761 0.795891
0.840718 -0.112184 0.754757
0.801905 -0.00790791 0.770243
0.810257 -0.00871294 0.855068
0.858145 -0.018307 0.658086
0.813782 0.0641836 0.754996
0.981509 0.195177 0.769897
0.804696 0.0434845 0.816112
0.966773 -0.188298 0.749482
0.904541 0.0157677 0.623601
0.815627 -0.0116075 0.873944
0.845015 -0.051049 0.697673
0.900115 0.124923 0.928387
0.843209 0.109629 0.842025
0.983055 -0.143533 0.941754
0.825426 -0.0599161 0.723769
0.981689 -0.130843 0.95152
0.949714 -0.126089 0.950532
0.914665 -0.132311 0.67657
0.819203 0.0369268 0.721754
0.860115 0.14351 0.765
0.906353 -0.00452642 0.631749
0.99669 0.176057 0.874255
0.829537 -0.0415392 0.70103
0.936881 -0.0993244 0.640386
0.925743 0.0379179 0.615633
0.991359 0.194503 0.741222
0.835654 -0.103886 0.843452
0.806301 -0.0220313 0.819194
0.804251 -0.0464343 0.778157
0.8798 -0.0320175 0.64242
0.938577 0.168777 0.884997
0.863496 -0.08927 0.682402
0.960041 0.178299 0.868957
0.917792 -0.0312433 0.975713
0.849214 0.0684542 0.912955
0.858633 -0.0407777 0.937714
0.797515 -0.00709239 0.794072
0.798119 0.00126716 0.787006
0.889985 -0.0751821 0.648095
0.800377 -0.000512528 0.849089
0.978417 0.0471963 0.606029
0.802159 0.00441769 0.80261
0.889239 0.0257194 0.634082
0.875024 -0.0406983 0.641882
0.813725 0.031273 0.723345
0.802804 -0.01787 0.786758
0.948368 0.180315 0.854749
0.901709 0.131304 0.915684
0.860313 0.075802 0.912665
0.907478 -0.140311 0.906631
0.80807 0.0164077 0.815949
0.815379 0.0746764 0.782568
0.811197 0.0325862 0.754183
0.913086 0.152378 0.894838
0.885675 -0.148572 0.881626
0.83751 0.0956761 0.727825
0.85965 0.123647 0.730558
0.953193 -0.103594 0.968578
0.827937 -0.0576886 0.88285
0.835261 -0.0932233 0.840163
0.862706 -0.0456255 0.658869
0.829001 -0.0703989 0.866289
0.991722 -0.123073 0.960305
0.806274 0.0553688 0.782184
0.939655 -0.106796 0.644066
0.892963 0.164277 0.750131
0.958163 0.171263 0.722126
0.922608 0.0141767 0.987952
0.827807 0.00637403 0.698955
0.80428 -0.0219093 0.773369
0.812508 -0.0547132 0.801748
0.805654 -0.0500131 0.791843
0.820741 -0.0667417 0.744723
0.812623 -0.0496171 0.752718
0.857604 -0.134007 0.820486
0.897249 0.169099 0.766112
0.795698 -0.00244996 0.790374
0.978639 -0.160768 0.677058
0.953316 -0.127549 0.657067
0.804186 -0.0075396 0.760478
0.801301 0.0300644 0.809077
0.966612 0.122106 0.643689
0.993563 -0.199745 0.796894
0.962065 -0.183408 0.739156
0.799961 0.00252337 0.80106
0.907577 -0.149312 0.894708
0.931724 0.115214 0.642724
1.00102 -0.196157 0.795578
0.979298 -0.0183008 0.998308
0.825991 -0.043553 0.891631
0.807979 -0.0311012 0.843097
0.896811 -0.161569 0.742803
0.811618 -0.0536536 0.773428
0.850191 -0.136151 0.77565
0.827568 -0.0186743 0.890815
0.810655 -0.0490633 0.746589
0.874648 0.1183 0.896896
0.812274 0.061098 0.78059
0.799448 -0.00830402 0.82145
0.833749 0.0240315 0.690078
0.811629 0.0278742 0.747615
0.973736 0.202785 0.805438
0.865081 0.0315636 0.655272
0.801113 0.00815324 0.775686
0.803936 0.0445646 0.844378
0.942267 0.0870497 0.972804
0.910813 0.0261935 0.617947
0.979519 0.147317 0.672566
0.942837 0.178545 0.743957
0.87261 -0.0535917 0.652942
0.816527 -0.0084914 0.865849
0.80353 0.0192908 0.804877
0.887966 -0.148485 0.715612
0.836422 -0.0702624 0.892595
0.993751 -0.125756 0.953527
0.805725 -0.0444549 0.832287
0.911948 0.114682 0.931479
0.893631 -0.00972342 0.630932
0.907772 -0.176522 0.801918
0.819056 -0.092077 0.814817
0.899162 -0.168715 0.80284
0.9061 -0.171569 0.825781
0.932396 -0.0281033 0.615609
0.890705 0.0808304 0.943348
0.80447 0.00647137 0.821948
0.931089 0.184229 0.770815
0.853221 0.105905 0.711253
0.814388 0.0165581 0.867179
0.877116 0.14535 0.73684
0.843922 0.0819145 0.901888
0.936208 0.174724 0.718469
0.839577 -0.0128888 0.679393
0.839905 0.119226 0.783723
0.804561 -0.0379226 0.818715
0.832884 0.117548 0.809226
0.899607 0.177474 0.792646
0.884475 0.055283 0.644416
0.80359 -0.0445078 0.785881
0.92336 -0.18097 0.764469
0.828042 -0.104023 0.838256
0.81411 -0.0611878 0.801127
0.962091 0.185111 0.857646
0.835523 0.00112289 0.906567
0.818347 0.0777131 0.814035
0.798755 0.00448937 0.804704
0.822486 -0.0921521 0.797168
0.874514 0.149235 0.843441
0.803249 0.0458471 0.806837
0.916594 0.18161 0.833028
0.822071 -0.0920349 0.802636
0.854727 0.0216931 0.937812
0.827684 0.0798881 0.741093
0.891075 -0.049061 0.640671
0.913475 0.180937 0.754166
0.807885 0.0191115 0.858996
0.847943 0.108214 0.874632
0.992862 -0.0933442 0.616175
0.840255 0.122979 0.775798
0.832697 0.0437994 0.892922
0.806272 -0.0476527 0.799111
0.802932 -0.0362859 0.833621
0.804043 -0.0171592 0.792226
0.799191 -0.00966988 0.800675
0.909189 0.170284 0.846335
0.840989 -0.0872423 0.720941
0.912853 0.109467 0.655361
0.815279 0.0739069 0.802226
0.852318 -0.121476 0.861521
0.820267 0.0502784 0.861831
0.965998 -0.101779 0.972524
0.820315 -0.0540454 0.730603
0.82742 0.0434842 0.70373
0.858392 0.0653872 0.675344
0.9431 -0.145276 0.681777
0.813057 0.050561 0.774891
0.794541 0.00943941 0.784402
0.98388 -0.196578 0.828621
0.83733 -0.0864277 0.725482
0.850109 0.0351761 0.676151
0.893584 0.0847031 0.950698
0.869569 0.136331 0.869127
0.850198 -0.0968247 0.715793
0.803546 0.0145339 0.831638
0.977767 0.116516 0.964062
0.825323 -0.0422955 0.718938
0.864906 0.132903 0.860134
0.866459 0.144565 0.805174
0.969166 -0.194626 0.852683
0.888749 -0.133507 0.907823
0.838979 -0.0353877 0.695205
0.867925 0.15013 0.777999
0.93144 -0.147627 0.9043
0.821935 0.0108013 0.703035
0.858199 -0.0584589 0.666036
0.833669 -0.112171 0.789791
0.991846 0.177984 0.709969
0.931518 0.104764 0.951819
0.870214 -0.155665 0.813726
0.812824 -0.0079658 0.852245
0.915058 -0.119553 0.944144
0.799628 0.00531692 0.798211
0.972385 0.186749 0.736711
0.800401 -0.0228351 0.829306
0.815287 0.0769508 0.747143
0.798575 -0.00923127 0.797885
0.85019 0.141203 0.798601
0.873193 0.0153942 0.649244
0.847098 -0.12358 0.82073
0.822242 -0.0245028 0.888446
0.948624 -0.19432 0.82628
0.903989 -0.128151 0.675158
0.910387 0.143603 0.90086
0.942551 0.186558 0.852019
0.897592 0.152329 0.880804
0.825665 0.0802856 0.742345
0.845317 0.11708 0.760304
0.856775 0.0507488 0.931622
0.972775 0.191422 0.864363
0.805798 0.0372725 0.786763
0.903032 0.141158 0.692394
0.905119 0.0762297 0.646374
0.865746 0.0342898 0.655707
0.814983 -0.0371426 0.73299
0.802493 -0.0027307 0.766656
0.994095 0.136321 0.948852
0.801889 0.00285719 0.804899
0.985244 0.0380486 0.994184
0.981999 0.197947 0.818527
0.824778 0.0288705 0.713808
0.802144 0.000275849 0.81305
0.998835 -0.00608222 0.595981
0.895214 -0.110875 0.913637
0.801281 0.014388 0.782852
0.997499 -0.174857 0.698183
0.801197 0.0120175 0.831066
0.918054 0.153541 0.697971
0.802454 -0.0498981 0.791305
0.843529 -0.0842443 0.708574
0.806596 0.0285489 0.850723
0.84627 0.0591272 0.683636
0.83793 0.0787411 0.881705
0.992532 0.106117 0.63376
0.802544 -0.0435603 0.778419
0.962809 0.195653 0.796921
0.803398 -0.0131116 0.801072
0.820726 -0.0108966 0.709353
0.828665 0.0856763 0.742655
0.96586 0.170646 0.69651
0.97011 -0.179166 0.878418
0.929798 -0.0346856 0.985654
0.862353 0.0740253 0.927231
0.826468 0.093596 0.836479
0.963548 0.157605 0.911303
0.878675 -0.148254 0.73969
0.802542 0.00475262 0.767254
0.802931 0.0183198 0.768268
0.880855 0.0390221 0.649883
0.998013 -0.12891 0.961239
0.957799 0.184705 0.747271
0.85287 -0.0149543 0.664194
0.825688 0.0566484 0.882367
0.895254 0.0415112 0.63366
0.798503 0.00835989 0.805193
0.828905 0.0997501 0.769762
0.85554 -0.128039 0.861625
0.945388 -0.192517 0.804243
0.900524 -0.179222 0.810227
0.966838 0.018455 0.603038
0.803555 0.0232688 0.81336
0.82052 -0.0633005 0.854709
0.813686 0.0579153 0.752942
0.811204 0.0106872 0.716823
0.813001 -0.0531693 0.767415
0.988391 -0.0319227 0.995006
0.922501 -0.147518 0.909456
0.852163 -0.032063 0.928429
0.834614 0.115981 0.768932
0.97897 0.0746597 0.616931
0.805449 -0.0138729 0.833166
0.797257 -0.00524207 0.808264
0.916631 0.178186 0.772703
0.92195 -0.159148 0.891913
0.861859 0.0704457 0.672082
0.975461 0.180452 0.728933
0.817571 0.046377 0.732501
0.807889 0.00465142 0.856276
0.850164 -0.124784 0.763595
0.973191 -0.0902335 0.624741
0.864009 0.132452 0.879563
0.866042 -0.140588 0.819605
0.872303 0.145893 0.749929
0.904631 -0.0760094 0.648261
0.968097 -0.0996345 0.633578
0.880071 -0.157116 0.850944
0.96153 0.18634 0.852805
0.870407 -0.0259674 0.957516
0.805029 0.0276028 0.805467
0.808244 -0.0501402 0.849373
0.871879 -0.147437 0.736161
0.796385 0.00264251 0.805489
0.851424 0.0289149 0.66909
0.833351 -0.058791 0.709349
0.983117 0.00609868 1.00446
0.935234 -0.164313 0.71417
0.977592 -0.112983 0.964313
0.915904 0.115656 0.660791
0.804868 0.031837 0.80309
0.822908 0.08451 0.82188
0.823245 -0.0490464 0.890699
0.799333 0.00321368 0.775791
0.812509 0.0680307 0.802368
0.816827 -0.0161623 0.875006
0.932176 0.180235 0.857249
0.805577 0.030114 0.79337
0.879105 0.0679866 0.946673
0.804794 -0.0273029 0.822626
0.812238 -0.0543116 0.847582
0.943515 0.16878 0.703355
0.899266 -0.162959 0.745287
0.879398 0.158015 0.772282
0.812013 0.0477477 0.772559
0.901129 -0.146219 0.70822
0.920888 -0.0253635 0.986398
0.90061 -0.165769 0.786984
0.888883 -0.015026 0.630679
0.797617 -0.00188261 0.774328
0.800848 0.0117566 0.819428
0.856629 0.0762298 0.685704
0.807405 0.0284835 0.753653
0.873384 0.151349 0.774556
0.811148 0.057698 0.801336
0.797008 -0.0220708 0.810268
0.910384 -0.17479 0.842224
0.798875 0.0276487 0.810084
0.929703 -0.148071 0.919176
0.894572 -0.0237902 0.625952
0.898026 0.148532 0.881374
0.862293 -0.0424699 0.935353
0.833097 0.0310507 0.694183
1 0.0465078 0.989825
0.997792 -0.199888 0.84518
0.891085 -0.145734 0.876023
0.879799 -0.0907507 0.664304
0.816426 0.0576185 0.870123
0.808745 -0.00121609 0.856828
0.818291 0.0136113 0.88407
0.802091 -0.0389996 0.821011
0.831428 0.0902811 0.853932
0.824713 0.0956823 0.824209
0.994294 -0.198987 0.770474
0.837209 -0.0909337 0.748887
0.850659 -0.0408068 0.673164
0.801541 0.00254426 0.77573
0.806746 0.00439589 0.759813
0.928142 -0.183088 0.753209
0.829737 0.0969465 0.760465
0.870663 0.110833 0.897772
0.816519 -0.00267116 0.70874
0.957175 -0.036648 0.991938
0.962011 -0.137694 0.656625
0.827928 0.0857574 0.755501
0.887465 0.0557424 0.952892
0.854037 0.0523105 0.92933
0.889565 -0.140167 0.892916
0.817135 -0.053169 0.851606
0.956213 -0.109224 0.639388
0.922675 0.145218 0.684488
0.854009 0.116006 0.866808
0.849731 0.0929109 0.702335
0.877194 0.074775 0.667443
0.818843 0.0295237 0.721415
0.944596 0.161757 0.69442
0.817081 -0.0831544 0.819126
0.836851 0.114033 0.804637
0.837026 -0.034752 0.912205
0.994124 0.129212 0.949288
0.805385 -0.0403377 0.775185
0.897685 -0.0183723 0.969593
0.817416 0.0685388 0.758467
0.807746 -0.00466691 0.861408
0.915861 0.165894 0.851151
0.958808 0.140581 0.937923
0.834215 0.0886422 0.735151
0.97819 -0.189076 0.743117
0.850898 0.11988 0.749205
0.815924 0.0367274 0.864242
0.823402 -3.506e-05 0.903622
0.996272 -0.198986 0.783076
0.812042 0.024947 0.738538
0.978431 0.192672 0.847944
0.880457 0.080975 0.937399
0.840857 0.106824 0.740974
0.80867 -0.0230509 0.841884
0.903549 0.168419 0.846574
0.811553 -0.0492718 0.757168
0.837102 0.0337288 0.914845
0.800136 -0.0155627 0.822923
0.978784 0.152094 0.665661
0.916358 -0.184452 0.817941
0.860739 -0.140461 0.849328
0.871869 0.0242083 0.956032
0.908828 0.0589447 0.626302
0.913932 -0.167359 0.861523
0.974384 0.170991 0.903343
0.953312 -0.0877509 0.620071
0.809283 0.00849594 0.858809
0.925449 0.085648 0.633872
0.976243 0.202168 0.817706
0.962148 0.033206 0.995903
0.865842 0.10104 0.907501
0.800911 0.00453151 0.804134
0.94125 0.18071 0.860558
0.930347 0.176121 0.727092
0.977371 0.176531 0.882684
0.823522 -0.0185421 0.894001
0.937156 0.00635566 0.989931
0.802401 -0.00805096 0.807648
0.863304 -0.10649 0.701688
0.798896 -0.00815869 0.76966
0.884991 0.0307592 0.961791
0.869832 0.0585318 0.928191
0.835124 -0.00610579 0.681636
0.955135 -0.0797125 0.979894
0.804152 -0.0154874 0.795052
0.946337 -0.132944 0.667698
0.850935 0.112513 0.73586
0.810385 -0.0402116 0.778054
0.983622 -0.153952 0.932876
0.83967 -0.0907151 0.71441
0.967698 0.185753 0.740298
0.854727 0.0423533 0.93685
0.90048 -0.119675 0.931541
0.910773 -0.0322079 0.982844
0.805826 -0.00649188 0.859128
0.867704 -0.0524195 0.65858
0.894688 0.0703347 0.646929
0.885314 0.130739 0.898221
0.814138 0.0581354 0.738247
0.909772 -0.116323 0.661109
0.894341 0.100774 0.937284
0.991943 0.00903557 0.601137
0.967266 0.122772 0.650257
0.80566 0.00887097 0.761331
0.798767 -0.00827842 0.78274
0.877513 0.0312318 0.956714
0.998233 0.0410581 0.995632
0.826411 0.0954575 0.789181
0.822836 0.0718462 0.722984
0.806026 0.00198413 0.785998
0.884039 0.100982 0.926372
0.983857 -0.105882 0.627477
0.882103 -0.151066 0.740739
0.860042 0.138131 0.771072
0.812954 0.0315785 0.870045
0.978565 0.138548 0.940906
0.810807 -0.0634636 0.803512
0.909937 0.0270059 0.619334
0.805967 0.0351585 0.828744
0.904622 0.156299 0.728435
0.814855 -0.000367329 0.874747
0.807199 -0.034716 0.837334
0.832989 -0.032278 0.907314
0.891273 -0.168704 0.796582
0.995523 -0.17651 0.889543
0.938507 0.188446 0.824921
0.825224 -0.0659126 0.863855
0.943156 -0.172227 0.708586
0.987713 -0.0237703 0.598872
0.796662 -0.00211235 0.792991
0.975151 -0.0230265 0.993898
0.96159 -0.0992023 0.972152
0.87167 -0.0601374 0.656286
0.946231 -0.10859 0.635655
0.811054 -0.048265 0.76649
0.832753 0.0731788 0.720508
0.807818 0.0373154 0.763948
0.929751 -0.150516 0.907927
0.795578 0.00259361 0.814548
0.997059 0.139128 0.945959
0.84817 -0.133213 0.782806
0.799796 0.00505016 0.787508
0.922775 0.16568 0.712115
0.987075 0.177928 0.712375
0.809413 0.0241107 0.748099
0.802951 -0.00168522 0.794199
0.859031 0.136914 0.841747
0.821037 0.087365 0.800217
0.92506 -0.173306 0.854297
0.934551 -0.178407 0.86161
0.81324 -0.000540332 0.727909
0.948487 -0.135736 0.929869
0.868816 -0.0971977 0.689736
1.00246 0.150831 0.667015
0.984659 -0.123966 0.638778
0.953541 -0.084118 0.62994
0.841887 -0.00607951 0.921139
0.861903 -0.0846742 0.916413
0.909173 -0.171498 0.761581
0.795515 -0.0183921 0.807741
0.802073 0.00620489 0.774569
0.923929 0.164836 0.714236
0.803992 0.0260139 0.832796
0.814658 0.00108655 0.727679
0.903523 -0.106403 0.666598
0.80155 0.0218273 0.773194
0.811259 0.0281835 0.854738
0.822835 -0.0961035 0.765129
0.805691 -0.023861 0.814611
0.983278 0.0769445 0.979451
0.870778 0.0338869 0.648986
0.828961 -0.0850776 0.85223
0.814351 -0.0148446 0.876865
0.934932 -0.0670934 0.625523
0.854756 -0.00600893 0.658619
0.908152 -0.107098 0.66582
0.910277 0.163974 0.873043
0.844677 0.104037 0.883364
0.898197 -0.18032 0.77454
0.810423 -0.0547297 0.800955
0.808416 -0.0415042 0.816726
0.795055 0.0185103 0.778915
0.849891 -0.0435762 0.676357
0.970067 -0.079491 0.617268
0.805607 -0.0218691 0.816549
0.95453 -0.159738 0.917592
0.87476 0.147483 0.825409
0.885337 -0.105514 0.920829
0.8915 0.168012 0.796068
0.949164 0.18752 0.85634
0.985782 0.180445 0.886315
0.842605 0.112181 0.753254
0.835945 0.00877656 0.91418
0.975535 0.107445 0.630531
0.978438 -0.189547 0.854346
0.91899 -0.147816 0.688864
0.825349 0.078432 0.852978
0.997108 -0.163792 0.687852
0.96962 -0.181776 0.871132
0.813803 -0.0555548 0.758257
0.954833 0.0772662 0.980227
0.887571 0.168466 0.802902
0.816558 -0.0585947 0.746081
0.907446 0.132429 0.919165
0.894209 -0.100459 0.660729
0.985973 0.154456 0.672776
0.987719 0.194956 0.839826
0.805954 0.043028 0.831573
0.843262 -0.0207106 0.678599
0.815378 -0.0169453 0.876432
0.813078 0.0326448 0.747116
0.818226 -0.0789646 0.809842
0.957973 -0.192895 0.7907
0.841957 -0.0948629 0.722559
0.978771 -0.133912 0.650814
0.838563 0.103883 0.815423
0.901447 0.011561 0.973802
0.841154 -0.0593858 0.920056
0.902746 -0.139258 0.691202
0.826837 0.103527 0.813778
0.933899 -0.00379248 0.988199
0.871298 -0.1517 0.804136
0.967668 0.0913703 0.974815
0.981345 0.00462324 1.00276
0.803548 -0.0260945 0.839511
0.853131 -0.124379 0.846266
0.884469 -0.158026 0.820876
0.951385 0.0846543 0.630776
0.995877 -0.199353 0.816185
0.823749 -0.080101 0.825484
0.816124 -0.0804427 0.79521
0.868265 -0.0447911 0.940985
0.851962 0.122611 0.857371
0.8152 0.0226835 0.734315
0.812 0.0147165 0.734175
0.831023 -0.108333 0.819083
0.853918 -0.116744 0.864703
0.977711 0.0855047 0.982109
0.869661 0.128045 0.879711
0.807876 -0.00489588 0.840152
0.801772 0.0116084 0.806763
0.963809 -0.110474 0.63939
0.975104 -0.0232946 0.997155
0.831807 0.0531204 0.887639
0.876752 -0.024017 0.950323
0.949274 0.0425198 0.609513
0.853017 0.127925 0.838193
0.942445 -0.167125 0.699694
0.856214 -0.102257 0.894644
0.938988 0.0961686 0.639797
0.798414 -0.0116236 0.815866
0.902078 -0.16905 0.756465
0.871437 0.0945164 0.9202
0.87436 -0.153078 0.814957
0.824057 0.0802458 0.810247
0.913285 0.0806951 0.636591
0.829378 0.0976267 0.76047
0.80893 0.0720841 0.796049
0.857898 -0.104538 0.702201
0.994762 -0.192378 0.751496
0.817486 0.0819958 0.788377
0.869398 0.122128 0.890085
0.885696 0.144056 0.722677
0.9596 -0.126475 0.943673
0.800269 0.0171263 0.7851
0.804045 0.0156267 0.769113
0.872485 -0.0361731 0.652256
0.986365 0.0783913 0.61596
0.80642 0.0384165 0.759243
0.846914 0.115235 0.839706
0.950226 -0.104182 0.633704
0.986802 0.136827 0.650939
0.930581 -0.124979 0.661149
0.800903 0.00616809 0.801321
0.894266 0.106999 0.665446
0.851768 0.130418 0.819188
0.939256 0.1087 0.639849
0.877696 -0.148157 0.839735
0.809688 -0.0329315 0.738386
0.823853 -0.0833236 0.771204
0.823411 0.0678694 0.860071
0.913966 -0.0286206 0.981879
0.990074 -0.0388362 0.603166
0.800538 0.0232713 0.795021
0.80969 0.00755974 0.740842
0.94667 -0.184916 0.842851
0.800826 -0.00632744 0.767202
0.863451 -0.121504 0.717652
0.804393 0.034704 0.789381
0.946456 0.0932444 0.966943
0.811537 -0.00739051 0.734128
0.954814 -0.12963 0.656504
0.868462 0.145226 0.829164
0.902247 -0.0529502 0.635401
0.849865 -0.118769 0.847556
0.833564 0.103531 0.777939
0.910754 0.155863 0.891414
0.922708 0.0412651 0.977037
0.809437 0.0282596 0.736359
0.817781 -0.0316457 0.746195
0.985259 -0.175263 0.88719
0.926439 -0.15024 0.909199
0.810628 0.0478835 0.830359
0.80778 0.00770452 0.756715
0.897225 0.118687 0.921282
0.928023 -0.15151 0.684118
0.831833 -0.0997482 0.843901
0.839346 0.0673984 0.701044
0.806109 -0.0370198 0.807173
0.992182 0.0359356 0.60465
0.886144 0.0781884 0.946737
0.971744 0.056839 0.611479
0.987774 0.188222 0.879312
0.828896 0.0962141 0.775881
0.864411 0.0652045 0.671696
0.888876 -0.0267994 0.966448
0.894412 -0.147271 0.872214
0.920806 0.104097 0.954011
0.814832 -0.0577445 0.852319
0.88355 -0.149556 0.730861
0.943597 -0.0315487 0.988717
0.846909 0.0386406 0.680818
0.81915 0.0590081 0.749753
0.856261 0.000766836 0.940598
0.840209 0.0556686 0.699251
0.802988 -0.00726695 0.788597
0.958177 0.17105 0.902132
0.827146 0.0740227 0.877819
0.882741 -0.0688112 0.941548
0.80806 0.0422699 0.756276
0.826175 -0.0716928 0.740551
0.847791 -0.131829 0.804425
0.872428 0.111162 0.914036
0.881132 0.143659 0.881387
0.802502 0.00440125 0.814316
0.807689 0.0557907 0.791611
0.796515 0.00112016 0.812912
0.999586 -0.157601 0.929947
0.868739 0.091512 0.67897
0.888848 -0.157426 0.732435
0.814025 -0.0463383 0.733812
0.825386 -0.0846829 0.748549
0.94649 -0.190198 0.812605
0.835633 -0.113691 0.817074
0.801804 0.0279448 0.832892
0.835955 0.0594788 0.884297
0.873836 0.0619984 0.663485
0.917922 -0.14775 0.688367
0.802561 -0.0380647 0.810914
0.958915 -0.0226139 0.997741
0.859354 -0.129374 0.843844
0.91224 -0.156716 0.703884
0.834272 -0.089801 0.876161
0.849984 0.00923818 0.937807
0.800895 -0.00238024 0.802371
0.916322 0.159105 0.706956
0.821892 -0.0776924 0.756875
0.851007 -0.127624 0.832236
0.902846 -0.138892 0.687477
0.818476 0.00849129 0.714939
0.939735 0.043287 0.617956
0.871396 -0.0753208 0.6728
0.798583 -0.0255732 0.830176
0.861171 -0.0594928 0.929184
0.802553 -0.00552529 0.800987
0.989047 -0.0466367 0.99192
0.855449 -0.0721213 0.677089
0.871736 0.137603 0.720237
0.943554 -0.0387644 0.611164
0.819425 -0.0735722 0.767349
1.00049 0.186145 0.727336
0.935103 -0.0158643 0.612872
0.921482 0.184335 0.787164
0.975046 -0.182876 0.887063
0.9665 0.195848 0.801353
0.962644 0.00296787 0.996638
0.891358 -0.0641993 0.958722
0.809094 -0.0707086 0.793009
0.93109 -0.0310757 0.987582
0.910711 0.169697 0.746432
0.984268 -0.145867 0.662654
0.934139 0.186596 0.764641
0.996729 -0.0927775 0.62244
0.831654 -0.0170096 0.905659
0.849904 -0.111705 0.730572
0.846572 -0.121865 0.840319
0.899739 -0.138881 0.904438
0.960321 0.0638498 0.986805
0.962031 -0.181435 0.736639
0.89156 -0.112477 0.671013
0.9754 0.142217 0.938231
0.856402 0.126733 0.857386
0.925042 0.177061 0.754679
0.825091 0.08013 0.754262
0.801845 -0.0199124 0.783353
0.807544 0.00157138 0.798768
0.901128 0.0267139 0.972783
0.805185 -0.00681243 0.7735
0.906219 0.164951 0.724788
0.799296 -0.0235839 0.789155
0.891611 -0.163043 0.853802
0.940083 0.0491433 0.980498
0.804253 -0.0101165 0.855662
0.868988 -0.0988749 0.914868
0.81755 -0.0794153 0.804195
0.902998 0.0572234 0.968197
0.803301 -0.0541308 0.805994
0.864959 0.117684 0.896122
0.894261 0.101472 0.659833
0.838719 -0.10316 0.856548
0.806296 0.0295483 0.78813
0.997243 -0.149511 0.92416
0.802717 -0.00143871 0.752436
0.847857 0.107227 0.747126
0.811977 0.0228619 0.740081
0.804623 -0.0220867 0.754741
0.823855 0.052784 0.883814
0.841716 -0.0380521 0.681472
0.827846 -0.0973672 0.770933
0.890079 -0.159428 0.84542
0.931605 -0.157319 0.907715
0.910392 0.151717 0.891599
0.813185 0.0233122 0.866544
1.00259 -0.00988585 0.602772
0.993473 -0.0264785 0.991959
0.860369 0.129368 0.749319
0.795281 0.00313568 0.799238
0.88672 -0.147274 0.852015
0.989225 0.124665 0.947176
0.933011 0.146356 0.918315
0.943292 0.00453592 0.989716
0.96677 0.169665 0.911644
0.817095 -0.00493082 0.715095
0.946267 -0.0356999 0.60773
0.826771 -0.0200567 0.905468
0.803109 0.0402838 0.799383
0.910815 -0.171088 0.771798
0.946616 -0.176509 0.715057
0.817404 -0.0762247 0.746087
0.91326 0.158862 0.896912
0.807776 -0.00345593 0.839297
0.79891 -0.0119306 0.783552
0.828454 -0.106434 0.800586
0.815491 0.0246761 0.865605
0.822864 -0.0968798 0.78048
0.841149 -0.123975 0.812408
0.940445 -0.158318 0.917844
0.971506 -0.018679 0.603627
0.877475 -0.0305923 0.644119
0.850153 0.120121 0.757427
0.829986 -0.0421659 0.892812
0.84441 -0.129191 0.779692
0.846332 -0.0241861 0.676529
0.888954 0.143535 0.715661
0.961069 0.153264 0.921619
0.866441 -0.140808 0.849388
0.799075 0.0104868 0.800508
0.936823 0.155359 0.899777
0.819626 -0.0576117 0.742565
0.806429 0.038689 0.789122
0.908506 0.0758329 0.963829
0.996939 0.037934 0.994689
0.806527 0.0346432 0.823744
0.986812 -0.165764 0.688009
0.893912 -0.00941602 0.628909
0.85585 0.13626 0.794417
0.894651 0.15455 0.746118
0.968954 -0.115735 0.963495
0.844522 0.116441 0.836808
0.809965 0.0651571 0.813217
0.868811 -0.0265026 0.652792
0.806308 -0.00625832 0.738514
0.806289 0.0132374 0.802033
0.801739 0.0127168 0.789481
0.978076 -0.19219 0.762049
0.886533 -0.0317174 0.960022
0.92529 0.0916185 0.640941
0.798447 -0.0156518 0.808864
0.811116 0.0637512 0.758474
0.89974 -0.148125 0.713898
0.872299 -0.122416 0.697356
0.876348 -0.125169 0.896254
0.947433 -0.197788 0.795331
0.973054 0.0119412 0.998403
0.800366 0.0120948 0.803917
0.960607 0.157748 0.687768
0.890564 0.00576491 0.639303
0.802705 0.00281878 0.736652
0.827904 -0.0889423 0.752006
0.89997 0.0462036 0.977573
0.905025 -0.028785 0.968979
0.907967 0.149466 0.700957
0.985019 0.0956835 0.98164
0.864013 0.151896 0.797195
0.908553 0.102667 0.94296
0.809967 0.00349415 0.853362
0.861181 0.143572 0.746132
0.956221 0.14795 0.668054
0.801167 0.00924244 0.79475
0.897792 -0.0969328 0.658075
0.897355 0.16879 0.823779
0.972699 0.140545 0.663269
0.858486 0.120194 0.741551
0.929952 -0.183259 0.774192
0.82448 -0.0905847 0.816649
0.906933 0.0157469 0.97832
0.814341 0.0652744 0.764952
0.80068 -0.0017216 0.804473
0.863061 -0.149802 0.775515
0.817836 -0.00975739 0.73341
0.891127 -0.118044 0.685997
1.00005 -0.0809689 0.615239
0.884494 0.0133632 0.640536
0.875306 0.141167 0.858611
0.855485 -0.0397634 0.935487
0.796769 0.00932403 0.792364
0.903623 -0.128408 0.683647
