ply
format ascii 1.0
comment Created by Open3D
element vertex 1736
property double x
property double y
property double z
end_header
0.64774 -0.188502 0.707895
0.498508 0.00101364 0.837975
0.658683 -0.196683 0.832005
0.502426 -0.0154415 0.902112
0.696539 0.198628 0.704634
0.527212 -0.0976207 0.851019
0.680702 -0.200799 0.727663
0.593746 -0.165627 0.8267
0.699781 -0.19737 0.890478
0.627019 0.190228 0.829459
0.667514 0.20021 0.892204
0.500658 0.0428514 0.736413
0.626239 0.18744 0.82395
0.596788 -0.17025 0.818032
0.694335 -0.201705 0.875581
0.697719 -0.204791 0.77428
0.502505 -0.0189547 0.833993
0.576336 0.15666 0.745646
0.674912 -0.198377 0.754446
0.551563 -0.130836 0.857769
0.579789 -0.155073 0.825488
0.544105 -0.12403 0.897021
0.552783 0.137772 0.842008
0.501186 -0.00849583 0.861401
0.499441 0.0122133 0.873577
0.51595 0.0655898 0.824286
0.552175 0.133208 0.826127
0.615069 0.180548 0.89829
0.511745 -0.0669997 0.82483
0.680441 0.197072 0.860815
0.504726 -0.00451133 0.848114
0.573184 0.147161 0.851987
0.652923 0.196775 0.888721
0.593277 -0.169272 0.88862
0.637446 -0.18491 0.71383
0.497365 0.0303553 0.814904
0.549951 0.128413 0.856766
0.504029 -0.0263029 0.789911
0.534995 0.105902 0.803304
0.551437 0.13935 0.768363
0.658816 -0.191919 0.836203
0.541305 0.120275 0.89972
0.618077 0.186125 0.731177
0.674194 0.198516 0.709848
0.502264 0.0166126 0.832946
0.530752 0.111295 0.750435
0.609296 -0.180877 0.788126
0.549119 -0.137862 0.815747
0.529164 -0.0942179 0.71935
0.567056 0.145135 0.754495
0.595516 0.164738 0.804417
0.501162 0.0321385 0.874646
0.671009 -0.196396 0.7205
0.645919 0.197077 0.7181
0.516068 -0.0819121 0.751441
0.548316 -0.125814 0.86954
0.564686 0.146857 0.768868
0.690027 0.193054 0.817816
0.641378 0.190115 0.763906
0.669319 -0.197315 0.702328
0.588391 -0.165014 0.786771
0.668439 0.194209 0.763014
0.504551 -0.049581 0.841391
0.537396 0.119513 0.841941
0.643413 0.19387 0.863476
0.698721 0.200383 0.797607
0.502889 -0.00415279 0.8673
0.565527 -0.142255 0.823311
0.671959 -0.198197 0.712867
0.674222 0.196497 0.83812
0.550083 -0.129723 0.852592
0.690943 0.199441 0.855973
0.671065 0.19869 0.702728
0.531214 -0.102189 0.745101
0.520533 -0.0854583 0.87896
0.516741 0.101245 0.831123
0.557163 0.139663 0.850594
0.505838 0.0651241 0.876282
0.512311 0.078257 0.815826
0.606728 -0.180313 0.820852
0.611362 0.185456 0.783047
0.685982 0.196286 0.771613
0.509199 0.0736975 0.858455
0.559186 0.146092 0.736162
0.590633 0.165668 0.804007
0.505826 -0.017525 0.745134
0.561102 -0.135806 0.873896
0.510694 0.070772 0.893111
0.630533 0.189547 0.800049
0.584771 -0.163607 0.792278
0.515565 -0.0804488 0.75048
0.587674 -0.163295 0.828538
0.497863 -0.0374031 0.772378
0.541949 -0.128508 0.775217
0.648201 0.197284 0.856035
0.566752 0.146404 0.739459
0.502709 -0.00500141 0.850282
0.624614 0.189905 0.885168
0.650495 -0.198048 0.746484
0.640221 0.190879 0.754526
0.51446 -0.0829076 0.783459
0.675895 0.198253 0.810477
0.618989 0.183851 0.860761
0.518563 0.0866899 0.841044
0.505841 -0.0439727 0.776286
0.556495 0.139291 0.782004
0.537375 0.117201 0.82834
0.559673 0.147995 0.901681
0.607336 -0.174134 0.869803
0.513555 -0.0780408 0.772053
0.697407 0.196912 0.856747
0.50394 -0.0359413 0.857757
0.684993 0.197425 0.856373
0.502956 0.0466155 0.773446
0.512955 -0.0759307 0.865581
0.636401 0.19246 0.795481
0.500559 -0.0323887 0.819794
0.576911 -0.15701 0.871886
0.678588 -0.196101 0.859468
0.503175 0.0158421 0.719534
0.599449 -0.173944 0.891782
0.536469 0.125948 0.753479
0.50581 0.0510865 0.856803
0.568915 0.14947 0.874089
0.619915 -0.186118 0.742404
0.614814 -0.179281 0.70718
0.513013 0.0645014 0.76533
0.62785 -0.186657 0.754733
0.588634 -0.163619 0.832139
0.504175 0.049419 0.892333
0.513761 0.0703731 0.891487
0.604043 -0.174445 0.807714
0.505132 -0.048904 0.772733
0.508346 0.0560707 0.804984
0.687554 0.199689 0.764789
0.5326 0.110597 0.727117
0.683554 -0.196513 0.710416
0.507028 0.018118 0.876279
0.496973 -0.00268713 0.743506
0.667079 -0.197011 0.848994
0.547247 -0.123571 0.738411
0.51654 0.0717081 0.887104
0.665266 0.200519 0.706312
0.680613 -0.196284 0.893162
0.592966 -0.165676 0.834109
0.616621 0.179595 0.775175
0.521476 0.0911333 0.75029
0.561532 0.135821 0.833777
0.508841 -0.061784 0.860009
0.597594 0.17406 0.790203
0.565429 0.148289 0.891514
0.676709 0.201554 0.879151
0.506694 -0.0604809 0.844679
0.633763 -0.186198 0.811137
0.635682 -0.183765 0.84587
0.537167 -0.11995 0.894129
0.501628 0.0446692 0.848942
0.503004 0.0304093 0.725785
0.506755 -0.0557506 0.895249
0.558536 -0.142222 0.722781
0.56422 -0.147358 0.728301
0.599553 -0.169002 0.844336
0.658275 -0.19237 0.7251
0.532197 -0.10447 0.78497
0.696441 -0.198248 0.859076
0.582757 0.159468 0.73834
0.530157 -0.113052 0.742406
0.613118 -0.184249 0.773207
0.533584 -0.109878 0.758324
0.60927 -0.176986 0.842461
0.514872 -0.0653702 0.883746
0.583783 0.162806 0.758541
0.507886 0.0547918 0.850002
0.534879 0.113196 0.781531
0.522025 0.0858056 0.802047
0.521061 0.0832898 0.891574
0.548734 0.125929 0.763875
0.511662 -0.0681598 0.788759
0.57314 0.156531 0.856755
0.685031 0.200339 0.82894
0.664871 -0.201225 0.708569
0.604663 0.175031 0.720567
0.660035 0.197782 0.884685
0.499592 -0.026259 0.765967
0.675853 -0.197967 0.881576
0.506448 0.0446078 0.861697
0.622088 0.17873 0.793692
0.57538 0.152294 0.883817
0.600051 -0.17311 0.795412
0.539584 -0.11618 0.808764
0.554409 0.134582 0.81647
0.50327 0.011145 0.697326
0.599291 -0.165601 0.861081
0.660869 -0.194579 0.750869
0.5602 0.140951 0.891467
0.503115 0.0122595 0.705828
0.634561 -0.193671 0.901869
0.626359 -0.189778 0.785511
0.538512 0.118234 0.749859
0.598341 -0.17823 0.758991
0.656525 -0.19191 0.889546
0.564159 0.146905 0.758399
0.500333 -0.00101482 0.814401
0.492433 0.0040628 0.714707
0.500245 0.00787941 0.814964
0.607266 0.179542 0.764215
0.551166 -0.134851 0.780425
0.678041 -0.19445 0.763956
0.513658 -0.0756354 0.709826
0.615232 -0.179744 0.81098
0.526223 0.105098 0.755592
0.616382 -0.182779 0.745642
0.54065 -0.120227 0.832089
0.528665 0.103756 0.794346
0.686517 -0.193787 0.789046
0.522781 -0.101982 0.819961
0.50134 -0.011953 0.858147
0.684071 0.200608 0.749415
0.536168 -0.112628 0.809926
0.558336 -0.148797 0.885534
0.692708 -0.199193 0.741125
0.512557 -0.0606357 0.850566
0.548942 -0.130385 0.79379
0.623126 -0.187382 0.712021
0.53137 0.104827 0.731606
0.503684 -0.0179837 0.796209
0.524306 -0.111737 0.857573
0.49618 -0.0147188 0.82488
0.601677 -0.172611 0.842015
0.518465 0.0902215 0.869431
0.682639 0.20116 0.8444
0.517695 0.079751 0.718095
0.514254 -0.0848021 0.835057
0.501753 -0.0256745 0.79688
0.598431 -0.172731 0.780731
0.601066 -0.170317 0.702225
0.508065 0.00991767 0.754877
0.505199 -0.0336468 0.746576
0.512214 -0.0632738 0.791933
0.557845 0.138205 0.839859
0.642122 -0.189327 0.850144
0.499303 0.0052394 0.821138
0.52419 0.0904888 0.866447
0.648242 0.192692 0.711993
0.502661 -0.0424706 0.749348
0.668549 -0.201067 0.849383
0.666772 -0.196679 0.886262
0.501748 -0.0372823 0.750751
0.560506 -0.135816 0.778525
0.681482 0.202765 0.891813
0.497548 -0.0212658 0.851992
0.617222 -0.175095 0.826408
0.535997 -0.121778 0.72978
0.522554 0.0888035 0.784181
0.505363 0.0584378 0.877893
0.550219 0.138854 0.863332
0.503108 0.0209643 0.799604
0.698039 0.199651 0.722857
0.503641 -0.0446858 0.815486
0.52566 -0.101854 0.75141
0.549022 0.135934 0.777942
0.560503 -0.135935 0.795265
0.597712 0.17256 0.835244
0.507476 0.0560509 0.835231
0.537796 -0.116083 0.79282
0.54975 0.141157 0.866073
0.590286 -0.16682 0.759935
0.565428 -0.151366 0.737578
0.675836 0.197417 0.757563
0.562115 0.138428 0.886916
0.498813 -0.00749593 0.710421
0.642946 -0.191591 0.76613
0.624555 0.182279 0.773841
0.556863 0.139002 0.714837
0.666377 0.201024 0.79534
0.511189 -0.0558716 0.758082
0.642348 -0.192187 0.855158
0.53474 -0.115662 0.811976
0.679289 -0.198708 0.83165
0.637399 0.189344 0.827125
0.568266 -0.150253 0.899948
0.500258 -0.0253227 0.833498
0.602867 0.174471 0.79178
0.505047 0.0429265 0.812455
0.646112 0.194785 0.823509
0.517322 -0.0720109 0.888616
0.646382 -0.191561 0.818714
0.607777 0.173299 0.827428
0.593145 -0.158081 0.893488
0.573678 -0.15977 0.757713
0.667511 0.19472 0.715593
0.523057 0.0947027 0.884227
0.559492 -0.145428 0.719701
0.610577 -0.174263 0.90123
0.576573 -0.157822 0.703848
0.577423 0.15819 0.793534
0.571797 -0.155613 0.865431
0.691063 0.19707 0.880693
0.508893 -0.0705613 0.83933
0.502591 0.0251096 0.841299
0.497046 0.00524056 0.889482
0.542977 -0.128016 0.795044
0.530461 -0.0991568 0.815486
0.545529 -0.123368 0.801337
0.676494 -0.194671 0.745923
0.58897 0.165492 0.78989
0.526161 0.101569 0.888921
0.66348 0.195269 0.842179
0.570067 0.155418 0.793454
0.694172 -0.197886 0.723532
0.611156 -0.17761 0.851658
0.507287 -0.0532785 0.890955
0.676904 -0.193802 0.728478
0.573482 0.146442 0.790012
0.559869 -0.141748 0.795702
0.508575 0.0614536 0.746584
0.56889 -0.147791 0.735677
0.540279 0.126336 0.710664
0.50682 0.0532158 0.790176
0.53023 0.117436 0.772274
0.604736 -0.174543 0.767311
0.614809 -0.180467 0.794585
0.505418 0.0551575 0.883222
0.504833 -0.0402932 0.755794
0.497609 -0.00852116 0.881877
0.668323 0.194382 0.885865
0.503756 -0.0177748 0.780175
0.665303 -0.194249 0.787633
0.681044 -0.200821 0.700907
0.593475 -0.167095 0.873542
0.682813 0.2006 0.826941
0.523162 0.0968677 0.763285
0.505463 0.0410106 0.737807
0.63546 0.18656 0.767383
0.640664 -0.191709 0.86875
0.531576 -0.107404 0.88224
0.693123 0.194894 0.852257
0.691829 0.198281 0.777837
0.584356 0.162358 0.724017
0.569479 0.15618 0.809056
0.547656 -0.129466 0.729693
0.56455 -0.148248 0.750133
0.573124 -0.153573 0.702849
0.58446 0.168953 0.847009
0.660239 0.192561 0.778966
0.690915 -0.202734 0.872858
0.57526 -0.159561 0.780671
0.695387 0.200536 0.823448
0.50207 0.017731 0.769446
0.531486 -0.104055 0.857058
0.642904 0.19319 0.836987
0.556993 -0.136294 0.784985
0.529733 0.0997372 0.816605
0.501728 -0.00267037 0.804072
0.504152 0.0140683 0.785319
0.527127 -0.112447 0.805393
0.674466 0.197095 0.782845
0.51533 0.0874369 0.711885
0.507936 0.0705373 0.739696
0.53821 -0.106991 0.851912
0.55135 0.139758 0.839708
0.540932 0.12029 0.893479
0.504814 0.025014 0.761339
0.663303 -0.196456 0.858913
0.666881 -0.196163 0.702959
0.661096 0.197645 0.764862
0.507268 0.0393577 0.716849
0.499358 -0.01519 0.841762
0.519458 0.0790886 0.872713
0.50191 0.033531 0.732509
0.669775 0.201447 0.757552
0.642741 -0.18941 0.743811
0.525324 -0.102398 0.813131
0.609056 -0.17744 0.754677
0.502082 0.0340344 0.774797
0.504376 0.0492563 0.774086
0.556204 0.139062 0.89751
0.653706 -0.197357 0.759476
0.551511 -0.131894 0.756406
0.522027 -0.0875376 0.841556
0.648262 -0.194941 0.782057
0.534939 -0.112152 0.855023
0.652009 0.191234 0.743148
0.524253 0.0893957 0.836424
0.546508 0.127474 0.896115
0.558998 -0.13585 0.779842
0.511051 -0.0590407 0.881521
0.521382 0.0915233 0.795922
0.503209 0.0260701 0.860705
0.558334 -0.141473 0.895094
0.520542 0.084913 0.750272
0.532355 -0.103132 0.772271
0.694227 -0.198157 0.74707
0.4981 -0.000586049 0.731995
0.578048 0.157957 0.878446
0.667743 0.196327 0.720067
0.536074 0.110948 0.758179
0.599976 0.174633 0.874587
0.514498 -0.0719614 0.784358
0.535156 -0.118267 0.830105
0.676907 -0.194613 0.774065
0.605081 -0.178962 0.696785
0.498337 -0.0328128 0.861418
0.615699 -0.185694 0.803306
0.574928 -0.149135 0.867937
0.504939 0.00416514 0.853025
0.536199 0.112447 0.781555
0.67572 -0.199319 0.816053
0.568677 0.157331 0.843561
0.547758 0.134405 0.823721
0.701933 0.206241 0.789255
0.669756 0.193406 0.886005
0.576484 0.163416 0.807405
0.546707 -0.128846 0.839267
0.585173 0.159455 0.707676
0.516298 0.0897413 0.804239
0.553529 -0.138004 0.783672
0.533212 -0.116904 0.81441
0.495873 0.0139641 0.811027
0.674375 -0.198876 0.800444
0.520541 0.100456 0.846198
0.68271 0.204487 0.764523
0.512536 0.061933 0.716105
0.510021 0.0481296 0.81821
0.502991 -0.0594435 0.793602
0.50128 -0.0248568 0.781281
0.624211 0.18075 0.833942
0.54787 0.13574 0.880938
0.623974 0.187345 0.8495
0.649443 -0.188651 0.78198
0.569998 -0.150598 0.779921
0.692548 0.204259 0.861706
0.505605 0.0503859 0.834956
0.640107 0.190327 0.810744
0.502129 0.0376536 0.795523
0.506672 0.0578738 0.785763
0.655096 0.186971 0.857559
0.50053 0.00444717 0.752517
0.564944 0.147157 0.757531
0.507738 0.0705274 0.754864
0.689225 0.198954 0.861906
0.533504 0.111406 0.849284
0.525193 0.0894665 0.816812
0.52459 -0.106414 0.732226
0.616807 0.179373 0.836581
0.631128 -0.190529 0.846819
0.618417 -0.187628 0.797767
0.672963 -0.196526 0.883871
0.50133 0.0446795 0.775299
0.499411 -0.0138503 0.716118
0.507605 -0.0462755 0.815333
0.658911 0.195109 0.734585
0.503933 0.014214 0.881174
0.50002 0.00570521 0.740762
0.652469 -0.196845 0.848245
0.643314 0.189488 0.84798
0.685563 -0.195221 0.722861
0.554929 -0.128079 0.886511
0.605636 0.181242 0.750895
0.633012 -0.183692 0.710289
0.614294 0.173597 0.884276
0.675911 -0.201479 0.748439
0.507174 -0.0517635 0.828839
0.513069 0.0743345 0.811259
0.596635 -0.172042 0.823023
0.504562 -0.0234725 0.732369
0.677966 0.194605 0.853508
0.635216 -0.190136 0.896107
0.554925 -0.136238 0.891159
0.530585 0.110226 0.828285
0.532387 -0.112839 0.713123
0.522687 -0.0923908 0.702305
0.552648 -0.131286 0.762876
0.560812 0.143717 0.792541
0.659067 -0.197405 0.836767
0.498458 -0.0154347 0.891289
0.639578 0.188669 0.886244
0.678764 0.197973 0.791164
0.595932 -0.176594 0.876671
0.520361 0.0839208 0.817929
0.610846 -0.17598 0.894339
0.514119 -0.078618 0.876047
0.615659 -0.187181 0.864691
0.516941 -0.0885861 0.826403
0.511227 0.0655298 0.71252
0.547394 -0.13741 0.889404
0.635384 -0.18485 0.804684
0.512051 0.060549 0.734483
0.68693 0.202593 0.712687
0.622661 -0.183198 0.762512
0.503954 -0.0117318 0.719236
0.564696 0.14535 0.705932
0.538035 0.122487 0.828358
0.558903 0.145462 0.763197
0.617181 0.182304 0.867287
0.579052 -0.159771 0.711403
0.597335 0.173675 0.855151
0.501463 -0.0443108 0.852378
0.554462 0.138434 0.843425
0.53592 0.114189 0.706432
0.496544 -0.041421 0.870935
0.600469 -0.175666 0.787623
0.504214 -0.0436669 0.775289
0.497199 -0.0188063 0.734758
0.501279 0.027116 0.851875
0.672541 0.20004 0.855628
0.536999 0.117675 0.765786
0.578773 -0.156614 0.870681
0.627094 -0.184025 0.79679
0.675659 0.200586 0.776189
0.533778 -0.112386 0.776469
0.650288 -0.197187 0.843589
0.498187 -0.0123455 0.776911
0.604803 -0.175669 0.858866
0.683513 -0.197735 0.821292
0.539015 0.119374 0.893676
0.568105 -0.156111 0.758132
0.566055 0.147856 0.886393
0.640922 -0.187373 0.784975
0.517337 0.0804317 0.853131
0.58496 -0.166255 0.708902
0.499415 0.00135747 0.827002
0.5493 0.126651 0.830015
0.641407 -0.193252 0.723485
0.512252 -0.0654643 0.737326
0.59032 0.164925 0.737102
0.665789 -0.201123 0.83984
0.527005 0.102035 0.841361
0.608743 -0.17888 0.80509
0.660223 0.196056 0.832966
0.658443 0.194875 0.775485
0.500723 -0.0130732 0.791996
0.653613 0.192036 0.812025
0.53891 -0.108217 0.720348
0.593894 -0.174648 0.763931
0.539287 -0.11609 0.822061
0.501959 -0.0100251 0.703017
0.551355 -0.137409 0.748553
0.511482 -0.070793 0.743358
0.603901 0.167741 0.808352
0.522959 0.0942534 0.726828
0.510854 0.0623949 0.880726
0.529817 -0.116753 0.721937
0.500237 0.0135183 0.825054
0.544484 -0.123082 0.885429
0.677818 -0.195193 0.832436
0.652665 0.195221 0.810208
0.644192 0.194061 0.863712
0.657396 -0.192947 0.714009
0.513755 -0.0794739 0.719729
0.668546 0.197775 0.805193
0.618593 0.175456 0.801636
0.632065 -0.189766 0.7696
0.597325 -0.172781 0.738635
0.506848 0.0628496 0.874899
0.5238 0.0901689 0.704682
0.511897 0.0510614 0.792266
0.645896 0.193407 0.897707
0.501082 0.0146859 0.791342
0.551487 -0.13383 0.862821
0.553655 0.131082 0.775103
0.587507 0.165489 0.800536
0.569035 -0.152242 0.863137
0.501106 -0.0135534 0.702633
0.50415 -0.0469179 0.697868
0.501065 0.00273989 0.813062
0.674691 -0.196022 0.85251
0.602388 0.172902 0.752468
0.64578 -0.19074 0.865757
0.672998 -0.198845 0.833072
0.539818 -0.118198 0.777466
0.52525 -0.0859976 0.824177
0.564868 0.149841 0.777021
0.544578 -0.120969 0.765333
0.507853 -0.0611371 0.718908
0.506325 0.0492524 0.707764
0.591145 0.166281 0.77269
0.559821 -0.137774 0.768751
0.531021 0.104887 0.809475
0.638746 -0.190361 0.804435
0.553884 -0.138478 0.854484
0.543074 -0.12924 0.861376
0.573543 -0.159312 0.829308
0.647898 0.187957 0.748611
0.579755 0.156511 0.871512
0.497499 -0.00231716 0.871998
0.60772 0.175804 0.757641
0.663487 -0.197969 0.82727
0.522642 -0.103407 0.843911
0.508013 0.059407 0.730297
0.51079 0.0626411 0.801094
0.542546 -0.129602 0.860448
0.544517 0.136609 0.882242
0.587127 -0.163655 0.723105
0.51105 -0.0721861 0.759466
0.660297 0.199413 0.873092
0.598088 0.170453 0.715881
0.632553 0.18599 0.880289
0.649103 -0.197694 0.725591
0.683758 -0.201664 0.763753
0.679686 0.194673 0.770358
0.504126 -0.0589219 0.760271
0.508561 -0.0382459 0.773401
0.669557 -0.196959 0.786437
0.497942 -0.0323684 0.731182
0.53381 0.117106 0.876066
0.613856 -0.177856 0.715333
0.519924 0.09078 0.729397
0.510505 0.0695909 0.837435
0.52256 0.0823937 0.765854
0.568768 -0.156355 0.719258
0.599564 -0.170144 0.810332
0.660064 -0.194426 0.799758
0.579577 0.158854 0.765417
0.516654 0.0703948 0.902744
0.62524 0.183519 0.817374
0.512723 0.0770526 0.882403
0.54288 -0.126648 0.709666
0.698146 -0.20215 0.873358
0.612594 0.176505 0.795751
0.564665 -0.145944 0.87189
0.581283 -0.160297 0.887803
0.50762 -0.0575909 0.780463
0.67207 0.200226 0.777823
0.662557 -0.197971 0.832923
0.506395 -0.0373448 0.71768
0.51455 -0.0771416 0.835943
0.594511 -0.171585 0.80501
0.568248 0.146244 0.833098
0.513581 -0.0824256 0.795377
0.509007 0.0474785 0.827426
0.602307 -0.171497 0.782636
0.556532 -0.137066 0.730025
0.610528 0.180416 0.829441
0.655215 -0.191081 0.828643
0.540523 -0.123435 0.846163
0.625195 0.179005 0.820623
0.694073 0.196342 0.72713
0.671878 0.203834 0.882913
0.533394 0.112258 0.878728
0.667375 -0.198578 0.723913
0.51144 0.0673985 0.75897
0.560346 -0.145909 0.875879
0.579278 -0.160475 0.746301
0.677621 -0.199056 0.875939
0.540256 0.11954 0.829923
0.597335 -0.168706 0.880567
0.639286 0.187634 0.876363
0.586786 -0.162683 0.810308
0.640166 -0.191697 0.838266
0.609682 0.175198 0.844024
0.527968 0.104146 0.876912
0.503829 0.0218467 0.822162
0.516773 0.0906313 0.884785
0.532642 -0.104573 0.753527
0.671259 -0.201648 0.823973
0.647288 -0.191752 0.799794
0.512378 -0.077429 0.719645
0.619809 0.181482 0.743482
0.542293 0.11363 0.765954
0.586001 0.161545 0.714352
0.501431 -0.0187028 0.825483
0.498987 -0.0422351 0.855094
0.680405 -0.194886 0.82756
0.549367 -0.134122 0.780148
0.533293 -0.103984 0.787098
0.630285 -0.189757 0.778653
0.557373 0.144312 0.834504
0.623394 0.183507 0.796384
0.561619 -0.151368 0.740564
0.51823 -0.0786092 0.790311
0.582245 0.164058 0.78625
0.533335 -0.116291 0.827619
0.523835 0.1003 0.70148
0.66479 0.193919 0.712958
0.665594 -0.195013 0.816119
0.615083 0.187536 0.882907
0.676078 0.199142 0.711366
0.695566 0.203456 0.859383
0.508386 0.0540186 0.813447
0.560801 0.146998 0.784762
0.508503 -0.0464358 0.757509
0.501883 -0.0470844 0.881597
0.500758 0.0213004 0.806065
0.544356 -0.126091 0.798547
0.511267 -0.0572211 0.757228
0.673447 0.194329 0.865024
0.659936 0.193692 0.793108
0.506617 -0.0304978 0.798161
0.61092 0.181355 0.774616
0.580482 -0.166201 0.711386
0.512129 -0.0753552 0.787842
0.563896 -0.146684 0.88547
0.506003 -0.0390301 0.831984
0.598624 -0.171101 0.797072
0.535182 -0.110493 0.855296
0.590164 0.166994 0.699177
0.504214 0.021439 0.735185
0.499182 -0.0255989 0.777365
0.648941 -0.195855 0.746932
0.507507 -0.0374617 0.796817
0.533293 0.101381 0.795382
0.560483 -0.145941 0.833141
0.563436 0.147763 0.840053
0.50564 0.0549356 0.853946
0.693615 -0.198434 0.769244
0.569291 -0.155955 0.803853
0.546107 -0.124517 0.886761
0.525051 0.0972712 0.759316
0.504771 0.0211697 0.848718
0.516699 -0.0817036 0.846747
0.655786 -0.192868 0.79212
0.539869 -0.117687 0.830605
0.496583 -0.0314982 0.769235
0.630817 0.188226 0.697538
0.501063 -0.0305714 0.714875
0.544097 -0.125371 0.756305
0.594595 0.16706 0.741505
0.557337 0.145474 0.8421
0.490707 -0.000598099 0.719033
0.551278 0.135513 0.85195
0.499755 0.0359003 0.700921
0.503588 0.0361451 0.84785
0.567115 0.144273 0.770079
0.567086 0.147152 0.780129
0.503872 0.0130886 0.793885
0.622256 0.185843 0.705848
0.668109 0.204954 0.785946
0.53786 -0.122613 0.806015
0.505815 0.0511558 0.827501
0.697643 -0.197337 0.876961
0.605503 0.17258 0.81178
0.630451 0.188738 0.771077
0.49879 -0.00542009 0.746568
0.527255 -0.102815 0.825476
0.580963 -0.159779 0.835776
0.561584 -0.150291 0.756615
0.521811 0.0809976 0.778408
0.667098 0.199249 0.757124
0.682806 0.203113 0.847508
0.549829 -0.138982 0.7852
0.568964 0.160586 0.81704
0.566634 -0.144922 0.834184
0.519218 -0.0963227 0.754569
0.64432 -0.188136 0.747821
0.701883 0.199355 0.792993
0.508945 0.0173406 0.719776
0.62974 -0.183685 0.82409
0.507412 -0.0498246 0.732916
0.675549 -0.196569 0.762968
0.667557 0.19938 0.776631
0.648626 0.190241 0.862978
0.497244 -0.0125118 0.870644
0.604087 -0.172746 0.835345
0.661888 0.201971 0.784562
0.517478 -0.0647383 0.848966
0.506708 -0.0687388 0.725401
0.527161 -0.104698 0.773712
0.525147 -0.0978765 0.77728
0.500889 0.005678 0.863671
0.594718 0.167089 0.741672
0.599881 0.180073 0.790903
0.659921 -0.193375 0.782355
0.500238 0.0346466 0.852082
0.545039 -0.132262 0.881767
0.660467 0.197044 0.706345
0.503558 0.0459967 0.811922
0.583546 0.165251 0.780635
0.507091 0.0522803 0.881396
0.566115 -0.149665 0.817897
0.557478 -0.136808 0.886626
0.649765 -0.194325 0.814899
0.512496 0.0705866 0.818323
0.590029 -0.169747 0.78534
0.660172 -0.192324 0.729051
0.642484 -0.194761 0.732186
0.623505 -0.184116 0.882109
0.550974 -0.139883 0.894376
0.51501 -0.058679 0.772278
0.683187 -0.199347 0.723841
0.5562 -0.134253 0.723378
0.660918 -0.194596 0.705225
0.577082 0.152861 0.75171
0.56165 -0.149844 0.863617
0.498751 0.00858353 0.822253
0.625571 0.185613 0.762483
0.517443 0.0844128 0.894567
0.533007 -0.0966001 0.711347
0.515418 -0.0844241 0.742063
0.536845 -0.115267 0.738164
0.525028 -0.0856298 0.724308
0.652538 -0.195591 0.886003
0.525207 0.103549 0.851352
0.518517 -0.0767796 0.791465
0.511138 -0.045034 0.77199
0.602465 0.172495 0.805545
0.566595 0.15132 0.87532
0.500899 -0.0165799 0.775212
0.523387 0.0957601 0.708396
0.683278 -0.199608 0.81493
0.612651 -0.178241 0.870962
0.666224 0.196939 0.837617
0.510723 -0.0584828 0.859164
0.520589 -0.0868085 0.769053
0.629159 0.191758 0.811628
0.522179 0.0848707 0.758582
0.626906 0.187191 0.820039
0.556818 0.136667 0.721404
0.567977 0.150244 0.78889
0.682668 0.198016 0.791577
0.496374 -0.0170622 0.755276
0.507074 -0.0611356 0.857421
0.606936 -0.17244 0.781441
0.667256 -0.192279 0.871198
0.581896 -0.163634 0.761015
0.646772 -0.189123 0.730641
0.50737 0.0353019 0.751945
0.548889 -0.127281 0.894884
0.681206 0.200387 0.796882
0.516097 -0.0798948 0.833299
0.570735 0.150776 0.739899
0.577324 -0.158581 0.765205
0.531372 -0.113569 0.823238
0.563144 0.15625 0.768624
0.52266 -0.0911895 0.787873
0.576124 0.156691 0.81327
0.57705 -0.156267 0.787501
0.518856 -0.0749381 0.750396
0.626048 -0.190706 0.730795
0.591995 0.164994 0.745846
0.541757 0.126423 0.70508
0.601298 -0.176026 0.813315
0.496269 0.0353104 0.711726
0.686986 -0.198667 0.887609
0.536512 -0.114608 0.793745
0.500573 -0.00350248 0.75641
0.642807 0.198101 0.718746
0.676801 -0.199688 0.719452
0.63645 0.185617 0.781368
0.641514 0.188548 0.794689
0.55157 -0.127666 0.722239
0.500592 0.00722329 0.818424
0.553744 -0.136811 0.740047
0.595615 -0.17032 0.754733
0.518889 0.0776683 0.846747
0.614247 0.178916 0.899066
0.546934 0.131159 0.765412
0.521976 0.0775078 0.709904
0.646193 0.189328 0.893711
0.687792 0.198219 0.860099
0.50974 -0.0622953 0.714259
0.517757 -0.0807956 0.831216
0.534856 -0.110312 0.715214
0.597799 0.170923 0.806454
0.526362 -0.10116 0.745792
0.526877 0.102308 0.726575
0.690898 -0.205564 0.875573
0.690979 0.199349 0.706847
0.600302 0.170825 0.77287
0.505861 0.0394386 0.807739
0.516658 0.0762997 0.857162
0.649059 0.196368 0.883565
0.673207 0.19586 0.858494
0.62226 0.185313 0.750424
0.625103 -0.186252 0.788412
0.628139 -0.184124 0.806062
0.664654 -0.200134 0.890578
0.50525 -0.0594079 0.896685
0.535786 -0.123663 0.81121
0.522575 -0.0943643 0.768995
0.503776 -0.0370878 0.729475
0.544742 -0.123678 0.850546
0.535273 0.111624 0.756207
0.639747 0.198932 0.893339
0.501762 -0.0434434 0.848014
0.593126 -0.168364 0.766749
0.654221 -0.192477 0.856396
0.531526 -0.113116 0.717605
0.623029 -0.183813 0.811068
0.629288 0.186583 0.843777
0.552465 -0.13208 0.831397
0.618672 0.178103 0.835902
0.498786 -0.0450457 0.765815
0.589373 0.168187 0.715121
0.500247 0.0378939 0.866473
0.657356 0.190671 0.759896
0.501109 0.00961659 0.798039
0.500584 0.00177645 0.87771
0.695257 -0.197356 0.83208
0.513409 -0.0704591 0.768281
0.504514 -0.0145398 0.843817
0.608898 0.179996 0.820564
0.672612 -0.196761 0.799438
0.500787 -0.0101956 0.799969
0.570301 0.155449 0.761398
0.540465 -0.121048 0.883755
0.564747 -0.146346 0.82027
0.591364 0.167068 0.752755
0.625621 0.182856 0.800193
0.503372 0.0319784 0.831848
0.661418 -0.191534 0.862732
0.542292 0.120685 0.727354
0.583717 0.155968 0.854595
0.673519 -0.200047 0.800195
0.500459 -0.031889 0.758272
0.56463 -0.146572 0.831369
0.584412 0.1616 0.840566
0.633787 -0.184762 0.843634
0.554749 -0.130327 0.834286
0.498966 0.0296919 0.861517
0.669233 0.1911 0.86071
0.614868 0.182353 0.798079
0.526078 -0.107952 0.854765
0.604091 -0.173071 0.718643
0.523722 0.0975886 0.796382
0.501299 -0.0221539 0.887846
0.630788 -0.181736 0.73763
0.578345 -0.155021 0.823488
0.68245 -0.191614 0.752731
0.64026 -0.191842 0.805039
0.532723 0.106692 0.87515
0.498675 0.04276 0.700091
0.523672 -0.0997353 0.865518
0.575018 -0.15796 0.800862
0.525549 0.0954936 0.884213
0.588528 -0.169329 0.763566
0.507938 0.0339088 0.86162
0.697977 -0.1961 0.814422
0.529382 -0.099542 0.857644
0.640358 -0.195431 0.843074
0.617007 -0.184886 0.804411
0.575493 0.158449 0.777569
0.566337 0.151144 0.861953
0.56719 -0.147767 0.732899
0.596844 0.174321 0.706385
0.616508 0.181993 0.834685
0.539678 0.119754 0.743547
0.535821 0.118397 0.783636
0.650762 -0.198243 0.711649
0.500023 0.0426078 0.855481
0.565913 0.140499 0.766667
0.668675 -0.200189 0.859954
0.69071 0.204051 0.847061
0.578356 -0.160733 0.832184
0.649437 0.190474 0.711168
0.498774 -0.0189345 0.850363
0.566355 0.156205 0.717998
0.670621 -0.193055 0.739149
0.502885 -0.0394682 0.828191
0.652618 0.195889 0.705933
0.592183 0.172566 0.871058
0.511418 -0.074673 0.888592
0.527204 -0.0874943 0.792795
0.521054 -0.0821175 0.859609
0.559795 -0.141241 0.891398
0.634259 -0.183725 0.744572
0.513598 0.072533 0.708623
0.66819 0.194979 0.713596
0.523489 -0.0889058 0.703762
0.607747 0.176869 0.77807
0.507934 0.0590698 0.751787
0.511523 0.0585792 0.780984
0.528819 -0.109337 0.810633
0.631804 -0.188263 0.758635
0.554627 -0.143358 0.853583
0.519262 0.0860865 0.804007
0.576384 0.158491 0.749009
0.558119 -0.143891 0.858363
0.516143 -0.081367 0.723301
0.51574 -0.0736804 0.713298
0.507199 -0.051168 0.775602
0.655341 0.197731 0.725893
0.518978 -0.0968155 0.749948
0.507964 -0.0530592 0.858861
0.605207 -0.178919 0.698119
0.522556 0.105109 0.872067
0.510878 0.07162 0.76488
0.680477 -0.200393 0.76557
0.533074 -0.104523 0.864097
0.587985 0.16846 0.775034
0.503364 0.0366059 0.750204
0.52149 -0.0812086 0.764292
0.509195 0.0675748 0.881147
0.511152 -0.0742787 0.848839
0.529519 -0.109201 0.79867
0.666619 0.1937 0.771384
0.517547 0.0903679 0.740461
0.566041 -0.149897 0.805805
0.498882 0.0235605 0.846732
0.69168 0.198471 0.806365
0.590836 -0.166217 0.800931
0.506599 -0.0540019 0.726277
0.602277 -0.172391 0.72331
0.579601 -0.165308 0.868442
0.61176 -0.180886 0.744277
0.528094 0.0998112 0.789878
0.506298 -0.0206138 0.87287
0.528224 0.109981 0.809895
0.498372 0.0117544 0.73176
0.494095 -0.0105873 0.749464
0.585523 0.165735 0.891038
0.578646 -0.158135 0.814639
0.524167 -0.0851701 0.746376
0.604902 0.176381 0.857134
0.549275 -0.131773 0.737076
0.563116 -0.146484 0.857167
0.538381 -0.116921 0.793687
0.607 0.175663 0.846146
0.567949 -0.145574 0.788478
0.499315 0.0331127 0.796618
0.539718 -0.113625 0.894219
0.538996 -0.110325 0.791516
0.508617 -0.0429535 0.695036
0.621765 -0.177886 0.829247
0.555 -0.137819 0.731827
0.625212 0.184753 0.858892
0.695189 -0.196858 0.858303
0.525117 -0.0963519 0.868758
0.615411 0.184389 0.900721
0.647719 -0.196363 0.721588
0.587554 -0.168077 0.867069
0.542105 0.128825 0.887469
0.513768 0.0760957 0.708081
0.567115 0.146613 0.809414
0.683005 -0.202634 0.719604
0.533148 -0.107671 0.798264
0.591822 -0.163257 0.886412
0.579414 0.156719 0.795677
0.558983 0.137232 0.742392
0.492895 0.0145123 0.870293
0.502337 0.0252568 0.764472
0.645017 0.192783 0.793678
0.561164 -0.136932 0.87205
0.551805 -0.133519 0.834423
0.554713 -0.139802 0.828791
0.532339 -0.109376 0.893063
0.546997 -0.131003 0.708376
0.502631 0.031558 0.769993
0.511218 0.0785457 0.814001
0.607694 -0.174655 0.894479
0.50482 0.0121362 0.761968
0.506782 -0.0166097 0.735361
0.613295 -0.18191 0.855364
0.506548 0.0471136 0.776866
0.528881 0.102707 0.867563
0.503033 -0.0113585 0.792583
0.516002 -0.0683879 0.800309
0.648208 0.195571 0.759935
0.67867 0.193402 0.836879
0.51556 -0.074022 0.863709
0.504767 -0.0552716 0.804583
0.519763 -0.0835465 0.709162
0.537871 -0.109354 0.776986
0.509169 0.0429464 0.871357
0.530747 -0.114966 0.714574
0.531762 0.105959 0.788468
0.509057 0.0207567 0.766538
0.559825 0.147878 0.746354
0.651855 -0.187445 0.797653
0.589209 0.16155 0.835548
0.565637 0.147399 0.869549
0.53235 -0.104306 0.872961
0.592606 -0.169114 0.737575
0.661509 -0.196662 0.85818
0.503038 0.0427216 0.866186
0.508294 -0.0650015 0.88029
0.667881 -0.194463 0.825171
0.620692 -0.185069 0.731318
0.59056 -0.164952 0.739016
0.506229 -0.0551299 0.898116
0.511016 0.0841415 0.76534
0.634397 -0.188854 0.715324
0.632151 -0.188368 0.740948
0.649373 0.19484 0.744968
0.511635 -0.0606296 0.806986
0.51982 0.0736791 0.768949
0.543856 0.124846 0.782452
0.515145 0.0579304 0.803618
0.595157 0.174649 0.795701
0.547972 0.132924 0.713126
0.646942 -0.195667 0.886618
0.534297 -0.116604 0.827356
0.599107 -0.168765 0.884541
0.606829 0.181246 0.846587
0.578744 0.158874 0.784388
0.521542 -0.099007 0.716214
0.532289 -0.0990712 0.762138
0.697116 0.19803 0.858752
0.612931 0.179468 0.853427
0.68839 0.202579 0.710927
0.584966 0.164909 0.842254
0.609878 -0.180775 0.888194
0.506442 -0.0454803 0.812849
0.617105 0.17438 0.700441
0.681303 -0.205565 0.827182
0.533274 -0.108914 0.833015
0.500817 0.0124552 0.728795
0.499934 -0.0131409 0.739325
0.503019 0.0126692 0.734415
0.508548 -0.0474603 0.778203
0.564238 -0.150065 0.876195
0.618836 -0.183499 0.792918
0.569735 -0.148036 0.741235
0.584085 0.161052 0.869003
0.522047 -0.0975411 0.889744
0.592012 -0.171394 0.70908
0.699533 0.198691 0.842955
0.534683 0.113357 0.80234
0.524124 0.0941261 0.762397
0.636885 0.191593 0.753198
0.499982 0.00247191 0.758576
0.497445 0.00296854 0.811712
0.55907 0.146216 0.898391
0.63062 -0.190763 0.850911
0.590837 0.16877 0.856632
0.641284 -0.191573 0.715152
0.603772 0.171653 0.782515
0.572235 0.153008 0.739349
0.648122 0.19046 0.843179
0.516352 -0.0654196 0.863319
0.496742 -0.018341 0.860461
0.50069 -0.00584885 0.732806
0.538959 -0.116082 0.709625
0.517398 0.0588336 0.731098
0.502078 -0.0422955 0.756511
0.575725 -0.163919 0.761042
0.604592 0.1741 0.768265
0.51729 -0.086162 0.894895
0.681817 0.201917 0.900532
0.564189 -0.145453 0.816456
0.58133 -0.155144 0.851284
0.502318 -0.0198887 0.76006
0.57173 0.14682 0.861422
0.52472 0.102149 0.841564
0.557243 0.140183 0.859695
0.686198 -0.203388 0.899648
0.578028 0.162416 0.817714
0.558879 -0.136812 0.728422
0.701386 0.198792 0.857255
0.501395 -0.00797511 0.82493
0.584937 -0.160224 0.763985
0.503632 -0.0514598 0.850264
0.506549 -0.0219263 0.764565
0.57933 0.155016 0.887847
0.580085 -0.167785 0.72542
0.506125 -0.0496012 0.745091
0.513943 0.0704022 0.759193
0.543464 -0.124457 0.873763
0.524929 0.0949466 0.807364
0.510446 -0.0603343 0.895733
0.68697 -0.196327 0.861526
0.510188 -0.0618595 0.7406
0.51075 0.0691986 0.825083
0.63709 0.192158 0.768982
0.509551 -0.0360081 0.743899
0.509714 0.0512125 0.868515
0.516283 0.0650929 0.748106
0.513907 -0.0890932 0.7091
0.523667 0.0910098 0.863745
0.680969 -0.194176 0.878397
0.501947 0.0304272 0.717225
0.505271 -0.0220087 0.821287
0.504376 -0.05726 0.808769
0.53139 0.11877 0.797233
0.593701 -0.170457 0.88493
0.617413 0.182978 0.880657
0.632687 -0.187675 0.714943
0.505825 0.0616686 0.868153
0.571221 -0.154849 0.850761
0.523375 -0.0904078 0.898094
0.580757 0.157342 0.766188
0.500018 -0.0169875 0.713515
0.685979 0.194479 0.764339
0.617842 0.183866 0.801692
0.604595 -0.172959 0.885991
0.614076 0.182405 0.892972
0.500582 -0.0490415 0.887999
0.506412 0.0508051 0.749871
0.570829 -0.151376 0.781803
0.575483 0.156559 0.853228
0.566526 -0.145812 0.872456
0.500335 -0.033846 0.855402
0.592219 0.171986 0.866822
0.503327 -0.0271867 0.710724
0.509228 0.041669 0.849276
0.62728 0.186109 0.716618
0.510614 0.0490981 0.835271
0.499077 -0.0436393 0.702195
0.594146 -0.16383 0.832154
0.541956 -0.118141 0.705568
0.574692 0.154523 0.762921
0.623683 -0.182637 0.812245
0.544799 -0.123088 0.745387
0.631887 -0.187442 0.756301
0.498976 -0.000411334 0.76834
0.694809 0.196895 0.834296
0.542651 -0.115576 0.813315
0.668295 0.195273 0.869286
0.627302 -0.185382 0.774263
0.519952 -0.086692 0.898156
0.525784 -0.0902556 0.778787
0.692847 -0.198159 0.74269
0.565832 -0.143997 0.837427
0.502616 0.0168541 0.720643
0.639195 0.187052 0.840861
0.590626 0.169658 0.834878
0.554303 -0.13999 0.775578
0.508311 0.0591315 0.777559
0.627841 0.18957 0.804368
0.504018 0.0122071 0.710628
0.700768 0.198442 0.78567
0.52784 -0.0956168 0.718659
0.499174 -0.00797875 0.894426
0.690833 -0.204777 0.73881
0.524388 0.108458 0.843311
0.541356 0.1283 0.88638
0.495061 -8.76957e-05 0.702571
0.525118 -0.101686 0.769519
0.667247 0.201985 0.814493
0.613578 -0.187099 0.813433
0.669534 0.194482 0.791885
0.507185 -0.0694417 0.787303
0.521761 0.085004 0.837203
0.545032 -0.130713 0.716888
0.543033 0.126313 0.845467
0.573807 -0.159141 0.704585
0.646309 -0.190567 0.78352
0.510715 0.0546416 0.792586
0.638496 -0.184552 0.807657
0.552693 0.126126 0.772572
0.508242 -0.0625519 0.847902
0.549269 0.132603 0.847073
0.550839 0.137939 0.85894
0.526902 -0.107382 0.78962
0.570522 0.15772 0.702695
0.676261 0.203585 0.878301
0.628917 0.189651 0.744972
0.637776 0.186321 0.867865
0.565142 -0.149648 0.731462
0.661716 -0.191251 0.770817
0.68671 0.200432 0.763776
0.588229 0.168679 0.795499
0.548631 0.122923 0.850619
0.608188 0.174118 0.78337
0.523833 0.0863973 0.843352
0.535124 0.108408 0.763908
0.702967 -0.208122 0.856474
0.645724 -0.192558 0.711511
0.583476 0.158989 0.7357
0.603477 -0.1758 0.714927
0.564244 -0.146567 0.839685
0.540401 -0.120487 0.838657
0.59458 0.170627 0.748586
0.52259 0.0887691 0.883078
0.676347 0.202354 0.812309
0.512881 0.0760555 0.907776
0.657803 0.195189 0.736972
0.624611 0.178842 0.865208
0.523637 -0.0894131 0.787564
0.495175 0.00703473 0.751928
0.498616 0.0100894 0.883666
0.515812 -0.0888669 0.869275
0.561386 0.143526 0.757119
0.551418 -0.130287 0.893081
0.503724 0.0352484 0.881562
0.701255 -0.202834 0.858587
0.514363 -0.0635355 0.881967
0.508917 -0.0707735 0.772146
0.507635 -0.0513346 0.806319
0.550728 0.131471 0.734277
0.514598 -0.0745179 0.870447
0.599296 -0.171774 0.746285
0.518061 0.0784277 0.896257
0.501867 -0.0166858 0.697681
0.568668 0.151802 0.812048
0.501379 -0.0265019 0.834742
0.544786 -0.133106 0.816932
0.655666 0.193092 0.77893
0.604132 -0.179328 0.895292
0.560524 0.144593 0.741474
0.641923 0.195016 0.703045
0.523301 -0.0910726 0.875732
0.652329 -0.192726 0.83976
0.513836 -0.082059 0.835626
0.6093 -0.176592 0.820703
0.647189 -0.191768 0.848176
0.66852 -0.200071 0.705348
0.60399 0.174185 0.864047
0.494466 -0.00764964 0.806022
0.65625 -0.197674 0.734473
0.570942 0.154165 0.891286
0.610095 -0.175371 0.768346
0.502702 0.0219748 0.786554
0.571934 -0.155629 0.841393
0.695389 0.201859 0.887052
0.66793 0.201787 0.824612
0.633639 -0.192035 0.741053
0.503726 -0.0250948 0.737564
0.604531 -0.178397 0.750852
0.703759 -0.204562 0.863169
0.500867 -0.000591036 0.747778
0.507166 -0.062451 0.833232
0.533426 -0.107537 0.850186
0.502782 -0.0147987 0.845434
0.530181 -0.113043 0.792016
0.54079 0.108385 0.77596
0.628514 0.186144 0.787137
0.55828 0.146777 0.852083
0.502345 -0.0425734 0.876689
0.500319 -0.00910843 0.900047
0.513682 0.0768708 0.855062
0.547047 0.124469 0.827616
0.662616 -0.197779 0.761549
0.502301 -0.0154267 0.809874
0.599697 -0.171761 0.895652
0.530729 -0.107892 0.706266
0.516189 -0.0742161 0.752324
0.651856 -0.189618 0.868036
0.510359 0.0574086 0.761927
0.505959 0.0563516 0.753058
0.58605 -0.164002 0.720666
0.667657 -0.199435 0.700239
0.500457 0.038541 0.856667
0.561336 0.142833 0.805837
0.646996 -0.189874 0.856548
0.50351 0.0502574 0.733976
0.53756 -0.116448 0.731384
0.567056 -0.157698 0.863801
0.49957 0.0248221 0.7056
0.535513 0.109418 0.814152
0.538784 0.111823 0.71512
0.689091 -0.201873 0.757401
0.68052 -0.197353 0.865922
0.545558 0.124318 0.818735
0.57541 -0.155179 0.867094
0.589827 0.170648 0.821426
0.67037 -0.199301 0.826444
0.544182 0.132793 0.84134
0.63381 -0.184252 0.727728
0.557215 0.133296 0.897687
0.590961 -0.172148 0.796471
0.507131 0.0740277 0.782791
0.521827 0.0863966 0.883824
0.498078 0.0315638 0.726381
0.521903 -0.0805802 0.775265
0.59517 0.165372 0.724669
0.578825 -0.155595 0.890092
0.571598 0.151264 0.777615
0.497984 -0.000123829 0.709643
0.578255 -0.155465 0.870808
0.49803 -0.0285446 0.832545
0.548468 -0.122423 0.791971
0.689086 0.197794 0.750971
0.554603 0.138129 0.854854
0.534276 -0.110029 0.803152
0.621275 -0.184778 0.870092
0.621688 -0.185533 0.800412
0.611151 0.179737 0.743673
0.509199 0.0629175 0.721389
0.503433 -0.0270216 0.712995
0.606673 0.175447 0.867171
0.664677 0.196642 0.827456
0.503231 0.0217543 0.706838
0.684335 0.199209 0.886753
0.503715 0.0184973 0.745515
0.633641 -0.183925 0.824683
0.529722 0.121001 0.734992
0.50202 -0.0295576 0.802475
0.576025 0.157969 0.734229
0.562828 0.147823 0.745737
0.585812 0.158878 0.785996
0.541369 -0.122211 0.816627
0.554229 0.13912 0.87076
0.513063 -0.0835522 0.752097
0.592062 -0.167456 0.742323
0.519277 -0.0901963 0.774033
0.692083 -0.202102 0.708788
0.519302 0.0851808 0.729641
0.681532 -0.195459 0.743793
0.501439 -0.0360007 0.898148
0.597093 0.170547 0.821677
0.497157 -0.00963365 0.701305
0.632342 -0.188855 0.799928
0.518591 0.0783253 0.837898
0.57038 -0.152471 0.788825
0.514098 -0.0749483 0.71567
0.49997 0.0115978 0.785169
0.556017 -0.134484 0.816386
0.606132 0.17356 0.79734
0.53261 -0.114519 0.777854
0.595411 -0.169901 0.725293
0.502203 -0.0046364 0.826813
0.545383 -0.120979 0.821626
0.499948 0.0193243 0.825591
0.62883 0.184634 0.854922
0.659182 -0.19624 0.840136
0.657437 0.198805 0.814895
0.501847 -0.0179141 0.738847
0.630845 0.186771 0.72126
0.530379 -0.0993212 0.754743
0.532834 0.106318 0.895123
0.630628 -0.195929 0.847533
0.671719 -0.196561 0.79645
0.529218 0.103763 0.889915
0.595017 -0.177278 0.874176
0.676977 -0.199178 0.80639
0.582049 -0.163962 0.822139
0.651218 0.195205 0.823044
0.506602 -0.052415 0.799223
0.693815 -0.195527 0.711241
0.571795 -0.148678 0.704918
0.507934 -0.0366646 0.708836
0.622653 -0.178292 0.776282
0.541506 0.118756 0.727216
0.501682 0.0382506 0.808586
0.657967 -0.196669 0.766326
0.539184 -0.126383 0.712265
0.544333 -0.126304 0.70558
0.532756 0.114138 0.70796
0.636845 -0.186645 0.755809
0.672763 -0.197777 0.84688
0.593934 0.168892 0.712933
0.583122 0.165674 0.78975
0.50762 -0.0673867 0.709632
0.522276 -0.0991264 0.840385
0.539616 0.12007 0.831561
0.69327 -0.201116 0.790517
0.513187 0.0570433 0.826221
0.51465 0.0716263 0.818925
0.501574 0.051468 0.861731
0.567138 0.146836 0.70313
0.510482 -0.0659945 0.772948
0.685926 -0.211891 0.849309
0.589491 0.170268 0.806725
0.512533 0.0575459 0.834123
0.64526 -0.190432 0.875558
0.646504 -0.196303 0.767539
0.504185 0.0374832 0.825466
0.530631 -0.10732 0.878609
0.645393 0.193999 0.834989
0.581112 -0.159735 0.739231
0.497339 -0.0317483 0.85154
0.547455 -0.131991 0.786843
0.694394 0.202305 0.784091
0.646219 -0.192208 0.734976
0.508704 0.0668737 0.795032
0.561244 0.145522 0.790323
0.593096 -0.171367 0.787965
0.528196 -0.100081 0.821802
0.551114 -0.139546 0.813319
0.625903 -0.182806 0.785482
0.677953 -0.195956 0.77227
0.649706 -0.187659 0.784552
0.679928 -0.199274 0.736297
0.497017 0.00886613 0.875056
0.570525 0.156083 0.735356
0.549529 -0.137851 0.760807
0.665072 -0.197767 0.756954
0.600795 0.172533 0.734122
0.501334 0.0424197 0.876832
0.51909 -0.085887 0.834782
0.495688 -0.00775893 0.764612
0.496713 0.0189079 0.721393
0.49943 -0.0221907 0.890035
0.555377 -0.137889 0.707272
0.576351 -0.161359 0.881036
0.642661 0.190025 0.830607
0.535544 -0.116074 0.889571
0.628854 0.17965 0.770882
0.657248 0.194252 0.721661
0.57136 0.159543 0.89587
0.671097 0.196696 0.7017
0.550495 -0.135367 0.794715
0.547156 0.13459 0.768988
0.532297 0.106707 0.894629
0.499861 -0.0180703 0.827199
0.506129 -0.0565203 0.7735
0.550344 -0.137121 0.839345
0.628424 0.183986 0.901535
0.66567 -0.194234 0.729539
0.499723 0.0263412 0.801599
0.588243 -0.161145 0.857912
0.584057 -0.16628 0.744448
0.610462 -0.180417 0.705954
0.614025 -0.181853 0.846384
0.50454 -0.0278404 0.775997
0.541933 -0.121604 0.83135
0.619183 -0.179771 0.885902
0.644174 -0.189091 0.875387
0.589289 0.167445 0.766674
0.591917 0.167145 0.85934
0.584245 0.163706 0.893635
0.503239 -0.0458942 0.850606
0.505033 -0.0344531 0.749451
0.594007 0.164893 0.747266
0.53379 0.108657 0.863701
0.568765 -0.14436 0.777864
0.613718 -0.17672 0.838403
0.541985 -0.115401 0.703171
0.495752 -0.0156693 0.765736
0.616231 0.186549 0.827308
0.632927 0.191069 0.897062
0.54049 -0.115639 0.716723
0.531394 -0.104445 0.748457
0.507306 -0.0500599 0.729501
0.64103 -0.186579 0.802907
0.615074 0.182292 0.849187
0.499357 0.0199088 0.796667
0.627854 -0.182782 0.827072
0.504614 0.0346476 0.755597
0.508709 -0.0259384 0.742587
0.558605 -0.13903 0.834071
0.680582 0.201395 0.733777
0.517074 0.0778384 0.889405
0.678924 0.195221 0.75785
0.521684 0.0926913 0.829911
0.512948 -0.0863046 0.830272
0.543199 0.120989 0.809902
0.599745 -0.166344 0.881982
0.542397 -0.13043 0.861249
0.588794 -0.167131 0.841162
0.570758 0.149634 0.751553
0.506995 -0.0560673 0.755627
0.586884 -0.158144 0.707511
0.645332 -0.191713 0.793744
0.547136 -0.125536 0.729072
0.54021 -0.118801 0.771072
0.595612 0.168847 0.728111
0.64715 -0.189277 0.842101
0.525604 0.114394 0.849025
0.523097 0.0978295 0.739722
0.539032 -0.119412 0.741121
0.534806 0.111359 0.715956
0.565891 -0.148982 0.845937
0.527903 0.103307 0.78219
0.676463 -0.192174 0.803407
0.533369 -0.118236 0.725916
0.560078 -0.149994 0.792107
0.496312 0.0103405 0.828941
0.509744 -0.0574968 0.808328
0.517768 0.084655 0.803269
0.673933 0.199446 0.784987
0.593672 0.169036 0.829568
0.64579 0.195256 0.862036
0.640523 -0.187609 0.729643
0.515866 0.0815883 0.720769
0.629426 0.183526 0.740113
0.595139 0.175784 0.776683
0.632535 -0.19123 0.737536
0.608915 0.175646 0.769929
0.586 -0.174425 0.790747
0.665341 -0.194585 0.797281
0.518487 0.0892837 0.838102
0.612439 -0.17453 0.779081
0.658079 0.196188 0.860455
0.610235 0.181335 0.8705
0.503645 0.0400084 0.70143
0.575885 -0.159252 0.732481
0.635211 0.182226 0.883246
0.602651 0.179867 0.721857
0.516361 -0.0758581 0.789187
0.539133 -0.115617 0.703911
0.559537 -0.143549 0.752467
0.509249 -0.0485729 0.832424
0.646187 0.189604 0.854483
0.565836 -0.145888 0.834824
0.532646 -0.116089 0.820687
0.678973 0.208051 0.706824
0.628873 0.187381 0.873958
0.675322 -0.196721 0.763301
0.572965 -0.146222 0.781204
0.606745 0.174122 0.871162
0.611279 -0.17614 0.806877
0.606484 -0.174752 0.735604
0.611319 0.182764 0.875444
0.644251 0.18927 0.878782
0.512717 -0.0761684 0.79212
0.635467 -0.195767 0.796147
0.564224 -0.14702 0.848702
0.582164 0.165687 0.729772
0.567385 0.150789 0.833412
0.682026 -0.201072 0.837001
0.534643 0.123039 0.793469
0.691544 0.20165 0.835
0.504986 0.0414961 0.70074
0.618005 -0.182596 0.777951
0.666174 0.194389 0.888965
0.57298 -0.150878 0.74798
0.642312 -0.190982 0.864985
0.57006 0.154364 0.836818
0.499255 -0.017905 0.717962
0.545399 -0.1318 0.802259
0.528506 -0.0961854 0.84056
0.688431 -0.200229 0.723767
0.546964 -0.12449 0.708438
0.545016 0.125464 0.736864
0.664901 -0.201224 0.808334
0.514567 0.0604927 0.73836
0.644038 -0.190248 0.866554
0.661803 -0.196454 0.875924
0.581678 0.157185 0.761997
0.583924 0.164516 0.888667
0.628496 0.190057 0.722471
0.496951 -0.0164106 0.782839
0.580007 0.163868 0.838404
0.685837 -0.195319 0.72856
0.53766 0.120603 0.899705
0.541861 0.121245 0.889746
0.577526 -0.157458 0.839553
0.687477 -0.197363 0.841401
0.542472 -0.124039 0.794642
0.587298 -0.172854 0.860078
0.64516 -0.191206 0.829598
0.501627 0.00802041 0.867326
0.522086 -0.0990145 0.853097
0.583262 0.162738 0.776899
0.659446 -0.196475 0.884882
0.613789 -0.180083 0.858529
0.507134 -0.0532511 0.799219
0.553866 0.131396 0.886241
0.540545 -0.124132 0.893067
0.53958 -0.120464 0.800716
0.534186 0.114709 0.773098
0.633211 -0.187582 0.8108
0.504782 -0.0309286 0.818963
0.504729 0.0524967 0.788934
0.610485 -0.182276 0.879035
0.497832 0.0163936 0.698724
0.513836 0.0877242 0.747267
0.534697 0.116919 0.820451
0.614584 0.178267 0.723784
0.570447 -0.155561 0.786967
0.503588 -0.0583408 0.853655
0.577209 -0.155009 0.812816
0.501401 0.0371627 0.751398
0.695667 -0.205959 0.760521
0.60397 0.174837 0.896424
0.515488 0.0743081 0.890044
0.659335 0.192972 0.744867
0.537457 0.120237 0.763982
0.55392 0.134912 0.765646
0.623997 0.188819 0.76462
0.522541 -0.0975579 0.833198
0.588503 -0.164786 0.852962
0.555336 0.141739 0.741263
0.546864 -0.125705 0.848881
0.634366 -0.18536 0.730228
0.643789 0.194599 0.718771
0.645859 0.192694 0.769101
0.510933 -0.0691149 0.810663
0.509922 -0.0562993 0.736658
0.536311 0.122421 0.705817
0.604345 0.177331 0.772656
0.51382 0.0723762 0.875994
0.597456 0.171225 0.743546
0.676601 -0.1968 0.727184
0.588092 0.166052 0.699365
0.676955 -0.198566 0.866901
0.530599 0.107742 0.806281
0.595412 0.164229 0.701513
0.562528 0.145145 0.741864
0.653808 -0.191902 0.772157
0.568978 -0.152699 0.876208
0.648938 -0.193061 0.799386
0.643998 0.198197 0.865701
0.516891 0.0698458 0.826443
0.634319 -0.193729 0.703633
0.528937 0.0939797 0.855969
0.652053 0.199215 0.850546
0.652306 -0.194346 0.776407
0.505865 0.0552157 0.772003
0.511012 -0.0733734 0.701737
0.667662 0.194568 0.763223
0.499307 0.0174125 0.702145
0.529264 0.093044 0.724918
0.69697 -0.195857 0.895923
0.522275 -0.0906431 0.826314
0.517104 -0.0828323 0.854758
0.544053 -0.128291 0.887191
0.498669 -0.0202777 0.815605
0.614303 -0.182498 0.887458
0.503951 -0.00111075 0.743599
0.679328 0.199348 0.836678
0.500411 0.0119054 0.834029
0.6954 -0.202059 0.723654
0.515246 0.0822737 0.858295
0.5587 -0.148454 0.824248
0.569728 -0.147662 0.772517
0.49955 -0.0188975 0.805085
0.551014 -0.13067 0.745803
0.594166 0.171775 0.835787
0.590871 -0.167414 0.852828
0.499086 0.0105415 0.882864
0.69722 0.194494 0.760578
0.524242 -0.106324 0.880313
0.498091 0.0131261 0.725648
0.592576 0.16784 0.704775
0.499107 0.0158429 0.733561
0.501843 0.0232735 0.795888
0.549859 -0.13258 0.788899
0.583938 -0.159951 0.883885
0.520245 0.0853403 0.700351
0.590716 -0.166467 0.863258
0.519729 -0.0959107 0.711593
0.497139 -0.0300972 0.790513
0.544751 -0.131426 0.739368
0.550923 0.133307 0.75115
0.681103 0.200905 0.835849
0.545553 0.130789 0.883141
0.654703 0.190243 0.86039
0.522103 -0.0904011 0.778125
0.591895 -0.171063 0.857543
0.502606 -0.0197273 0.742624
0.496674 0.0162759 0.703359
0.517505 0.0814865 0.795415
0.51862 -0.077689 0.78977
0.642516 -0.1918 0.88977
0.671671 -0.195858 0.714688
0.594901 -0.170551 0.902685
0.500356 -0.0117969 0.736799
0.614337 -0.182043 0.707178
0.572252 0.156973 0.710637
0.575614 0.150763 0.792079
0.579644 -0.162524 0.723418
0.622931 0.184877 0.824631
0.514455 -0.0810462 0.879301
0.515984 -0.0752201 0.7514
0.542019 -0.125577 0.814603
0.543353 -0.120858 0.824142
0.498521 0.0012022 0.803032
0.507078 0.0091396 0.744437
0.566921 0.143263 0.83952
0.506596 0.0538693 0.87825
0.497728 -0.0139209 0.764326
0.499865 -0.00590875 0.863701
0.530126 0.0982808 0.836261
