ply
format ascii 1.0
comment Created by Open3D
element vertex 1000
property double x
property double y
property double z
end_header
0.548512 0.593906 0.494798
0.582263 -0.586119 0.758452
1.03878 0.261553 0.648743
1.07533 -0.173029 0.934682
1.07418 0.117614 1.10661
0.879713 0.452835 0.718071
1.02585 -0.291141 0.690707
0.76846 -0.55015 0.922
1.08609 -0.147316 0.969077
0.777828 0.535073 0.972529
1.08095 0.0137575 0.929743
0.850532 0.461542 0.922526
0.714645 0.558839 0.955388
0.918732 0.442703 0.795627
0.971456 0.383825 0.991785
0.72919 -0.551975 0.658068
0.935216 0.407559 1.0553
0.77943 0.541458 0.566463
0.620387 -0.581885 0.856791
1.06301 0.190846 0.914938
0.791061 0.5386 1.06896
0.959623 0.370877 0.663153
0.6111 0.614771 1.1061
0.891458 -0.456244 0.859524
0.899092 0.450957 0.825934
0.856996 -0.488962 0.978025
0.60528 0.596518 0.71102
1.08543 0.140691 0.636959
0.778043 -0.530367 0.931038
0.995536 -0.306061 0.605505
0.866704 -0.45554 0.596625
0.702493 -0.561111 0.570742
0.646968 0.579814 0.952975
1.09426 -0.168684 0.509412
1.08683 -0.115502 0.913132
0.7444 -0.541015 0.639857
0.89432 0.457117 1.03904
0.511685 -0.598347 1.05691
0.75433 -0.543901 0.973584
0.65616 -0.576385 0.695603
0.861445 -0.48072 1.08243
0.894133 -0.445091 0.921131
0.832343 0.476769 0.527969
0.822905 -0.497595 0.793449
1.09947 0.0246769 0.634255
0.631867 0.594566 1.02295
0.736753 -0.561548 0.522014
0.700658 -0.555601 1.0571
1.09292 -0.0222099 0.548365
0.98662 0.371042 0.946807
0.689909 -0.562487 0.625285
0.972741 0.400061 0.750695
0.547639 -0.592789 1.0416
0.85648 -0.478598 1.05699
1.01217 -0.32054 0.829891
1.09659 0.133307 0.542989
0.984603 0.35363 0.935626
0.926318 -0.420052 0.580085
0.518558 -0.591647 0.91384
1.0614 0.172087 0.761649
0.537743 0.590799 0.571508
0.701881 0.57175 0.600577
1.10145 0.021406 0.8771
0.674376 0.569503 1.08691
1.03357 0.259305 0.680466
1.09941 0.000836308 0.897552
1.02893 0.29497 0.83385
0.556765 0.596284 0.957746
0.524375 -0.588721 0.8264
0.90609 0.42894 0.817583
1.0254 0.289937 0.973698
0.978089 -0.350752 0.633783
1.04748 0.212296 0.577785
0.962946 -0.363679 0.795283
0.976423 0.365998 0.737703
0.637141 0.581499 0.990515
0.927506 -0.401556 0.756567
1.00474 0.313882 0.923012
1.08218 -0.0934249 0.503732
1.0842 -0.0981716 0.800341
0.937706 0.391425 0.839143
0.51778 0.598481 0.884582
1.0982 0.0154817 0.696691
1.04076 -0.303926 0.876614
0.61057 0.596514 0.864754
0.897096 0.449019 0.969013
1.08626 -0.142962 0.555038
0.952125 -0.389711 0.525897
1.09636 -0.0396277 0.98427
1.10286 0.0246342 0.852352
0.861947 0.484352 0.847713
1.03794 -0.262009 0.87416
0.541364 0.613529 0.671167
0.921645 -0.418596 0.898023
1.09777 -0.0294957 1.04728
1.07581 -0.128648 1.01597
0.62821 -0.581634 1.00352
0.915628 0.415449 0.636752
1.09338 -0.140858 0.748169
0.985548 -0.317411 0.673149
0.67417 0.569952 0.658664
0.770211 -0.527919 1.04953
0.78886 -0.538417 0.716316
1.08308 -0.185058 0.614309
0.729296 -0.542986 0.813755
0.660749 0.565293 0.978483
0.841386 -0.492666 1.0098
1.08496 0.0793475 0.693161
0.95358 0.392938 0.751442
0.716433 -0.558367 0.647093
0.79714 -0.51476 0.672527
0.593744 0.609131 0.889868
0.849877 0.513191 0.994756
0.70675 -0.575739 0.792584
1.05705 0.236539 0.99857
0.627046 0.596305 0.898282
1.1038 0.0214773 0.657021
0.734482 0.563267 0.770131
0.911206 0.451101 0.807319
1.07812 -0.155264 0.570562
1.11445 -0.0968488 0.778008
1.02076 0.290416 0.959393
1.03868 -0.263395 0.837304
0.667045 -0.571533 0.674824
1.10045 0.0889992 0.974147
1.08938 0.0690988 0.608002
1.04907 -0.231901 0.876394
1.09654 -0.0194772 0.967138
1.05986 -0.243384 0.706664
1.07835 0.118492 0.885151
1.06467 -0.223785 1.04167
0.540892 0.602009 0.605196
1.04921 -0.262221 1.02943
1.08826 0.0611181 0.741683
0.588952 -0.605441 0.590767
1.07703 0.191849 0.732683
0.503202 -0.604501 1.09766
0.879722 -0.459641 0.694
0.968365 -0.375095 0.809792
0.743036 -0.559848 0.95796
0.669998 -0.555883 0.517164
0.977293 -0.339464 0.951406
0.848755 0.46897 0.871316
0.883967 -0.462537 0.917091
1.06435 0.176871 0.646162
0.635409 0.581106 0.730726
0.850596 0.482192 0.846767
0.670636 0.587835 1.03585
0.708434 -0.579171 0.683882
1.02921 0.300551 0.903959
0.944388 -0.402418 0.643028
1.09286 -0.10454 0.664482
0.702172 -0.562696 0.717314
1.08199 0.103345 0.723949
0.988906 -0.3297 0.777943
0.93666 -0.417038 0.490242
1.0854 0.104381 0.810086
1.09031 -0.15332 1.06152
1.04984 0.270538 0.896897
1.10416 0.108885 0.84296
1.09781 -0.0788275 0.754562
1.05906 0.167028 0.739237
0.972074 -0.360149 0.909556
0.616198 0.590306 0.83488
1.0897 -0.0767854 0.772557
0.90855 -0.451951 1.08352
0.687487 0.574267 0.694454
0.971803 0.359073 0.931643
1.121 -0.0731898 0.502011
0.529597 0.581265 0.60066
1.10307 -0.110454 0.874999
0.791535 -0.528604 1.0031
1.01124 -0.324468 1.007
0.681936 -0.575736 0.835478
0.783053 -0.526021 0.769065
1.06508 -0.186952 1.02252
0.9899 0.360102 0.742181
1.08024 0.114813 0.596956
0.796558 -0.510161 0.731393
0.609003 -0.587511 0.733675
0.70522 0.571515 0.587902
0.863507 0.4784 0.562171
0.745087 0.549159 0.51826
1.09052 -0.013227 0.695901
0.935775 -0.401865 0.979388
0.981809 -0.360775 0.742209
1.05471 -0.278159 0.739464
1.0288 -0.243066 0.797951
0.521283 -0.600172 1.05957
0.942719 -0.409502 0.649374
0.521435 0.590683 0.718604
1.09925 -0.0480217 0.855204
0.623264 -0.570079 1.0071
0.699256 -0.564826 0.64788
0.695187 -0.565055 0.870431
0.653262 -0.58656 0.880272
0.590868 0.588625 0.884574
0.615845 0.573456 0.661119
0.578973 -0.596528 1.01323
0.535652 0.592335 0.719717
0.573785 0.586746 0.96052
1.02746 -0.278723 0.810408
0.671793 0.580212 0.579514
1.03617 0.268347 0.560403
0.758819 -0.541051 0.700671
0.508594 -0.585423 1.08251
0.855759 0.480682 0.930305
0.793987 0.510525 0.966551
0.875581 -0.455616 0.800226
0.946116 -0.396459 0.750854
0.667945 -0.568335 0.704012
0.850858 0.478026 0.926821
1.10768 -0.00752987 0.601626
0.865131 0.486722 0.750437
0.881671 -0.482956 0.780752
0.802113 0.512181 0.741848
1.08097 0.0759022 0.762932
0.538145 0.603265 0.711512
1.07011 0.0901056 0.821982
1.05397 0.236989 0.955652
0.516435 0.605307 0.876813
0.527803 0.593918 0.88439
1.08608 0.195683 0.547112
0.961978 0.382528 0.799607
0.918478 0.428106 0.984755
0.851024 -0.490369 0.965543
1.06982 0.190033 0.761378
0.703872 0.56545 0.748195
0.666226 0.560863 0.88662
1.03098 0.269926 0.980905
1.10241 0.118139 0.902921
0.694078 0.563443 1.02573
0.722105 -0.568266 0.546999
0.98099 0.375721 1.06052
1.00049 -0.346444 0.589795
1.07728 0.138136 1.0749
0.764209 0.532693 1.05168
0.523121 -0.585232 0.634676
0.721558 -0.559191 0.828923
1.06659 0.121105 0.973528
0.891708 0.47149 0.658804
0.968193 0.357346 0.933141
0.950319 0.401964 0.672605
1.06201 0.212149 0.878236
0.876387 -0.462749 1.00713
0.999016 -0.309891 0.724828
1.11433 -0.0691494 0.544803
1.04005 -0.271332 0.712404
1.02338 -0.268851 0.872521
1.02022 -0.320281 0.92998
1.02088 -0.333496 0.706741
1.11256 0.059008 0.857401
0.925028 -0.43582 0.823248
0.819418 0.510313 0.98729
0.913836 0.439564 0.629553
1.03086 0.319585 0.731574
0.857185 -0.474664 0.728872
0.811224 -0.519248 0.861132
1.05732 0.242144 1.01528
1.08868 -0.0662316 0.651329
1.0815 -0.0319329 0.794513
1.07569 -0.207892 1.0882
0.607176 -0.593246 0.740826
1.07544 -0.162395 0.960212
0.892691 -0.468248 0.600055
0.671041 0.580669 0.967131
0.899717 -0.433775 0.632215
1.02995 -0.277997 0.93534
0.503154 -0.620192 0.990818
0.598036 0.597918 0.734223
0.556618 0.58984 1.09661
0.998827 -0.349687 0.670545
0.872021 0.481188 0.662109
0.87524 0.464411 0.586499
0.831722 0.500492 0.873783
0.805568 -0.503723 0.546649
0.694844 -0.574929 0.626148
0.979181 0.373541 0.7204
0.918196 -0.46575 0.823851
0.786369 -0.525014 1.02999
0.623872 0.575802 0.986354
0.826877 0.504974 0.555951
1.09378 -0.0486533 0.503828
0.977514 -0.380389 0.867754
0.729823 -0.555434 0.781397
1.11689 -0.000739697 0.51306
1.07987 -0.206122 0.574378
0.738312 -0.572785 0.847139
1.05099 0.201949 0.913449
1.0908 0.115812 0.660231
0.494399 -0.582572 0.525984
0.953382 0.391727 0.885661
1.09777 -0.0474355 0.660987
1.09318 0.019718 0.518993
0.860666 0.488905 0.88646
1.00726 -0.282339 0.892538
0.559433 -0.600397 1.10546
0.653073 -0.566381 0.495085
0.60274 -0.572346 0.819318
1.00108 -0.338579 1.09703
1.06542 -0.21729 0.679869
0.869974 0.464097 1.06393
0.724112 -0.551234 0.910198
1.03286 -0.282332 0.860002
0.828915 -0.515424 0.795772
1.00849 -0.322979 0.615107
1.06195 -0.195934 0.676313
1.09747 -0.056452 1.03403
0.955743 0.415432 1.00208
0.795904 -0.516803 0.912729
0.5479 0.593018 0.493408
0.56225 0.598853 0.7162
0.95085 0.390346 0.805218
0.883517 0.473239 0.532092
0.636891 -0.569325 0.724965
0.922812 -0.411286 0.972674
0.861291 0.481053 0.620809
0.750754 -0.546149 0.992252
0.986715 -0.344917 0.795657
1.09979 -0.0732426 0.687622
0.529722 -0.609477 0.69098
0.952945 0.369424 0.660885
1.06105 -0.185455 0.932163
1.07111 0.163356 0.936022
1.065 0.173013 0.566748
1.09278 0.0122529 0.890171
1.02397 -0.293546 0.761762
1.06455 0.222347 0.838344
0.980577 0.368961 0.653102
1.09636 0.107701 1.07741
0.989055 -0.345959 0.648909
1.09524 -0.0753409 0.697177
1.09601 -0.0943505 0.7333
0.94487 -0.410783 1.00304
1.06752 0.192019 0.706701
0.855655 0.510673 0.885326
0.796979 -0.543074 0.616813
1.04247 -0.255822 0.832919
1.09185 0.0229561 0.541488
0.582781 -0.603917 0.612059
0.509114 -0.600224 0.973087
1.01842 -0.316149 0.837476
1.07047 -0.172908 0.69793
1.06916 -0.199049 0.995957
0.631011 -0.58751 0.561194
0.869701 -0.46116 1.02515
0.818402 0.486723 0.792885
1.09728 -0.0199947 1.03846
0.942271 -0.387324 0.949238
0.999252 -0.298811 0.943437
0.995299 -0.343492 0.533554
1.02062 -0.319126 0.615257
0.777502 0.526946 0.883943
1.01504 0.28503 0.975974
0.691053 -0.564368 0.737124
0.892184 -0.470731 0.831628
0.827283 0.50505 0.76167
0.542 -0.60521 0.624641
0.519858 0.595735 0.785147
0.498956 -0.593441 0.700136
0.848266 0.49036 0.763388
0.727507 -0.556368 1.05024
1.09507 0.0663286 0.754492
1.08472 -0.106725 0.816532
0.770578 -0.545104 0.908696
0.91906 0.417031 0.861357
0.78066 -0.527765 0.799016
1.10145 0.0479789 0.850773
0.989867 -0.382831 0.670971
0.866509 0.458589 0.887598
0.829867 -0.49483 0.651828
0.779976 0.550637 0.815647
0.820904 0.499296 0.874419
0.624871 -0.590956 0.948313
0.861056 0.507333 0.663409
1.00063 -0.285744 0.919341
0.785955 0.54561 0.655469
0.977126 0.359699 0.874336
1.03753 -0.21341 0.971086
1.07036 0.183043 1.09042
0.979536 0.359052 0.810345
0.955754 0.396673 0.823398
0.952931 0.385638 0.637491
0.649898 -0.589897 1.04934
0.82529 0.495976 0.771076
1.05903 -0.168344 0.571553
0.686774 0.576668 0.532639
0.973574 0.340594 0.91466
1.05205 0.259989 0.977758
1.07238 -0.183437 0.943259
1.0652 0.186781 0.788559
1.06312 -0.228829 0.866545
1.06253 -0.236642 0.877058
0.975459 0.366812 0.569232
1.01155 -0.311584 0.650695
0.755884 -0.538981 0.749061
1.08251 -0.154708 1.07571
1.11004 -0.0422324 0.716774
1.08294 0.158436 0.898742
0.583102 -0.598115 0.547538
1.09002 -0.00245714 0.845077
0.937982 0.415236 0.722967
1.05029 -0.258194 0.784291
1.06962 -0.204981 0.665088
0.542917 0.584006 0.851717
0.599671 0.603056 1.06366
0.727111 -0.566247 0.685939
1.11177 -0.0490069 0.791721
0.977254 0.350567 0.68967
0.931183 -0.426047 0.54631
0.55739 -0.601687 0.624394
1.06291 -0.240233 0.520511
1.0766 0.101597 0.557932
0.742463 0.546819 0.868296
0.555013 -0.596784 0.636509
0.900336 -0.436977 0.562795
0.941458 -0.402494 0.749671
0.782754 0.52221 0.828527
1.0299 -0.301373 1.0886
1.08612 -0.0451189 1.0818
0.716689 0.549756 0.553362
0.738081 0.567496 0.524574
0.898081 -0.453464 0.798494
0.931348 -0.396844 0.66862
1.07878 -0.17291 0.728797
1.02659 -0.278408 0.973251
1.0909 0.0823837 0.720727
1.05046 -0.258959 0.837073
1.09728 -0.0430893 0.673143
1.11002 -0.0287072 0.791654
0.997149 0.297597 0.92301
1.00751 -0.349861 0.528499
0.757501 0.535668 0.913151
0.992752 0.31986 0.524352
0.721817 -0.539659 1.04489
0.798328 0.514425 0.597104
1.06597 0.213192 1.03889
0.819579 -0.501265 0.57841
0.910718 -0.455013 0.775641
0.728839 -0.551899 1.08515
0.895515 0.420155 0.91903
0.721419 -0.544293 1.07911
0.740061 0.534498 0.632307
1.02812 -0.28979 0.950128
0.530094 0.593833 0.731849
0.596257 0.608383 0.619931
0.928699 -0.431065 0.950724
1.10906 0.0981104 0.596641
0.639479 0.579599 0.90565
1.0573 0.208417 0.659232
0.876039 -0.466059 0.643499
0.817319 -0.49789 0.837604
1.0115 -0.367105 0.951597
1.07407 0.130394 0.725638
0.740636 -0.548646 0.857796
0.502897 0.594655 0.717482
0.692392 -0.566177 0.708078
1.03609 -0.255982 0.79804
1.05558 0.239359 1.05284
0.991943 0.341477 0.740517
1.02285 -0.344503 0.814255
0.588779 0.597307 0.649921
1.10427 0.0268797 0.861636
1.06129 -0.190045 1.01007
0.72688 0.570151 0.577867
0.544629 -0.592983 1.03776
0.992021 0.333969 0.581745
0.702052 -0.586167 0.546356
0.848731 0.493803 0.807541
0.977859 -0.362398 0.706272
0.701977 -0.575759 1.03307
1.07798 -0.21055 1.01825
0.927152 0.439332 1.05457
1.03924 -0.241497 0.857033
0.917643 0.42118 0.587097
1.04166 -0.268633 0.703399
1.06065 0.202294 0.689255
0.494557 -0.610224 0.922914
0.747628 0.547745 0.908163
0.848096 -0.491398 1.00447
0.922998 -0.434015 0.807191
1.06798 -0.178648 0.639207
1.1005 0.043202 0.944436
1.00368 0.319711 0.643051
0.721295 -0.555036 0.599985
0.716249 0.575594 0.873897
0.518139 0.605528 0.710655
0.553186 -0.604626 0.874006
0.547519 0.615411 0.910428
0.789217 0.527558 0.746562
0.555459 0.617766 0.8435
1.04219 -0.244276 0.687466
1.09737 -0.0915971 1.1019
1.02833 0.321868 0.861217
0.933516 -0.398948 0.70223
0.96813 -0.355052 0.773128
1.08946 0.110601 0.883252
0.601575 -0.602138 0.964752
0.8063 -0.494145 0.789774
0.531094 0.600889 0.832129
1.1096 -0.0503659 0.625106
0.810705 -0.503837 0.703992
1.03947 0.25031 0.99592
0.738153 -0.547213 0.790041
0.851955 -0.483043 0.724296
1.00721 0.290721 0.888496
0.883517 -0.463147 0.698956
0.560348 -0.578763 0.739963
0.879938 0.481876 1.04658
0.590189 -0.592034 0.757949
0.563946 0.59979 1.08527
1.10111 0.0135037 0.906781
0.583272 0.585616 0.756942
0.576009 -0.59465 0.703081
0.85197 0.496585 0.683301
1.10381 -0.0872458 0.693875
1.08567 -0.17407 1.09764
1.11867 0.00520928 0.511646
0.823823 -0.530017 0.999708
0.639413 -0.601896 0.641252
0.740041 0.524339 0.768368
1.08373 0.129861 0.963063
0.927365 -0.433446 1.01684
0.718122 -0.573308 0.527778
0.818367 -0.517138 0.647216
1.11165 0.0545864 0.854348
1.08841 -0.0161029 1.03195
1.11714 0.044281 0.61922
0.671449 0.566431 0.504736
0.716672 -0.564769 0.640429
0.581965 0.596091 0.981309
1.08773 0.179195 0.724528
0.531783 0.591757 0.959952
1.06766 0.211029 0.740291
0.93256 -0.404663 0.827289
0.83099 0.501235 0.931865
1.04799 0.227269 0.954167
1.08932 0.115601 0.690799
1.02851 0.30263 0.498739
1.09787 -0.0772293 0.545887
0.50693 -0.606625 0.636294
0.718674 -0.549392 0.922534
1.04457 0.238266 0.705725
1.09598 -0.023893 0.534479
0.608757 0.600397 0.560573
0.896474 -0.43974 1.00544
0.770593 0.558948 0.535449
0.874234 0.468564 0.832671
0.642966 0.583384 0.967446
0.700305 0.573488 0.756902
0.800507 -0.519898 0.526686
0.761946 0.542741 0.552659
1.06595 0.186021 0.980143
1.06652 0.184521 1.02045
1.0752 0.181638 0.708343
1.01499 -0.316232 0.951609
1.08787 -0.0525492 1.08057
1.08565 -0.180944 1.07097
0.714771 0.581195 1.00533
0.524374 -0.593863 0.812412
0.913594 0.450336 0.584142
1.02881 -0.276202 0.859651
0.973547 0.377073 0.731795
0.890852 0.458131 0.700315
1.04391 -0.240082 0.879369
0.991265 0.329594 0.775213
0.767893 -0.550922 1.12099
1.08352 0.128866 0.839834
0.683391 -0.557526 0.781288
1.03035 -0.269573 0.576718
0.61318 0.582311 0.658341
0.958103 0.382431 0.586473
0.539596 -0.584935 0.806
0.749316 -0.543856 0.806167
0.812182 -0.526414 0.869551
0.806122 0.5128 1.05626
0.996507 0.326178 0.557551
0.820883 -0.504844 0.720205
0.987879 0.338687 1.04005
0.786101 -0.534611 0.576586
0.720947 0.565678 1.02636
0.554594 -0.604157 0.888709
1.08772 0.0107814 1.06997
0.66224 0.572897 0.686875
0.912957 -0.424853 0.584752
1.09436 -0.0351465 0.822903
0.942069 -0.421298 0.711833
1.08031 -0.178808 1.02546
0.656585 0.571281 0.838113
1.05409 0.218228 1.0362
0.64604 -0.57452 1.07057
0.861007 0.470659 0.582738
0.723487 0.579253 0.813952
0.503928 0.594814 1.02698
0.665814 0.587329 0.665465
0.950406 -0.40428 0.650704
1.08987 -0.0896468 0.65544
0.505642 0.594889 0.766873
0.586457 -0.596038 1.0525
0.575411 0.593791 0.879337
0.967918 -0.376067 0.907505
0.820477 0.497545 0.731845
0.511327 0.598165 0.579252
0.949233 -0.388246 0.559657
0.927117 0.447484 0.810658
1.06225 0.249287 0.594301
0.776992 -0.543505 0.697059
0.776843 0.528977 1.07853
1.09658 -0.0918676 0.940971
0.602245 0.592279 0.686556
1.03564 0.237446 0.923535
0.945699 0.400785 0.967873
0.882544 -0.474623 1.02069
0.986941 0.351315 1.09121
1.03362 -0.262625 0.957579
1.00081 0.343156 0.819175
0.722543 0.550938 0.927409
1.10803 -0.0589409 0.938361
0.759174 -0.535399 1.07593
0.813325 0.502699 1.08629
0.971933 -0.368889 0.500926
0.587744 -0.578463 1.11416
1.0745 -0.185351 0.968761
1.06922 -0.143855 0.915781
0.897426 0.459265 0.94689
0.707848 -0.548504 0.982069
1.07271 -0.173506 0.638999
1.05118 0.259006 1.00639
0.912685 -0.451688 1.01567
0.696003 -0.566144 0.89443
0.960874 -0.374644 0.648726
0.927641 0.432135 0.899432
0.530514 -0.612683 0.789724
0.767913 0.539824 0.636979
1.01902 0.32654 0.540962
0.522836 -0.595745 0.633471
0.670753 -0.576812 0.717422
1.09935 0.0862287 0.782379
1.03754 -0.268141 0.889134
0.835005 0.506932 1.02821
0.977122 -0.394491 0.901722
0.77018 -0.530908 1.06084
0.926177 0.438824 0.502242
1.08649 -0.0107131 0.893606
1.0768 0.164599 0.842447
1.05139 0.268571 0.71928
0.634584 0.583646 0.956614
1.04473 0.271279 0.650764
1.09264 -0.144276 0.504347
1.00471 -0.295259 0.849949
1.03076 0.290665 0.593818
0.944623 0.395532 0.583853
1.03875 0.257638 0.854544
0.921426 -0.425155 0.908097
0.677256 -0.55873 0.551287
1.098 -0.156274 0.909406
1.07136 0.156013 0.958864
0.545791 0.594869 0.513048
0.725759 0.541983 0.708692
0.995257 0.393035 0.904382
0.882843 0.473913 0.992913
0.774357 0.552547 0.872457
0.952307 0.400866 0.965851
0.593974 -0.59298 0.837357
0.544461 0.587807 0.996134
0.521781 0.602863 0.77428
0.601655 -0.582797 1.01486
0.595909 0.597997 1.04582
1.09005 -0.0620506 1.08292
0.808432 -0.545403 0.86204
0.856401 0.483924 1.07067
1.08953 -0.024342 0.563569
0.978764 0.361015 0.760351
1.08556 0.0797222 0.694207
0.706188 -0.586413 0.616968
0.891382 -0.446473 0.737428
0.706391 0.570622 0.535363
1.10038 0.0635648 0.777812
1.10565 -0.00691046 0.790716
0.907969 0.43076 0.912581
0.516883 -0.591397 0.815071
0.573836 -0.602671 0.763483
1.06141 -0.214516 1.08081
0.981165 -0.363417 0.523055
1.05681 0.230035 0.56876
0.595985 -0.594161 0.940101
1.04159 -0.233186 0.820513
1.09348 0.101562 0.945236
1.08888 -0.14335 0.554652
0.878344 -0.445567 0.905329
1.0406 -0.241426 0.51797
1.07532 -0.12193 1.04098
0.81454 0.506658 0.817057
0.626262 0.580247 0.507608
0.573717 0.594761 1.02713
0.963451 -0.398381 0.666321
0.845786 0.508331 0.78631
0.801436 0.533444 0.725543
0.831326 0.490868 0.808717
1.08108 -0.0224723 1.00724
1.10879 0.0345618 0.631886
0.803283 -0.510935 0.542346
0.611746 0.581391 0.965214
1.11428 -0.0827109 0.560437
0.49674 0.59932 0.539872
0.801223 -0.527937 0.857455
0.634326 0.588286 0.741329
0.748588 0.547513 0.588549
0.698211 -0.558652 0.765608
1.09452 -0.0398382 0.865564
1.09957 0.0223919 0.521794
1.10747 0.106433 0.882159
1.01393 0.326458 0.718529
1.04955 0.238207 0.886148
0.549152 0.580754 0.495518
1.0746 -0.183018 0.801121
0.802044 -0.514789 1.07165
0.984388 -0.351856 0.615261
0.956973 0.399627 0.855857
1.03583 0.266307 0.742767
0.691496 -0.576409 0.75039
0.923487 -0.423528 0.840314
1.05005 0.233674 0.876822
1.0673 -0.180584 0.510453
1.04972 0.243274 0.963871
0.940319 -0.41787 1.0866
0.917852 0.433854 0.914735
1.09972 -0.0731162 0.910793
0.745393 -0.563728 0.723541
0.951272 0.414387 0.819025
1.07236 0.170952 0.971901
0.717264 0.556995 0.8922
1.07747 0.1064 0.66128
1.09885 -0.0832489 0.978977
0.884312 -0.456928 1.04414
0.812922 0.507846 1.09022
0.870731 -0.470911 1.05379
0.79955 -0.526232 0.968512
0.867501 -0.472715 0.83597
1.04852 -0.247941 0.529466
0.782647 -0.52546 0.796859
1.04195 0.234402 0.650237
0.79999 -0.522009 0.633935
0.986181 0.353551 0.837621
1.09637 0.0261665 0.906279
1.0168 0.299369 0.869068
0.929696 -0.419602 0.878949
0.723533 0.57 0.622866
0.581847 0.606009 0.939484
1.00518 0.310107 0.805317
0.616076 0.589955 0.747189
1.0346 -0.293933 0.899336
0.769439 0.530995 0.591202
0.840304 0.493891 1.05043
0.509821 -0.594668 0.704096
1.08497 -0.0994612 0.702191
0.911164 0.406526 0.791829
0.944985 0.418744 0.922618
1.08646 0.0123367 0.555222
0.519118 -0.599908 0.606307
1.05192 0.278845 1.018
1.06118 -0.179655 1.02304
0.510476 -0.601008 0.521723
1.10184 -0.070614 0.797429
0.756019 0.555462 0.590777
0.503799 0.600544 0.929953
0.751031 -0.545883 0.532556
0.816002 0.499849 0.842816
1.09149 0.0981457 0.716343
0.691304 -0.5708 1.00806
1.08903 0.0318464 0.539658
0.980706 0.374765 0.705848
1.08428 0.029505 0.586224
0.639987 0.594308 0.559889
1.09892 0.0434805 0.678256
0.698643 -0.560017 0.52038
0.6775 -0.576308 0.961872
0.831353 0.521164 0.661324
0.60626 -0.603083 0.540935
1.09092 0.082512 1.01228
0.73696 -0.550973 0.512189
1.09808 -0.0159813 0.775478
0.918519 -0.41638 0.788227
0.657552 -0.579661 0.850219
0.546866 0.603164 0.61878
0.668408 0.578297 0.828565
0.801295 -0.519803 0.522307
0.83373 0.497703 0.965892
0.831142 -0.499325 1.02485
0.881201 -0.475015 0.962026
0.759266 0.543796 0.907715
0.733382 0.543157 0.622807
0.744217 -0.542126 0.95364
0.901274 0.450504 0.631856
1.04443 -0.266149 0.852124
0.825039 -0.48977 0.715056
1.01939 -0.321688 0.814574
0.62902 0.585102 1.0076
0.769546 0.558564 0.707864
1.0642 0.218578 1.03016
0.948415 -0.399107 1.07703
0.614985 0.603454 0.929361
0.905336 -0.429751 0.796146
0.687391 -0.581389 0.742545
0.530292 -0.589884 1.02692
0.843758 -0.491478 1.07846
1.08447 0.128563 1.05179
0.827179 0.502478 1.03103
0.720024 -0.570687 0.767739
0.620684 -0.59967 0.934668
0.889942 0.463145 0.956993
0.550455 0.584435 1.09785
1.01543 0.29628 1.0466
0.826671 -0.49282 1.04919
0.662096 0.562434 0.688412
0.633378 0.570268 0.656858
1.07209 0.180615 1.0316
0.517997 -0.591215 1.09217
1.07732 0.158544 0.601222
0.877922 -0.460687 0.98424
1.00582 0.326383 0.804621
1.0538 -0.275488 0.867466
0.867658 -0.473633 1.03884
1.07358 -0.173717 0.694638
1.09329 0.0505007 0.863687
0.657436 0.584587 1.02134
1.08984 -0.125109 0.674323
1.11708 -0.0662629 0.531776
1.0563 -0.225404 0.792992
0.892813 -0.457356 0.779794
1.07465 0.158874 0.778788
0.946103 0.383845 0.660653
0.577173 0.582584 1.07974
0.611289 -0.600781 0.800397
0.976632 0.377373 0.988559
1.08172 0.159214 0.8486
0.962582 -0.393162 0.939627
0.995116 0.338358 0.576998
1.09714 -0.0265901 0.746807
0.631921 0.569547 0.723314
0.832721 0.498352 0.661478
0.842948 0.482507 0.871514
0.91202 -0.448981 0.803464
0.943804 -0.42292 1.05261
1.05523 -0.217848 0.968837
1.10845 0.0904083 0.51678
0.972395 -0.353267 0.881251
0.599024 0.59572 0.858618
0.913625 0.39589 0.580719
0.965009 0.389467 0.940224
0.575916 0.598013 0.882911
0.650613 0.582015 0.558828
0.905493 0.433503 0.638245
1.00936 -0.339499 0.823641
0.770556 -0.534216 0.587612
1.08965 -0.08889 0.796194
0.914289 0.414744 0.514804
0.596171 -0.583218 0.496888
1.04434 0.23441 0.72193
0.596906 0.593211 1.09303
0.92214 0.428363 1.074
0.744287 0.561151 0.973728
1.08798 -0.145981 0.51235
1.00776 0.336748 0.676679
0.636455 -0.57799 0.72741
0.848966 -0.497412 1.07699
0.903122 0.458996 0.574624
1.12014 0.053418 0.537179
0.694289 -0.577177 0.956332
0.658806 0.573319 0.767888
0.648539 0.590982 0.664527
0.811968 -0.514204 0.563058
0.936273 0.417712 0.677067
1.08422 -0.117119 0.836849
0.911847 -0.4234 0.852591
1.10219 -0.00102247 0.665226
0.956271 -0.381906 0.791395
0.751434 -0.539708 1.04784
0.916095 0.439228 0.557876
0.57532 0.585408 0.664111
0.881012 -0.435538 0.917713
1.01515 -0.296144 0.832261
1.03788 0.291771 0.534905
0.7463 0.54234 1.0544
0.851533 0.505277 0.796192
0.729051 0.557417 0.550673
0.921581 0.391178 1.06425
0.709373 -0.565392 0.992918
0.807385 -0.513564 0.730567
1.0842 -0.215264 0.535814
1.09197 0.00122927 0.95545
0.928095 0.403158 0.744754
0.521605 0.606494 0.482725
0.762976 0.535978 0.772869
1.00052 0.348191 0.774126
1.058 0.160718 0.817839
1.01666 -0.325637 0.50503
0.531931 0.585175 1.05849
1.10555 -0.0274428 0.69337
0.631139 0.574876 0.518881
0.678384 0.556453 0.905725
0.940335 -0.40458 0.74309
0.90795 0.467485 0.692907
1.09919 -0.00618065 0.735716
0.916582 0.438734 1.07098
0.610765 -0.580498 0.551065
0.878968 -0.491803 0.849998
0.793713 0.525171 0.490352
1.00259 0.318155 0.833437
1.09965 0.0780243 0.538299
0.729241 -0.56019 1.06075
0.507237 0.620441 0.949811
0.618164 0.609641 0.64661
0.782241 0.514741 0.769753
0.694177 -0.576244 0.886115
0.621525 -0.579315 0.897945
1.05434 0.217658 0.938694
0.754761 0.526864 0.504591
1.09972 0.10925 0.882718
1.0556 0.251321 0.637824
0.544074 -0.584526 0.828435
1.04392 -0.254616 1.02832
1.08294 -0.0320642 0.761005
1.10029 0.0143028 0.559442
0.573603 0.601029 0.719986
0.590606 -0.58213 0.847014
1.03108 0.292044 0.844779
1.09129 -0.0846634 0.904534
0.757279 0.532985 0.724315
0.555325 0.591624 0.799003
0.901833 -0.450092 0.747387
0.701572 0.571339 0.699374
0.968586 -0.383968 0.60919
1.10759 0.0516174 0.873127
0.961921 -0.378242 0.813051
0.899256 0.450233 0.552728
0.881611 0.463024 0.645336
0.791947 0.520026 1.059
0.853577 -0.489249 0.973305
1.0921 0.148606 0.968076
1.06624 -0.141856 0.784911
0.694431 0.574767 0.78418
0.895865 0.449831 0.760635
1.06545 0.197089 0.753186
1.09032 0.154283 0.664244
0.554736 0.575527 0.546716
0.748787 -0.556359 0.547272
1.10385 0.0545764 0.890413
1.09709 0.0976499 0.532844
0.562231 0.608909 0.602412
0.684444 0.56563 0.883065
1.04811 -0.270051 0.667524
1.06596 0.206453 0.589182
1.0788 -0.153446 0.526782
0.878252 0.455099 0.974109
1.09284 -0.171232 0.940361
0.551128 -0.595053 0.547935
0.681122 0.570495 0.637499
1.0296 -0.282919 1.00057
1.06402 -0.150059 1.06026
0.607079 -0.58852 0.809964
0.739868 0.543375 1.01498
1.03194 0.298921 0.578326
1.10087 0.0788131 0.737484
0.811982 0.530291 0.590045
0.684861 0.57096 1.03424
0.664455 -0.577346 0.727927
1.09946 0.0343732 0.711892
0.669302 -0.578944 1.09797
1.02385 -0.297006 0.864593
0.689011 -0.572317 0.886029
1.00151 0.284066 0.730189
0.725853 -0.557754 0.544866
0.707607 -0.556941 0.56811
1.04843 0.223258 0.580364
0.947586 0.399165 1.00815
0.96701 -0.402813 0.511609
0.939691 -0.397734 0.663342
1.09412 0.0155412 0.66149
1.05765 0.224585 0.545016
0.780422 0.541518 1.03345
0.645309 -0.56144 0.659861
1.02714 0.288044 0.836555
0.707128 -0.570855 1.07637
0.898777 0.432267 0.573795
1.01412 0.327315 0.983117
0.615402 0.578997 0.803917
0.537514 0.620502 0.5176
0.794025 -0.518093 1.02136
0.611584 -0.601993 0.888418
0.869614 -0.48013 0.770848
0.684253 0.580001 0.983185
1.06806 0.206355 1.01256
1.08018 -0.150744 1.02854
0.848096 -0.494397 0.530663
0.767592 -0.551084 0.586861
0.616514 -0.580707 0.944583
0.679506 -0.586577 0.886665
0.972856 0.38306 0.88756
1.08759 -0.0398372 0.787278
