ply
format ascii 1.0
element vertex 702
property float x
property float y
property float z
end_header
-0.0003586761304177344 -0.0002787165285553783 0.001302200136706233
-0.0003561316116247326 -0.0002785131800919771 0.0013012499548494816
-0.0003536583390086889 -0.0002783633244689554 0.001300550065934658
-0.0003514577110763639 -0.00027842752751894295 0.001300850068219006
-0.00034894736018031836 -0.0002782455994747579 0.0013000000035390258
-0.00034658663207665086 -0.0002781813673209399 0.0012997001176699996
-0.0003444257308728993 -0.0002782777009997517 0.0013001500628888607
-0.0003418947453610599 -0.0002780743525363505 0.0012992002302780747
-0.00033964155591093004 -0.00027809577295556664 0.0012993001146242023
-0.00033725827233865857 -0.00027801020769402385 0.001298900111578405
-0.0003350955084897578 -0.0002781064831651747 0.001299350056797266
-0.0003328799793962389 -0.00027816000510938466 0.001299600233323872
-0.0003304854908492416 -0.00027806367143057287 0.0012991500552743673
-0.0003282820980530232 -0.0002781278744805604 0.0012994500575587153
-0.00032614037627354264 -0.0002782455994747579 0.001299999887123704
-0.0003238222561776638 -0.00027821349794976413 0.0012998499441891909
-0.00032165314769372344 -0.0002783098607324064 0.001300299889408052
-0.0003194210585206747 -0.00027835267246700823 0.0013005000073462725
-0.0003172126307617873 -0.0002784168755169958 0.0013007998932152987
-0.00031520891934633255 -0.0002786630066111684 0.0013019498437643051
-0.0003129247925244272 -0.0002786630066111684 0.0013019498437643051
-0.00031085542286746204 -0.0002788556448649615 0.001302849967032671
-0.00030885395244695246 -0.00027911251527257264 0.0013040500925853848
-0.0003065661294385791 -0.00027911251527257264 0.0013040500925853848
-0.00030459329718723893 -0.00027940142899751663 0.0013053999282419682
-0.0003024768375325948 -0.0002795619366224855 0.001306149992160499
-0.0003001508885063231 -0.00027952983509749174 0.0013059999328106642
-0.0002980991266667843 -0.00027975457487627864 0.0013070499990135431
-0.000295919191557914 -0.00027986158966086805 0.0013075501192361116
-0.0002937374811153859 -0.000279968575341627 0.0013080500066280365
-0.00029157643439248204 -0.00028009701054543257 0.0013086500111967325
-0.0002892805205192417 -0.00028009701054543257 0.0013086500111967325
-0.0002870943280868232 -0.0002802039962261915 0.001309150131419301
-0.0002848954463843256 -0.0002803003299050033 0.0013095999602228403
-0.00028256551013328135 -0.0002802681992761791 0.0013094500172883272
-0.00028032175032421947 -0.00028032175032421947 0.0013097000773996115
-0.00027816201327368617 -0.0002804608957376331 0.001310350140556693
-0.00027583158225752413 -0.00028042879421263933 0.00131020019762218
-0.0002735956513788551 -0.0002804929972626269 0.0013105000834912062
-0.00027129650698043406 -0.0002804929972626269 0.0013105000834912062
-0.0002690281835384667 -0.00028052509878762066 0.0013106500264257193
-0.0002668611123226583 -0.0002806642442010343 0.0013113000895828009
-0.00026456054183654487 -0.0002806642442010343 0.0013113000895828009
-0.0002622600004542619 -0.0002806642442010343 0.0013113000895828009
-0.00026007843553088605 -0.0002807926503010094 0.001311899977736175
-0.00025774736423045397 -0.00028076054877601564 0.001311750034801662
-0.0002555044775363058 -0.00028082478092983365 0.0013120501535013318
-0.0002532508806325495 -0.00028087827377021313 0.001312300213612616
-0.0002509199548512697 -0.00028084617224521935 0.0013121501542627811
-0.0002487504971213639 -0.0002809959987644106 0.0013128501595929265
-0.0002464191638864577 -0.00028096389723941684 0.0013127002166584134
-0.00024411617778241634 -0.00028096389723941684 0.0013127001002430916
-0.000241886853473261 -0.0002810494916047901 0.0013131002197042108
-0.00023956492077559233 -0.00028102807118557394 0.0013130002189427614
-0.0002373337047174573 -0.0002811137237586081 0.001313400105573237
-0.00023519052774645388 -0.0002813063038047403 0.0013142999960109591
-0.00023288473312277347 -0.0002813063038047403 0.0013142999960109591
-0.00023060524836182594 -0.0002813384053297341 0.001314450055360794
-0.0002282731729792431 -0.0002813063038047403 0.001314300112426281
-0.0002260447508888319 -0.0002814025792758912 0.0013147499412298203
-0.00022381474263966084 -0.000281498912954703 0.0013152000028640032
-0.0002214568230556324 -0.0002814347099047154 0.0013149000005796552
-0.0002192083338741213 -0.00028150962316431105 0.001315249945037067
-0.00021694212045986205 -0.000281563145108521 0.0013155000051483512
-0.00021456077229231596 -0.00028146684053353965 0.00131505005992949
-0.0002121810830431059 -0.0002813705359585583 0.0013145999982953072
-0.00020989865879528224 -0.0002814026374835521 0.001314750057645142
-0.00020752893760800362 -0.0002813170140143484 0.0013143500545993447
-0.00020524649880826473 -0.00028134911553934216 0.0013144999975338578
-0.00020287085499148816 -0.00028125281096436083 0.001314049935899675
-0.00020046629651915282 -0.00028111363644711673 0.0013133999891579151
-0.00019816211715806276 -0.00028111363644711673 0.0013133999891579151
-0.00019570878066588193 -0.0002808996068779379 0.0013124000979587436
-0.00019328102644067258 -0.00028071767883375287 0.0013115500332787633
-0.00019100190547760576 -0.00028074978035874665 0.0013116999762132764
-0.00018859999545384198 -0.00028059998294338584 0.001310999970883131
-0.00018632844148669392 -0.00028064276557415724 0.0013111999724060297
-0.00018386667943559587 -0.0002803966635838151 0.0013100499054417014
-0.00018154062854591757 -0.00028035385184921324 0.0013098499039188027
-0.00017926315194927156 -0.000280385953374207 0.0013099998468533158
-0.00017692438268568367 -0.00028032175032421947 0.0013096999609842896
-0.00017463335825596005 -0.00028033240232616663 0.0013097500195726752
-0.00017233550897799432 -0.00028033240232616663 0.0013097500195726752
-0.00017001824744511396 -0.00028030030080117285 0.0013096000766381621
-0.00016777192649897188 -0.00028038592427037656 0.0013100000796839595
-0.00016553053865209222 -0.00028048225794918835 0.0013104500249028206
-0.00016323148156516254 -0.00028048225794918835 0.0013104500249028206
-0.0001610000035725534 -0.00028059998294338584 0.001310999970883131
-0.00015870000061113387 -0.00028059998294338584 0.001310999970883131
-0.00015640596393495798 -0.00028061066404916346 0.0013110500294715166
-0.00015417052782140672 -0.00028072838904336095 0.0013116000918671489
-0.00015186946257017553 -0.00028072838904336095 0.0013116000918671489
-0.0001496881595812738 -0.0002809531579259783 0.001312650041654706
-0.00014745262160431594 -0.00028108159312978387 0.0013132499298080802
-0.00014513210044242442 -0.00028104946250095963 0.001313099986873567
-0.00014289369573816657 -0.0002811778977047652 0.0013136999914422631
-0.0001405675575369969 -0.0002811351150739938 0.0013134998735040426
-0.00013831052638124675 -0.0002812313905451447 0.0013139499351382256
-0.0001361295726383105 -0.00028148823184892535 0.0013151500606909394
-0.00013382229371927679 -0.00028148823184892535 0.0013151500606909394
-0.00013154998305253685 -0.00028156311600469053 0.0013154998887330294
-0.00012925683404318988 -0.0002815952175296843 0.0013156499480828643
-0.00012693421740550548 -0.00028156311600469053 0.0013155000051483512
-0.00012468315253499895 -0.0002816915512084961 0.0013161000097170472
-0.00012244396202731878 -0.00028185208793729544 0.0013168500736355782
-0.00012012456863885745 -0.0002818306675180793 0.0013167500728741288
-0.0001178144957520999 -0.0002818306675180793 0.0013167500728741288
-0.0001154956262325868 -0.0002818092470988631 0.0013166500721126795
-0.00011321579950163141 -0.00028188416035845876 0.0013170000165700912
-0.00011091367196058854 -0.0002819055807776749 0.0013170999009162188
-0.00010860298061743379 -0.0002819055807776749 0.0013170999009162188
-0.0001063164891093038 -0.0002819698129314929 0.0013174000196158886
-0.00010402894986327738 -0.0002820340159814805 0.0013176999054849148
-0.00010169790039071813 -0.000281980523141101 0.0013174499617889524
-9.939790470525622e-05 -0.0002820126246660948 0.0013176000211387873
-9.709368168842047e-05 -0.00028203404508531094 0.0013177000219002366
-9.477113781031221e-05 -0.00028200194356031716 0.0013175500789657235
-9.247018897440284e-05 -0.00028203404508531094 0.0013177000219002366
-9.014814713736996e-05 -0.00028200194356031716 0.0013175500789657235
-8.783666999079287e-05 -0.0002820019144564867 0.0013175500789657235
-8.556088141631335e-05 -0.00028211966855451465 0.0013180999085307121
-8.324842201545835e-05 -0.00028211966855451465 0.0013180999085307121
-8.095130760921165e-05 -0.0002821731613948941 0.0013183500850573182
-7.865930820116773e-05 -0.00028224807465448976 0.00131870002951473
-7.633710629306734e-05 -0.000282215973129496 0.0013185500865802169
-7.404069765470922e-05 -0.00028228017617948353 0.001318849972449243
-7.171060860855505e-05 -0.0002822159440256655 0.001318549970164895
-6.941579340491444e-05 -0.0002822908863890916 0.0013188999146223068
-6.710956222377717e-05 -0.0002823229879140854 0.00131904985755682
-6.479543662862852e-05 -0.0002823229879140854 0.00131904985755682
-6.250026490306482e-05 -0.00028240858227945864 0.0013194497441872954
-6.0212809330550954e-05 -0.0002825369592756033 0.0013200498651713133
-5.78969375055749e-05 -0.0002825369592756033 0.0013200498651713133
-5.561262878472917e-05 -0.0002826974669005722 0.001320800045505166
-5.330754356691614e-05 -0.00028276166995055974 0.001321100164204836
-5.09840392624028e-05 -0.00028272956842556596 0.0013209499884396791
-4.867210373049602e-05 -0.0002827616990543902 0.0013210999313741922
-4.6349123294930905e-05 -0.0002827295975293964 0.0013209499884396791
-4.405666550155729e-05 -0.0002828901633620262 0.0013216999359428883
-4.176157744950615e-05 -0.0002830506709869951 0.0013224499998614192
-3.944149284507148e-05 -0.0002830506709869951 0.0013224499998614192
-3.714246122399345e-05 -0.000283211178611964 0.0013231999473646283
-3.4834207326639444e-05 -0.00028331822250038385 0.0013236998347565532
-3.2508243748452514e-05 -0.0002832861209753901 0.00132354989182204
-3.0196493753464893e-05 -0.0002833824255503714 0.0013240000698715448
-2.7876842068508267e-05 -0.0002834145270753652 0.001324150012806058
-2.55267477768939e-05 -0.0002831149031408131 0.0013227498857304454
-2.3206142941489816e-05 -0.0002831149031408131 0.0013227498857304454
-2.0881579985143617e-05 -0.0002830613811966032 0.001322499942034483
-1.8569122403278016e-05 -0.0002831790770869702 0.0013230498880147934
-1.6254121874226257e-05 -0.0002832861209753901 0.001323550008237362
-1.3930524801253341e-05 -0.0002832540194503963 0.0013234000653028488
-1.1614036338869482e-05 -0.0002833824255503714 0.0013240000698715448
-9.290527486882638e-06 -0.00028336100513115525 0.0013238999526947737
-6.968946308916202e-06 -0.00028340384596958756 0.0013240998378023505
-4.647018158721039e-06 -0.00028346801991574466 0.0013243999565020204
-2.3227196379593806e-06 -0.00028337171534076333 0.0013239497784525156
0.0 -0.00028335032402537763 0.0013238497776910663
2.3228071768244263e-06 -0.0002833824255503714 0.0013239998370409012
4.645088210963877e-06 -0.00028335032402537763 0.001323849894106388
6.966315595491324e-06 -0.00028329683118499815 0.0013235999504104257
9.288421097153332e-06 -0.00028329683118499815 0.0013235999504104257
1.1604386600083672e-05 -0.0002831470046658069 0.0013228999450802803
1.3929998203821015e-05 -0.0002832433092407882 0.0013233500067144632
1.624122705834452e-05 -0.0002830613811966032 0.001322499942034483
1.8559299860498868e-05 -0.0002830292796716094 0.0013223499990999699
2.0883950128336437e-05 -0.00028309348272159696 0.001322649884968996
2.320175372005906e-05 -0.0002830613811966032 0.001322499942034483
2.5510351406410336e-05 -0.00028293297509662807 0.001321899937465787
2.7835785658680834e-05 -0.0002829971781466156 0.001322199939750135
3.0148596124490723e-05 -0.0002829329459927976 0.0013219000538811088
3.2475079933647066e-05 -0.0002829971781466156 0.0013222000561654568
3.4778942790580913e-05 -0.00028286874294281006 0.0013216000515967607
3.7089128454681486e-05 -0.00028280451078899205 0.001321299932897091
3.9413163904100657e-05 -0.00028284735162742436 0.0013214999344199896
4.172052285866812e-05 -0.00028277240926399827 0.0013211499899625778
4.4056661863578483e-05 -0.0002828901633620262 0.0013216999359428883
4.639122562366538e-05 -0.000282986497040838 0.0013221497647464275
4.871079363510944e-05 -0.000282986497040838 0.0013221497647464275
5.10592944920063e-05 -0.00028314703376963735 0.0013228998286649585
5.339228664524853e-05 -0.0002832112368196249 0.0013231999473646283
5.570736902882345e-05 -0.0002831791352946311 0.0013230500044301152
5.80614032514859e-05 -0.0002833396429196 0.0013237999519333243
6.038385254214518e-05 -0.0002833396429196 0.0013237999519333243
6.272763130255044e-05 -0.0002834359183907509 0.0013242498971521854
6.507297803182155e-05 -0.0002835322520695627 0.0013246999587863684
6.738175579812378e-05 -0.00028346801991574466 0.0013243998400866985
6.97131545166485e-05 -0.00028350012144073844 0.0013245500158518553
7.209945761132985e-05 -0.00028374631074257195 0.001325699733570218
7.442526839440688e-05 -0.00028374631074257195 0.001325699733570218
7.676552922930568e-05 -0.0002837998035829514 0.0013259497936815023
7.907387043815106e-05 -0.00028373560053296387 0.0013256499078124762
8.141798025462776e-05 -0.00028379977447912097 0.0013259499100968242
8.379157225135714e-05 -0.0002839603112079203 0.0013266999740153551
8.608991629444063e-05 -0.0002838639775291085 0.0013262501452118158
8.842665556585416e-05 -0.0002838960790541023 0.001326400088146329
9.078446601051837e-05 -0.0002839924127329141 0.0013268499169498682
9.311227040598169e-05 -0.0002839924127329141 0.0013268499169498682
9.54616698436439e-05 -0.00028405661578290164 0.0013271499192342162
9.781209519132972e-05 -0.00028412084793671966 0.001327450037933886
0.00010014096915256232 -0.00028412084793671966 0.0013274499215185642
0.00010249298065900803 -0.0002841850509867072 0.001327750040218234
0.00010481446224730462 -0.00028416363056749105 0.001327649923041463
0.00010715176176745445 -0.0002841850509867072 0.0013277499238029122
0.00010952648153761402 -0.0002843027759809047 0.0013282999861985445
0.00011183157039340585 -0.0002842385438270867 0.0013280001003295183
0.00011422586248954758 -0.00028439908055588603 0.0013287501642480493
0.0001166579095297493 -0.0002846452407538891 0.0013299001147970557
0.00011899104720214382 -0.0002846452407538891 0.0013299001147970557
0.00012144281936343759 -0.0002849235024768859 0.0013312000082805753
0.00012380613770801574 -0.00028498770552687347 0.0013314998941496015
0.00012625577801372856 -0.00028524454683065414 0.0013327000197023153
-0.00036367762368172407 -0.000276760954875499 0.001303749973885715
-0.0003609607520047575 -0.0002764319069683552 0.001302200136706233
-0.0003586761304177344 -0.0002764319069683552 0.001302200136706233
-0.0003561316116247326 -0.00027623024652712047 0.0013012499548494816
-0.0003536583390086889 -0.00027608167147263885 0.001300550065934658
-0.0003514577110763639 -0.0002761453506536782 0.001300850068219006
-0.00034894736018031836 -0.0002759649360086769 0.0013000000035390258
-0.00034658663207665086 -0.00027590125682763755 0.0012997001176699996
-0.0003444257308728993 -0.00027599677559919655 0.0013001500628888607
-0.0003418947453610599 -0.00027579511515796185 0.0012992002302780747
-0.00033964155591093004 -0.0002758163318503648 0.0012993001146242023
-0.00033725827233865857 -0.0002757313777692616 0.001298900111578405
-0.0003350955084897578 -0.0002758269547484815 0.001299350056797266
-0.0003328799793962389 -0.0002758800401352346 0.001299600233323872
-0.0003304854908492416 -0.0002757844631560147 0.0012991500552743673
-0.0003282820980530232 -0.00027584817144088447 0.0012994500575587153
-0.00032614037627354264 -0.00027596490690484643 0.001299999887123704
-0.0003238222561776638 -0.00027593306731432676 0.0012998499441891909
-0.00032165314769372344 -0.00027602858608588576 0.001300299889408052
-0.0003194210585206747 -0.00027607104857452214 0.0013005000073462725
-0.0003172126307617873 -0.00027613472775556147 0.0013007998932152987
-0.00031520891934633255 -0.0002763788215816021 0.0013019498437643051
-0.0003129247925244272 -0.0002763788215816021 0.0013019498437643051
-0.00031085542286746204 -0.000276569917332381 0.001302849967032671
-0.00030885395244695246 -0.00027682463405653834 0.0013040500925853848
-0.0003065661294385791 -0.00027682463405653834 0.0013040500925853848
-0.00030459329718723893 -0.00027711124857887626 0.0013053999282419682
-0.0003024768375325948 -0.0002772704465314746 0.001306149992160499
-0.0003001508885063231 -0.0002772386069409549 0.0013059999328106642
-0.00029806490056216717 -0.0002774296444840729 0.00130690005607903
-0.000295919191557914 -0.0002775676257442683 0.0013075501192361116
-0.0002937374811153859 -0.000277673767413944 0.0013080500066280365
-0.00029157643439248204 -0.00027780115487985313 0.0013086500111967325
-0.0002892805205192417 -0.00027780115487985313 0.0013086500111967325
-0.0002870943280868232 -0.00027790729654952884 0.001309150131419301
-0.0002848954463843256 -0.00027800281532108784 0.0013095999602228403
-0.00028256551013328135 -0.00027797097573056817 0.0013094500172883272
-0.00028032175032421947 -0.00027802406111732125 0.0013097000773996115
-0.00027816201327368617 -0.00027816201327368617 0.001310350140556693
-0.00027583158225752413 -0.0002781301736831665 0.00131020019762218
-0.0002735956513788551 -0.0002781938819680363 0.0013105000834912062
-0.0002712654531933367 -0.00027816201327368617 0.001310350140556693
-0.0002690281835384667 -0.0002782256924547255 0.0013106500264257193
-0.0002668611123226583 -0.00027836370281875134 0.0013113000895828009
-0.00026456054183654487 -0.00027836370281875134 0.0013113000895828009
-0.0002622600004542619 -0.00027836370281875134 0.0013113000895828009
-0.00026007843553088605 -0.00027849106118083 0.001311899977736175
-0.00025774736423045397 -0.00027845922159031034 0.001311750034801662
-0.0002555044775363058 -0.0002785229298751801 0.0013120501535013318
-0.0002532508806325495 -0.00027857598615810275 0.001312300213612616
-0.0002509199548512697 -0.0002785441465675831 0.0013121501542627811
-0.0002487504971213639 -0.00027869275072589517 0.0013128501595929265
-0.0002464191638864577 -0.0002786609111353755 0.0013127002166584134
-0.00024411617778241634 -0.0002786609111353755 0.0013127001002430916
-0.000241886853473261 -0.00027874583611264825 0.0013131002197042108
-0.00023956492077559233 -0.00027872459031641483 0.0013130002189427614
-0.0002373337047174573 -0.0002788095152936876 0.001313400105573237
-0.00023519052774645388 -0.0002790005528368056 0.0013142999960109591
-0.00023285816132556647 -0.0002789687132462859 0.001314150053076446
-0.00023057893849909306 -0.0002790005528368056 0.001314300112426281
-0.0002282731729792431 -0.0002790005528368056 0.001314300112426281
-0.0002260275650769472 -0.00027907482581213117 0.0013146500568836927
-0.00022377220739144832 -0.0002791385049931705 0.001314949942752719
-0.00022141472436487675 -0.0002790748549159616 0.001314649940468371
-0.0002191833482356742 -0.0002791703736875206 0.0013151000021025538
-0.0002169173676520586 -0.0002792234590742737 0.0013153499457985163
-0.00021456077229231596 -0.00027915977989323437 0.00131505005992949
-0.0002121568686561659 -0.00027903239242732525 0.0013144499389454722
-0.00020987470634281635 -0.0002790642320178449 0.0013145999982953072
-0.00020750526164192706 -0.0002789793361444026 0.0013141999952495098
-0.00020522307022474706 -0.00027901114663109183 0.0013143500545993447
-0.0002028476883424446 -0.00027891562785953283 0.00131389987654984
-0.0002004434063564986 -0.000278777617495507 0.0013132498133927584
-0.00019813948892988265 -0.000278777617495507 0.0013132498133927584
-0.0001956863998202607 -0.0002785653923638165 0.0013122501550242305
-0.00019328102644067258 -0.00027841675910167396 0.0013115500332787633
-0.00019100190547760576 -0.00027844859869219363 0.0013116999762132764
-0.00018859999545384198 -0.00027829999453388155 0.001310999970883131
-0.00018632844148669392 -0.0002783424570225179 0.0013111999724060297
-0.00018386667943559587 -0.00027809833409264684 0.0013100499054417014
-0.00018154062854591757 -0.00027805584250018 0.0013098499039188027
-0.00017926315194927156 -0.00027808771119453013 0.0013099998468533158
-0.00017692438268568367 -0.0002780240320134908 0.0013096999609842896
-0.00017463335825596005 -0.0002780346549116075 0.0013097500195726752
-0.00017233550897799432 -0.0002780346549116075 0.0013097500195726752
-0.00017001824744511396 -0.00027800281532108784 0.0013096000766381621
-0.00016777192649897188 -0.0002780877402983606 0.0013100000796839595
-0.00016553053865209222 -0.0002781832590699196 0.0013104500249028206
-0.00016323148156516254 -0.0002781832590699196 0.0013104500249028206
-0.0001610000035725534 -0.00027829999453388155 0.001310999970883131
-0.00015870000061113387 -0.00027829999453388155 0.001310999970883131
-0.00015640596393495798 -0.0002783105883281678 0.0013110500294715166
-0.00015417052782140672 -0.00027842738199979067 0.0013116000918671489
-0.00015186946257017553 -0.00027842738199979067 0.0013116000918671489
-0.0001496881595812738 -0.00027865025913342834 0.001312650041654706
-0.00014745262160431594 -0.000278777617495507 0.0013132499298080802
-0.00014513210044242442 -0.00027874577790498734 0.001313099986873567
-0.00014289369573816657 -0.00027887316537089646 0.0013136999914422631
-0.0001405675575369969 -0.0002788307028822601 0.0013134998735040426
-0.00013831052638124675 -0.0002789262216538191 0.0013139499351382256
-0.0001361295726383105 -0.0002791809674818069 0.0013151500606909394
-0.00013382229371927679 -0.0002791809674818069 0.0013151500606909394
-0.00013154998305253685 -0.00027925524045713246 0.0013154998887330294
-0.00012925683404318988 -0.0002792870800476521 0.0013156499480828643
-0.00012693421740550548 -0.0002792552695609629 0.0013155000051483512
-0.00012468315253499895 -0.0002793826279230416 0.0013161000097170472
-0.00012244396202731878 -0.00027954179677180946 0.0013168500736355782
-0.00012012456863885745 -0.0002795205800794065 0.0013167500728741288
-0.0001178144957520999 -0.0002795205800794065 0.0013167500728741288
-0.0001154956262325868 -0.00027949936338700354 0.0013166500721126795
-0.00011321579950163141 -0.0002795736654661596 0.0013170000165700912
-0.00011091367196058854 -0.00027959488215856254 0.0013170999009162188
-0.00010860298061743379 -0.00027959488215856254 0.0013170999009162188
-0.0001063164891093038 -0.00027965859044343233 0.0013174000196158886
-0.00010402894986327738 -0.00027972226962447166 0.0013176999054849148
-0.00010169790039071813 -0.00027966921334154904 0.0013174499617889524
-9.939790470525622e-05 -0.0002797010529320687 0.0013176000211387873
-9.709368168842047e-05 -0.0002797222987283021 0.0013177000219002366
-9.477113781031221e-05 -0.000279690430033952 0.0013175500789657235
-9.247018897440284e-05 -0.00027972226962447166 0.0013177000219002366
-9.014814713736996e-05 -0.000279690430033952 0.0013175500789657235
-8.783666999079287e-05 -0.000279690430033952 0.0013175500789657235
-8.556088141631335e-05 -0.0002798071946017444 0.0013180999085307121
-8.324842201545835e-05 -0.0002798071946017444 0.0013180999085307121
-8.095130760921165e-05 -0.0002798602799884975 0.0013183500850573182
-7.865930820116773e-05 -0.00027993458206765354 0.00131870002951473
-7.633710629306734e-05 -0.0002799027715809643 0.0013185500865802169
-7.404069765470922e-05 -0.0002799664216581732 0.001318849972449243
-7.171060860855505e-05 -0.0002799027133733034 0.001318549970164895
-6.941579340491444e-05 -0.00027997701545245945 0.0013188999146223068
-6.710956222377717e-05 -0.00028000882593914866 0.00131904985755682
-6.479543662862852e-05 -0.00028000882593914866 0.00131904985755682
-6.250026490306482e-05 -0.00028009378002025187 0.0013194497441872954
-6.0212809330550954e-05 -0.000280221167486161 0.0013200498651713133
-5.78969375055749e-05 -0.000280221167486161 0.0013200498651713133
-5.561262878472917e-05 -0.0002803803654387593 0.001320800045505166
-5.330754356691614e-05 -0.00028044404461979866 0.001321100164204836
-5.09840392624028e-05 -0.000280412205029279 0.0013209499884396791
-4.867210373049602e-05 -0.00028044404461979866 0.0013210999313741922
-4.6349123294930905e-05 -0.000280412205029279 0.0013209499884396791
-4.405666550155729e-05 -0.0002805714029818773 0.0013216999359428883
-4.176157744950615e-05 -0.00028073060093447566 0.0013224499998614192
-3.944149284507148e-05 -0.00028073060093447566 0.0013224499998614192
-3.714246122399345e-05 -0.000280889798887074 0.0013231999473646283
-3.4834207326639444e-05 -0.00028099591145291924 0.0013236998347565532
-3.2508243748452514e-05 -0.00028096410096623003 0.00132354989182204
-3.0196493753464893e-05 -0.0002810596488416195 0.0013240000698715448
-2.7876842068508267e-05 -0.00028109148843213916 0.001324150012806058
-2.556438630563207e-05 -0.0002812082529999316 0.0013246999587863684
-2.3254387997440062e-05 -0.0002813780738506466 0.001325499964877963
-2.0927367586409673e-05 -0.0002813568280544132 0.0013254000805318356
-1.8610529878060333e-05 -0.00028148418641649187 0.0013260000851005316
-1.628911923035048e-05 -0.00028156914049759507 0.001326399971731007
-1.3957367627881467e-05 -0.0002814735926222056 0.0013259499100968242
-1.1636404451564886e-05 -0.00028160098008811474 0.001326550031080842
-9.311228495789692e-06 -0.00028166465926915407 0.0013268499169498682
-6.983420462347567e-06 -0.00028166465926915407 0.0013268499169498682
-4.657018052967032e-06 -0.0002817495842464268 0.0013272499199956656
-2.3275438252312597e-06 -0.0002816328196786344 0.0013266999740153551
0.0 -0.00028166468837298453 0.0013268499169498682
2.328333494006074e-06 -0.00028172836755402386 0.001327150035649538
4.655087650462519e-06 -0.0002816328196786344 0.0013266999740153551
6.982631020946428e-06 -0.0002816328196786344 0.0013266998576000333
9.312281690654345e-06 -0.00028169649885967374 0.0013269998598843813
1.163684282801114e-05 -0.00028161160298623145 0.001326599856838584
1.3965788639325183e-05 -0.0002816434425767511 0.0013267499161884189
1.6284207958960906e-05 -0.0002814842155203223 0.001325999852269888
1.8606315279612318e-05 -0.000281420536339283 0.0013256999664008617
2.0936844521202147e-05 -0.0002814842155203223 0.001325999852269888
2.3253507606568746e-05 -0.00028136748005636036 0.0013254497898742557
2.5571138394298032e-05 -0.0002812825550790876 0.0013250499032437801
2.790105099848006e-05 -0.00028133561136201024 0.0013252998469397426
3.0222718123695813e-05 -0.00028130380087532103 0.0013251499040052295
3.254631155868992e-05 -0.0002812931779772043 0.0013250998454168439
3.486315836198628e-05 -0.000281229498796165 0.0013247998431324959
3.71761379938107e-05 -0.00028114457381889224 0.0013243998400866985
3.9508599002147093e-05 -0.0002812082529999316 0.0013246999587863684
4.182315751677379e-05 -0.00028114457381889224 0.0013243999565020204
4.416999581735581e-05 -0.0002812931779772043 0.0013251000782474875
4.649473703466356e-05 -0.0002812931779772043 0.0013251000782474875
4.881395580014214e-05 -0.00028126133838668466 0.0013249500188976526
5.1173159590689465e-05 -0.0002814523468259722 0.001325849792920053
5.352341759135015e-05 -0.00028157970518805087 0.0013264499139040709
5.585053077084012e-05 -0.00028157970518805087 0.0013264499139040709
5.819079888169654e-05 -0.00028164341347292066 0.0013267499161884189
6.051842501619831e-05 -0.00028164341347292066 0.0013267499161884189
6.286500865826383e-05 -0.00028172830934636295 0.0013271499192342162
6.520807073684409e-05 -0.00028179201763123274 0.001327450037933886
6.753692287020385e-05 -0.00028179201763123274 0.001327450037933886
6.987368396949023e-05 -0.0002818238572217524 0.0013275999808683991
7.227350579341874e-05 -0.0002820998488459736 0.0013288999907672405
7.459649350494146e-05 -0.0002820679801516235 0.0013287500478327274
7.694499799981713e-05 -0.0002821316593326628 0.0013290499337017536
7.929456478450447e-05 -0.00028219533851370215 0.0013293498195707798
8.161754522006959e-05 -0.0002821634989231825 0.0013291999930515885
8.397790952585638e-05 -0.0002822590176947415 0.0013296499382704496
8.629113290226087e-05 -0.00028219533851370215 0.0013293498195707798
8.863332186592743e-05 -0.0002822272072080523 0.0013294998789206147
9.097605652641505e-05 -0.0002822590176947415 0.0013296498218551278
9.32877155719325e-05 -0.0002821953676175326 0.0013293499359861016
9.567746747052297e-05 -0.00028236518846824765 0.0013301500584930182
9.805157606024295e-05 -0.00028248195303604007 0.0013307001208886504
0.00010034089063992724 -0.0002823545946739614 0.0013301001163199544
0.00010270912025589496 -0.00028245014254935086 0.0013305500615388155
0.00010504342208150774 -0.00028245014254935086 0.0013305500615388155
0.0001073898165486753 -0.00028248195303604007 0.0013307000044733286
0.0001097697313525714 -0.000282598688500002 0.001331249950453639
0.00011210527736693621 -0.000282598688500002 0.001331249950453639
0.00011450525198597461 -0.0002827579155564308 0.0013319998979568481
0.00011694737622747198 -0.00028301263228058815 0.001333200023509562
0.00011928632011404261 -0.00028301263228058815 0.001333200023509562
0.00012173474533483386 -0.0002832673490047455 0.0013343999162316322
0.00012414087541401386 -0.00028341595316305757 0.0013351000379770994
0.00012655419413931668 -0.00028357518021948636 0.0013358501018956304
-0.0003644866228569299 -0.00027508422499522567 0.0013066499959677458
-0.0003618200425989926 -0.00027480002609081566 0.0013053000438958406
-0.00035952997859567404 -0.00027480002609081566 0.0013053000438958406
-0.0003569253021851182 -0.0002745579113252461 0.0013041500933468342
-0.00035443331580609083 -0.0002744000230450183 0.001303400145843625
-0.00035226825275458395 -0.000274494756013155 0.0013038500910624862
-0.0003497660509310663 -0.0002743263030424714 0.0013030499685555696
-0.00034748000325635076 -0.0002743263030424714 0.0013030499685555696
-0.0003452336823102087 -0.00027435788069851696 0.0013031999114900827
-0.0003427763585932553 -0.0002742210344877094 0.001302549964748323
-0.00034059566678479314 -0.00027430523186922073 0.0013029499677941203
-0.0003382059803698212 -0.0002742210344877094 0.0013025498483330011
-0.00033597234869375825 -0.0002742631477303803 0.0013027500826865435
-0.00033380213426426053 -0.0002743579098023474 0.0013032000279054046
-0.00033145223278552294 -0.00027430529007688165 0.0013029498513787985
-0.0003291916218586266 -0.0002743263030424714 0.0013030499685555696
-0.0003269807784818113 -0.0002743894583545625 0.0013033499708399177
-0.00032469414873048663 -0.0002743894583545625 0.0013033499708399177
-0.0003226302796974778 -0.00027457898249849677 0.0013042499776929617
-0.00032041582744568586 -0.0002746421378105879 0.0013045500963926315
-0.00031812707311473787 -0.0002746421378105879 0.0013045500963926315
-0.00031609265715815127 -0.0002748631814029068 0.0013056001625955105
-0.00031377808772958815 -0.0002748421102296561 0.0013055001618340611
-0.0003117143642157316 -0.0002750421117525548 0.001306450110860169
-0.00030967104248702526 -0.00027526315534487367 0.0013074998278170824
-0.0003073771658819169 -0.00027526315534487367 0.0013074998278170824
-0.00030519999563694 -0.0002753683947958052 0.001307999948039651
-0.0003031599917449057 -0.0002756000030785799 0.0013090999564155936
-0.00030086335027590394 -0.0002756000030785799 0.0013090999564155936
-0.0002988403139170259 -0.00027585262432694435 0.0013102999655529857
-0.0002967225736938417 -0.0002760210772976279 0.0013111000880599022
-0.0002943999716080725 -0.00027600000612437725 0.0013110000872984529
-0.00029223368619568646 -0.0002761263167485595 0.001311599975451827
-0.0002899326500482857 -0.0002761263167485595 0.001311599975451827
-0.0002876206417568028 -0.00027611578116193414 0.0013115501496940851
-0.0002855806960724294 -0.0002763684024102986 0.0013127500424161553
-0.00028327765176072717 -0.0002763684024102986 0.0013127500424161553
-0.0002810066507663578 -0.0002764000091701746 0.0013129001017659903
-0.00027875640080310404 -0.00027645265799947083 0.0013131501618772745
-0.0002764210803434253 -0.0002764210803434253 0.0013129999861121178
-0.00027413846692070365 -0.0002764421224128455 0.001313099986873567
-0.00027174156275577843 -0.00027634736034087837 0.001312650041654706
-0.00026956183137372136 -0.00027647370006889105 0.0013132499298080802
-0.00026731897378340364 -0.00027653685538098216 0.0013135498156771064
-0.0002650144451763481 -0.00027653685538098216 0.0013135498156771064
-0.00026270997477695346 -0.00027653685538098216 0.0013135498156771064
-0.0002605245099402964 -0.0002766631660051644 0.0013141499366611242
-0.0002581305452622473 -0.0002765684330370277 0.001313700107857585
-0.00025588422431610525 -0.00027663158834911883 0.0013140002265572548
-0.00025365615147165954 -0.0002767158148344606 0.0013144001131877303
-0.00025132152950391173 -0.00027668423717841506 0.0013142500538378954
-0.000249072618316859 -0.00027674739249050617 0.0013145500561222434
-0.00024668194237165153 -0.00027665268862619996 0.0013141001109033823
-0.00024449737975373864 -0.00027678950573317707 0.0013147499412298203
-0.0002422737015876919 -0.00027688423870131373 0.0013152000028640032
-0.0002399663208052516 -0.00027688423870131373 0.0013152000028640032
-0.0002376679767621681 -0.0002768947451841086 0.0013152501778677106
-0.00023552158381789923 -0.0002770842402242124 0.001316149951890111
-0.0002331859723199159 -0.00027705266256816685 0.0013160000089555979
-0.00023097367375157773 -0.0002771684085018933 0.0013165499549359083
-0.00022866395011078566 -0.0002771684085018933 0.0013165499549359083
-0.00022641438408754766 -0.00027724209940060973 0.001316900015808642
-0.00022414656996261328 -0.0002772947191260755 0.0013171499595046043
-0.00022183576948009431 -0.0002772947191260755 0.0013171499595046043
-0.00021961666061542928 -0.0002774105523712933 0.0013177000219002366
-0.0002174120891140774 -0.00027754734037443995 0.0013183500850573182
-0.00021500948059838265 -0.0002774315944407135 0.001317800022661686
-0.00021264914539642632 -0.00027736841002479196 0.001317499903962016
-0.00021033771918155253 -0.00027736841002479196 0.001317499903962016
-0.0002079473779303953 -0.0002772631123661995 0.0013170000165700912
-0.00020566026796586812 -0.0002772947191260755 0.0013171499595046043
-0.00020326455705799162 -0.0002771789731923491 0.0013166001299396157
-0.00020087840675842017 -0.0002770736755337566 0.0013161000097170472
-0.00019856949802488089 -0.0002770736755337566 0.0013161000097170472
-0.00019608900765888393 -0.0002768315898720175 0.001314949826337397
-0.00019376000273041427 -0.00027680001221597195 0.001314799883402884
-0.00019149700528942049 -0.00027686316752806306 0.001315099885687232
-0.00018908912898041308 -0.00027671578573063016 0.0013143999967724085
-0.0001867760729510337 -0.0002767051919363439 0.0013143500545993447
-0.00018437895050738007 -0.00027656840393319726 0.0013136999914422631
-0.00018202568753622472 -0.0002764947130344808 0.0013133499305695295
-0.0001797763106878847 -0.0002765789395198226 0.0013137500500306487
-0.0001774107076926157 -0.0002764842356555164 0.0013133001048117876
-0.00017511335317976773 -0.0002764947130344808 0.0013133499305695295
-0.00017280920292250812 -0.0002764947130344808 0.0013133499305695295
-0.00017042721447069198 -0.0002763684024102986 0.0013127498095855117
-0.0001681625290075317 -0.0002764315577223897 0.0013130500447005033
-0.00016590945597272366 -0.0002765157842077315 0.0013134499313309789
-0.00016361763118766248 -0.00027653685538098216 0.0013135499320924282
-0.0001613806962268427 -0.0002766526013147086 0.0013140999944880605
-0.00015905711916275322 -0.00027662102365866303 0.0013139500515535474
-0.0001567698345752433 -0.00027665263041853905 0.0013141001109033823
-0.0001546054263599217 -0.0002769052516669035 0.0013153001200407743
-0.00015229788550641388 -0.0002769052516669035 0.0013153001200407743
-0.0001500587532063946 -0.0002770315913949162 0.0013159001246094704
-0.00014777263277210295 -0.00027707373374141753 0.001316100126132369
-0.00014544710575137287 -0.00027704209787771106 0.0013159500667825341
-0.00014319279580377042 -0.0002771473373286426 0.0013164500705897808
-0.00014087789168115705 -0.0002771368308458477 0.001316400128416717
-0.00013860527542419732 -0.00027721055084839463 0.0013167498400434852
-0.00013637282245326787 -0.00027736841002479196 0.001317499903962016
-0.0001340308808721602 -0.00027730525471270084 0.00131720001809299
-0.00013173496699891984 -0.00027733680326491594 0.001317349961027503
-0.0001295122638111934 -0.0002775263274088502 0.0013182498514652252
-0.00012718510697595775 -0.0002774947206489742 0.0013180999085307121
-0.0001248868356924504 -0.0002775262692011893 0.0013182498514652252
-0.00012265781697351485 -0.00027771576424129307 0.001319149974733591
-0.00012032982340315357 -0.0002776841865852475 0.001319000031799078
-0.00011804264795500785 -0.0002777473710011691 0.0013193001504987478
-0.00011571492359507829 -0.00027771579334512353 0.0013191502075642347
-0.00011340060882503167 -0.00027771579334512353 0.0013191502075642347
-0.00011115788947790861 -0.00027789472369477153 0.0013200000394135714
-0.00010884209768846631 -0.00027789472369477153 0.0013200000394135714
-0.00010653035860741511 -0.00027790525928139687 0.0013200498651713133
-0.0001042381627485156 -0.00027796844369731843 0.0013203499838709831
-0.00010191016917815432 -0.0002779368660412729 0.0013201999245211482
-9.965062054106966e-05 -0.0002780947252176702 0.001320950104855001
-9.734052582643926e-05 -0.0002781157672870904 0.0013210501056164503
-9.500132000539452e-05 -0.0002780526119749993 0.0013207501033321023
-9.269473230233416e-05 -0.00027808418963104486 0.0013209000462666154
-9.037736163008958e-05 -0.00027808418963104486 0.0013209000462666154
-8.80766601767391e-05 -0.00027813686756417155 0.001321149873547256
-8.579456334700808e-05 -0.000278252613497898 0.0013216999359428883
-8.345053356606513e-05 -0.00027816841611638665 0.0013213000493124127
-8.11478093964979e-05 -0.0002782210358418524 0.0013215498765930533
-7.883824582677335e-05 -0.000278252613497898 0.0013216998195275664
-7.651947817066684e-05 -0.000278252613497898 0.0013216998195275664
-7.424842624459416e-05 -0.0002784316020552069 0.0013225498842075467
-7.192815246526152e-05 -0.0002784316020552069 0.0013225498842075467
-6.963947089388967e-05 -0.00027855788357555866 0.0013231498887762427
-6.734104681527242e-05 -0.0002786526456475258 0.0013235999504104257
-6.499684241134673e-05 -0.00027855788357555866 0.0013231498887762427
-6.26944747637026e-05 -0.00027864208095707 0.00132354989182204
-6.037245475454256e-05 -0.00027864208095707 0.00132354989182204
-5.803727617603727e-05 -0.0002785789256449789 0.001323250005953014
-5.5732631153659895e-05 -0.00027866315213032067 0.0013236498925834894
-5.34386963408906e-05 -0.0002788105048239231 0.0013243498979136348
-5.1115253882016987e-05 -0.0002788105048239231 0.0013243498979136348
-4.881763379671611e-05 -0.00027895785751752555 0.0013250497868284583
-4.648596222978085e-05 -0.0002789157733786851 0.0013248497853055596
-4.4166663428768516e-05 -0.00027894735103473067 0.0013249997282400727
-4.18657909904141e-05 -0.00027910523931495845 0.0013257497921586037
-3.9539918361697346e-05 -0.00027910523931495845 0.0013257497921586037
-3.721403845702298e-05 -0.00027910523931495845 0.0013257497921586037
-3.491315510473214e-05 -0.00027930524083785713 0.0013266999740153551
-3.258561628172174e-05 -0.00027930524083785713 0.0013266999740153551
-3.02717526210472e-05 -0.00027943155146203935 0.0013272997457534075
-2.7942103770328686e-05 -0.000279421015875414 0.0013272498035803437
-2.56184193858644e-05 -0.00027947366470471025 0.001327499863691628
-2.3307895389734767e-05 -0.0002796947374008596 0.001328549929894507
-2.0972369384253398e-05 -0.00027963161119259894 0.001328249811194837
-1.863859870354645e-05 -0.00027957893325947225 0.0013279997510835528
-1.631613849895075e-05 -0.00027970527298748493 0.0013285998720675707
-1.3985261830384843e-05 -0.00027970527298748493 0.0013285998720675707
-1.1662278666335624e-05 -0.00027989473892375827 0.0013294999953359365
-9.330878128821496e-06 -0.0002799263165798038 0.0013296499382704496
-6.9971051743777934e-06 -0.0002798841742333025 0.0013294497039169073
-4.66473738924833e-06 -0.0002798841742333025 0.0013294497039169073
-2.332105395908002e-06 -0.0002798525965772569 0.0013292997609823942
0.0 -0.0002798315545078367 0.0013291999930515885
2.332719532205374e-06 -0.00027992628747597337 0.0013296499382704496
4.663333584176144e-06 -0.00027979997685179114 0.0013290500501170754
6.994209797994699e-06 -0.00027976842829957604 0.0013288999907672405
9.328420674137305e-06 -0.0002798526256810874 0.001329299877397716
1.1656579772534315e-05 -0.0002797578927129507 0.001328849932178855
1.3989473700348753e-05 -0.00027978947036899626 0.001328999875113368
1.6319823771482334e-05 -0.0002797683991957456 0.0013288999907672405
1.864701698650606e-05 -0.0002797052438836545 0.0013285999884828925
2.0984207367291674e-05 -0.0002797894412651658 0.0013289999915286899
2.330263305339031e-05 -0.000279631552984938 0.001328249927610159
2.563289672252722e-05 -0.00027963152388110757 0.001328249811194837
2.796315857267473e-05 -0.00027963152388110757 0.001328249811194837
3.028315768460743e-05 -0.0002795367909129709 0.001327799865975976
3.261631354689598e-05 -0.00027956836856901646 0.001327949925325811
3.494604607112706e-05 -0.00027956836856901646 0.001327949925325811
3.7272988265613094e-05 -0.00027954732649959624 0.0013278498081490397
3.961149195674807e-05 -0.0002796104527078569 0.0013281499268487096
4.193368658889085e-05 -0.0002795578329823911 0.0013278997503221035
4.42683303845115e-05 -0.00027958943974226713 0.0013280499260872602
4.661228012992069e-05 -0.0002796736953314394 0.0013284499291330576
4.89429003209807e-05 -0.0002796736953314394 0.0013284499291330576
5.13024497195147e-05 -0.00027983164181932807 0.0013292001094669104
5.365052493289113e-05 -0.0002799158392008394 0.0013295999960973859
5.597684139502235e-05 -0.00027988426154479384 0.001329449936747551
5.834210242028348e-05 -0.00028004212072119117 0.001330200000666082
6.066895366529934e-05 -0.0002800105430651456 0.001330049941316247
6.303078407654539e-05 -0.00028013685368932784 0.001330649945884943
6.53726383461617e-05 -0.0002801684313453734 0.001330800005234778
6.769972242182121e-05 -0.0002801368827931583 0.001330649945884943
7.007105887169018e-05 -0.00028028423548676074 0.0013313498347997665
7.243938307510689e-05 -0.0002804105170071125 0.0013319498393684626
7.475088204955682e-05 -0.00028031578403897583 0.0013314998941496015
7.711289072176442e-05 -0.0002804105170071125 0.0013319498393684626
7.946753612486646e-05 -0.0002804736723192036 0.0013322499580681324
8.180482836905867e-05 -0.0002804736723192036 0.0013322499580681324
8.416736091021448e-05 -0.0002805578988045454 0.0013326500775292516
8.649561641504988e-05 -0.00028052632114849985 0.0013325000181794167
8.88499926077202e-05 -0.0002805789408739656 0.001332749961875379
9.120868344325572e-05 -0.0002806421252898872 0.001333049964159727
9.354737267130986e-05 -0.0002806421252898872 0.001333049964159727
9.58968375925906e-05 -0.0002806736738421023 0.0013331999070942402
9.82910642051138e-05 -0.00028083156212233007 0.0013339498545974493
0.00010060869681183249 -0.0002807683777064085 0.0013336498523131013
0.00010298316192347556 -0.00028086311067454517 0.0013340997975319624
0.00010532367741689086 -0.00028086311067454517 0.0013340997975319624
0.00010765208571683615 -0.00028083156212233007 0.0013339498545974493
0.00011006659042323008 -0.00028102105716243386 0.0013348499778658152
0.00011238317529205233 -0.00028095790185034275 0.001334550091996789
0.00011480184912215918 -0.0002811473677866161 0.001335450098849833
0.00011726317461580038 -0.0002814315666910261 0.0013367999345064163
0.00011960840492974967 -0.0002814315666910261 0.0013367999345064163
0.00012207227700855583 -0.0002817052591126412 0.0013380998279899359
0.00012451744987629354 -0.00028192633180879056 0.0013391498941928148
-0.0003654768515843898 -0.00027353299083188176 0.0013101999647915363
-0.00036285954411141574 -0.0002732929424382746 0.0013090500142425299
-0.0003605904639698565 -0.0002733138098847121 0.0013091498985886574
-0.00035799265606328845 -0.000273084151558578 0.0013080498902127147
-0.0003555346338544041 -0.00027295888867229223 0.0013074498856440187
-0.00035336249857209623 -0.00027305283583700657 0.0013078998308628798
-0.00035077263601124287 -0.0002728231775108725 0.001306799822486937
-0.00034854665864259005 -0.0002728753606788814 0.0013070499990135431
-0.0003463595639914274 -0.0002729588595684618 0.0013074500020593405
-0.0003438421117607504 -0.00027278141351416707 0.001306600053794682
-0.0003416151157580316 -0.000272833596682176 0.0013068499974906445
-0.00033940040157176554 -0.0002728962281253189 0.0013071499997749925
-0.0003370297490619123 -0.000272833596682176 0.0013068499974906445
-0.0003348523168824613 -0.00027292754384689033 0.0013072999427095056
-0.0003325587895233184 -0.00027292754384689033 0.0013072999427095056
-0.00033041686401702464 -0.0002730528067331761 0.0013078999472782016
-0.00032814734731800854 -0.0002730736741796136 0.001307999948039651
-0.0003257404896430671 -0.00027297972701489925 0.0013075500028207898
-0.00032358261523768306 -0.0002730945707298815 0.0013080999488011003
-0.0003215087635908276 -0.0002732824650593102 0.0013089998392388225
-0.0003192122676409781 -0.0002732824650593102 0.0013089998392388225
-0.0003170126583427191 -0.000273365993052721 0.0013093998422846198
-0.00031473947456106544 -0.00027338688960298896 0.0013094998430460691
-0.00031268069869838655 -0.00027359562227502465 0.0013105000834912062
-0.00031053548445925117 -0.0002737313334364444 0.0013111499138176441
-0.0003082000184804201 -0.00027370001771487296 0.001310999970883131
-0.0003061916504520923 -0.0002739609917625785 0.0013122499221935868
-0.00030405158759094775 -0.0002741071511991322 0.0013129499275237322
-0.00030171367689035833 -0.00027407583547756076 0.001312799984589219
-0.0002996271359734237 -0.00027427414897829294 0.0013137500500306487
-0.00029758262098766863 -0.000274514255579561 0.001314900116994977
-0.00029525329591706395 -0.00027449335902929306 0.0013148002326488495
-0.00029294664273038507 -0.00027449335902929306 0.0013148002326488495
-0.0002906068111769855 -0.0002744620433077216 0.0013146500568836927
-0.00028843205654993653 -0.0002745873061940074 0.0013152501778677106
-0.0002862768596969545 -0.0002747334656305611 0.001315950183197856
-0.0002839357766788453 -0.00027470214990898967 0.0013158000074326992
-0.00028175575425848365 -0.00027482741279527545 0.0013164000120013952
-0.0002794781466946006 -0.0002748587285168469 0.0013165500713512301
-0.0002771157887764275 -0.00027480654534883797 0.0013163000112399459
-0.0002748378610704094 -0.0002748378610704094 0.0013164500705897808
-0.00027246616082265973 -0.0002747752296272665 0.001316149951890111
-0.0002701878547668457 -0.00027480654534883797 0.0013163000112399459
-0.0002679091412574053 -0.0002748378610704094 0.001316449954174459
-0.00026553901261650026 -0.0002747752296272665 0.001316149951890111
-0.00026319996686652303 -0.0002747439139056951 0.0013160000089555979
-0.00026094081113114953 -0.000274796097073704 0.0013162499526515603
-0.0002585824695415795 -0.0002747439139056951 0.0013160000089555979
-0.0002562736626714468 -0.0002747439139056951 0.0013160000089555979
-0.0002540131681598723 -0.000274796097073704 0.0013162500690668821
-0.00025164661929011345 -0.0002747334656305611 0.0013159500667825341
-0.0002494799846317619 -0.00027489004423841834 0.0013166998978704214
-0.0002471136685926467 -0.00027482741279527545 0.0013164000120013952
-0.00024483210290782154 -0.0002748587285168469 0.0013165500713512301
-0.00024266052059829235 -0.0002750153071247041 0.0013173000188544393
-0.00024029475753195584 -0.00027495267568156123 0.0013169999001547694
-0.00023812877770978957 -0.0002751196443568915 0.0013177997898310423
-0.00023584370501339436 -0.00027515096007846296 0.001317949965596199
-0.00023350489209406078 -0.0002751196443568915 0.0013177997898310423
-0.0002313333097845316 -0.00027528670034371316 0.0013185999123379588
-0.00022906344383955002 -0.0002753388835117221 0.0013188498560339212
-0.0002267582603963092 -0.00027534933178685606 0.001318899798206985
-0.00022456352598965168 -0.00027549549122340977 0.0013195999199524522
