ply
format ascii 1.0
comment Created by Open3D
element vertex 1000
property double x
property double y
property double z
end_header
0.997786 -0.20435 0.899958
0.997294 0.15959 0.937015
0.99524 0.292949 0.918713
1.00404 0.0535946 0.53664
0.990409 -0.00419932 0.865805
0.979113 -0.232439 0.920305
1.01111 -0.227718 0.645516
1.00061 -0.22211 0.702006
0.998809 0.121572 0.85482
1.01645 -0.173763 0.768976
0.998503 0.164525 0.712206
0.999226 0.0374153 0.957082
0.992076 -0.184854 1.08766
1.00617 0.164635 0.732075
0.987156 -0.269219 1.00231
0.992218 -0.180642 0.587399
0.988343 -0.288041 0.892718
1.01501 0.176989 0.586145
0.998495 0.286437 0.765113
1.00483 0.137555 0.5999
1.01676 -0.0582685 0.952012
0.98431 -0.0632004 0.602662
1.00306 -0.0512501 0.980895
0.997392 0.128091 0.998514
0.999178 0.0382353 0.843036
0.99936 -0.222969 0.775427
1.01471 -0.00800375 0.716092
0.99876 -0.0579787 1.00278
1.00662 0.280465 0.731644
1.00338 -0.055489 0.865085
1.0083 -0.185543 0.979357
0.993221 0.198038 0.638052
1.00195 -0.112143 0.512584
1.01046 -0.0590421 0.842761
1.00302 -0.116098 0.929813
0.977999 -0.0929165 1.02766
1.00342 0.126759 1.07382
1.02225 -0.262749 0.893898
1.01281 0.185564 0.923475
1.00106 -0.0476863 1.01772
0.987618 -0.106492 0.549284
0.986159 -0.14849 0.945203
1.00135 -0.0335072 1.01773
0.981426 0.123693 0.631746
0.985413 0.0902588 0.863755
0.994544 -0.165252 0.920322
0.998443 -0.0795071 0.798377
1.00303 0.172083 1.08425
1.00618 0.000537907 1.06133
0.980674 0.0902462 0.86587
1.02205 -0.0346983 0.674399
0.986611 -0.196517 0.986301
0.995534 0.0797174 0.910301
1.00469 0.0528566 0.688127
0.994251 0.194868 0.672339
1.00603 -0.0819675 1.03824
0.978825 0.169542 1.08876
0.984477 -0.253369 0.675634
1.01121 -0.204189 0.69445
0.993519 -0.192326 0.758738
1.01025 0.15928 0.934132
1.01623 -0.0800538 0.973829
1.00301 -0.228716 0.735107
0.996395 -0.077959 0.78351
0.983829 -0.271326 0.509494
1.00067 -0.231473 0.900368
1.00431 0.169971 0.828599
1.00194 -0.26707 0.642981
1.01001 -0.0521005 0.983615
0.984256 -0.0800544 1.06201
0.993539 -0.0127056 0.735613
0.987312 0.0232765 0.682986
0.991874 0.0660974 0.941814
1.0162 -0.284405 0.509065
1.00414 -0.264195 1.01516
0.999621 0.113055 0.818565
1.01522 0.282587 0.694875
0.994591 -0.0767201 0.971012
1.00317 0.252963 0.983017
1.00144 -0.0991932 0.530886
1.00352 -0.142371 1.09105
0.990185 0.203108 0.832332
1.00397 0.165449 0.828204
0.999094 -0.00285914 0.745817
0.982412 0.011153 0.878635
1.00669 -0.107098 0.91999
0.991342 -0.200542 0.861407
1.01565 0.215394 0.754418
1.02327 -0.0745357 0.956369
1.00128 -0.0404394 0.917074
0.996385 0.186323 0.83685
0.975745 0.121028 0.558982
0.990717 -0.262139 0.698348
0.99561 -0.0734386 0.936354
0.997837 0.0993703 0.79053
0.993816 -0.0483265 0.8586
0.994538 -0.208152 0.598227
0.986383 0.0692705 0.841114
1.00176 -0.0500275 0.736207
0.996421 0.147016 1.08441
1.00899 -0.0259013 0.584186
1.00925 -0.117153 0.958734
1.01102 0.270197 0.715657
0.998377 -0.232886 0.698441
1.01144 0.0381392 1.01137
1.00465 0.0311906 0.888435
1.00576 0.168416 0.519439
0.993176 0.16224 0.646196
0.994216 -0.128206 0.605418
0.982598 -0.22506 1.0156
1.00179 -0.148836 0.719334
1.009 0.236188 0.980796
1.00203 -0.231333 0.640632
0.994439 0.160018 0.937676
1.00902 -0.180499 0.960475
0.989859 0.279582 0.576737
1.00599 0.0847177 1.04099
1.00874 0.133356 1.07148
0.990894 0.201893 0.923962
0.991419 0.0928169 0.922217
0.99929 0.276163 0.837599
0.999927 -0.0189201 1.00953
1.00379 0.0255988 0.563301
0.997386 0.290806 0.721972
1.00813 0.211957 1.01053
1.00035 0.00888402 0.662691
1.00015 0.249865 0.883263
1.01382 -0.0100256 0.615025
1.00203 0.0257198 1.05623
1.00477 0.239648 0.512373
1.00871 0.280302 0.608401
1.01016 -0.0994864 0.862687
0.985349 0.244107 0.67712
0.983496 0.263432 0.923322
0.99394 0.29316 0.668328
1.00655 0.258293 0.994686
1.00974 -0.079836 0.810858
0.98292 0.280382 0.760777
1.02034 -0.237775 0.741847
0.995465 0.0289337 1.00903
1.01077 0.291462 1.03096
1.00624 0.147362 0.957126
1.00384 0.195547 0.894303
0.989476 -0.238275 0.660442
0.987545 0.0911553 0.977678
1.00081 -0.274721 0.706378
0.986612 -0.0720564 1.0869
0.995436 0.0534759 0.569081
1.00475 -0.0774717 1.06628
0.998779 -0.106034 0.597596
1.00549 0.275191 0.513709
1.00631 0.258718 0.578717
1.01573 0.182712 0.526917
0.995065 -0.0681932 0.637455
0.997357 -0.133154 0.565471
1.00635 0.0470518 0.632359
0.996341 -0.191902 0.596923
0.99891 0.217935 0.703892
1.00391 0.154008 0.686788
0.994842 0.16737 0.542158
0.992774 0.079989 0.844004
1.0134 -0.22004 0.815865
0.995305 0.107587 0.698343
0.98293 0.248158 0.639499
0.997059 0.26014 0.830968
0.997131 0.219219 1.08804
0.994977 0.258293 0.988869
1.00245 -0.0770089 1.07599
0.995589 -0.11345 0.52606
0.996867 -0.0480127 1.0669
1.0101 -0.0933634 0.690886
0.999741 0.0660163 0.633891
1.012 0.201959 0.65743
0.97321 -0.228031 0.777031
0.998418 0.090194 0.666761
1.0012 -0.185253 0.687308
0.995456 0.161344 0.496331
1.00103 0.178799 0.811686
1.01692 -0.286157 0.962547
0.990951 0.181937 0.672622
1.01176 0.213741 0.531135
0.985798 -0.00723732 0.99132
0.99377 -0.204708 0.939566
1.00212 -0.0159739 0.554386
0.989417 -0.00118881 0.722022
1.00512 -0.038083 0.564738
0.993762 -0.255574 0.517867
0.991033 -0.132479 0.744011
1.00386 0.261518 0.662061
0.983919 -0.0525121 0.669945
0.995742 0.122853 0.72803
0.999044 -0.178143 0.73259
1.00355 0.12188 0.755914
0.997638 -0.0159227 0.868376
0.999678 0.196805 1.06496
1.00353 -0.0248552 0.679009
1.00232 0.140019 0.624838
0.999635 -0.244212 0.564025
1.0026 0.245963 0.746779
1.00426 -0.162971 0.863977
0.983962 -0.157628 0.562334
1.01138 -0.222679 0.502448
1.00508 0.0505994 0.947403
0.988182 0.15743 0.821867
0.99072 -0.152537 0.623828
1.01418 -0.1671 0.639682
1.00019 -0.002698 1.03125
1.00826 -0.00894504 0.823805
0.991404 0.160121 1.06565
0.984596 0.14143 0.527724
0.992495 0.298357 0.674348
1.00286 -0.125532 0.676162
0.992552 0.255702 0.927679
0.996674 -0.106942 1.01199
0.990051 -0.238874 0.655822
0.987522 -0.151756 0.743871
0.992252 0.103726 0.860148
1.01753 0.278577 0.818299
1.00038 -0.218278 0.983811
1.00741 -0.0476563 0.923198
0.986833 -0.204869 0.713862
0.997006 -0.165833 0.771975
0.993572 0.220564 0.501425
1.00248 0.0320479 0.880797
1.02479 -0.154167 0.651687
0.999019 -0.0136191 0.942282
0.999039 0.164392 1.03686
0.992764 0.291493 0.93508
0.994892 0.163901 0.847785
1.01945 -0.208106 0.691786
1.00623 0.263088 0.689664
0.996884 0.11531 0.913258
1.00072 -0.181594 0.536725
1.01401 -0.226909 0.650795
1.00797 0.0155948 0.581408
0.99959 0.266617 0.532567
0.983637 -0.0122628 0.809471
0.994207 -0.178092 0.843267
1.00251 -0.0634167 1.09043
0.991419 -0.172531 0.721869
1.00194 -0.308846 0.783047
0.985655 -0.0403459 0.78392
1.00667 0.214986 0.968612
0.989784 -0.255517 0.963567
1.00977 0.160583 0.68544
0.987699 0.248509 1.09642
0.997213 0.309231 0.946465
0.973689 -0.0754023 0.677538
1.01279 0.0194235 0.9046
1.01157 0.030755 0.650993
0.97799 0.206423 0.542817
1.01691 -0.219569 0.575502
1.01346 0.277783 1.00933
1.00828 0.173886 1.09818
0.999323 0.207376 0.510624
0.984202 0.256077 0.907648
0.996657 -0.282252 1.0071
1.00571 0.0833423 1.08363
0.994325 0.214071 0.755026
1.00616 -0.267762 0.856346
0.973576 0.121841 1.04855
1.00106 0.208844 0.995817
0.999884 0.218233 0.783362
1.00622 0.197798 0.831536
1.00622 0.015449 0.776453
0.999244 0.0209999 1.06108
0.983923 -0.0657102 0.756581
0.999504 -0.0343544 0.968412
1.01186 -0.0558028 1.05054
0.983553 -0.137425 1.03068
1.00527 -0.0697442 0.570332
1.00576 -0.0567413 0.792685
0.993525 -0.252333 0.673377
1.01004 0.309919 1.07237
0.998267 0.0253166 0.583522
0.984257 0.193794 0.726219
0.99862 -0.181138 1.06699
0.983336 -0.0312155 0.887671
1.00388 0.197965 0.543803
1.01268 -0.162032 0.619489
1.01604 -0.213702 0.893214
0.989394 -0.107685 0.510138
1.00707 -0.0626355 0.872544
1.00916 0.036408 0.999011
1.0059 0.249522 0.824174
1.00777 -0.114943 0.523417
1.0241 0.188551 1.0673
1.01205 -0.217654 1.00376
0.9785 -0.186676 0.753322
1.00979 -0.0405262 0.752732
0.974254 0.250057 0.709103
0.992114 -0.0980847 0.871
0.98227 0.0222486 0.818486
1.01079 0.180903 0.855247
1.0227 0.255683 0.800136
0.988812 0.140755 0.586249
0.992293 -0.0583695 0.598462
1.01199 0.0976743 0.71145
1.00529 0.253392 1.05703
1.00672 0.181583 0.94275
1.00313 0.240303 0.515302
0.988871 -0.16388 0.727486
0.983263 0.22775 0.616318
1.01368 0.197039 0.533515
1.00519 -0.140466 0.857917
1.01257 0.213631 0.911942
1.00246 0.303041 0.899676
0.993182 0.0261713 0.782649
1.00248 -0.0573163 1.09626
1.00095 0.280119 1.03386
0.998237 -0.0243088 0.738162
1.00885 0.178788 0.76891
1.00106 -0.0909088 0.610973
1.01076 0.00243801 0.605316
1.01061 -0.070698 0.587161
0.99697 0.287167 0.519081
1.01203 0.243337 0.551044
1.00533 -0.108979 0.668623
0.999543 0.276708 0.900398
1.01928 0.234738 0.542052
0.992943 0.144627 0.914693
0.99298 -0.255763 0.82386
1.01043 0.128807 0.753019
1.01076 0.0132157 0.597466
0.984947 0.0382719 0.664732
1.01137 -0.234664 0.774194
1.0013 -0.267212 0.642636
1.01037 0.0286185 0.662092
1.00525 0.121295 0.527787
0.996869 0.264965 0.515049
1.00997 0.0464895 0.826735
1.00641 -0.245043 0.633963
0.991963 0.0207638 1.03613
1.00808 -0.110555 0.784048
1.01456 -0.0456756 0.604435
0.970622 -0.226958 0.50618
1.00102 0.125314 0.561117
0.998028 0.121477 0.748911
1.00084 0.230509 1.05878
0.990526 0.255781 0.519655
1.00592 0.166952 0.608628
1.01313 -0.169245 0.514511
1.00653 0.151717 0.720323
1.01316 0.199278 0.990888
1.01741 0.226157 0.685321
0.998673 0.022441 0.966797
0.998709 0.177869 0.573794
1.00935 0.184371 0.880113
0.983858 0.0632528 0.970282
1.00438 0.259922 1.00333
1.01481 0.221868 0.800356
0.996245 0.0934576 1.07164
0.984425 0.0519487 0.842195
0.999949 -0.0279122 0.931967
0.998537 -0.266129 0.986455
0.996997 0.122542 0.615105
1.00133 -0.132184 0.68107
1.0194 0.221444 0.882293
1.01699 -0.0624319 0.969478
1.00329 -0.282154 0.778823
1.01902 -0.0184844 0.856459
1.00021 -0.25953 0.930221
1.02046 -0.12903 0.82094
1.01332 0.0884067 0.744904
0.994196 -0.112207 0.873868
1.01418 -0.0495654 0.771338
1.00123 0.123426 1.06102
1.01197 -0.0717618 1.04033
0.990501 0.295802 0.945692
1.00227 -0.0744117 0.873968
0.999601 0.148221 0.890473
0.996709 0.0454383 0.725525
1.01605 -0.0644372 0.762025
1.00134 -0.250216 0.678569
0.994547 -0.107869 0.788794
0.996925 -0.230801 0.901272
0.997403 0.0828912 0.844072
0.99599 0.0432329 0.892797
0.997174 -0.068324 0.973026
0.983778 -0.229851 0.644148
1.00894 0.0560827 0.528186
1.00158 -0.175138 1.00235
1.01014 -0.267568 0.918546
1.00726 -0.27737 0.564122
0.995317 -0.250794 0.840778
1.00411 -0.143974 1.02061
1.00318 -0.0101717 0.605846
1.00164 0.232573 0.98728
1.00578 0.180328 0.572683
0.986458 -0.0901847 0.652688
1.00279 -0.0794161 0.716119
1.0099 -0.0690807 0.554018
1.00307 0.0817524 0.691593
0.999319 0.211326 0.647727
0.994981 0.283659 0.909973
1.00557 -0.130579 0.795732
0.99768 -0.0816202 0.907444
1.00848 0.0531991 0.812877
1.0047 -0.118096 1.08338
0.991337 0.241905 0.735631
1.00656 -0.103305 0.574281
1.00122 0.136262 0.706729
1.00081 0.134946 0.56699
1.00106 0.191904 0.864805
0.986447 -0.276384 0.649431
0.973307 0.209902 0.806195
0.991975 -0.262221 0.598809
0.990612 -0.189854 0.9531
0.993861 -0.152596 0.770745
1.00516 0.259619 1.06559
0.990048 -0.288008 0.569373
1.00356 0.145871 0.641778
0.98925 -0.196826 0.780921
1.00374 -0.126489 0.536227
1.00053 -0.0797635 0.695192
0.991475 -0.139819 0.821248
0.997089 -0.24596 0.659648
1.00904 0.229271 0.965953
1.01088 0.183182 0.953694
1.0116 0.291698 0.600133
0.991929 0.156942 0.826817
1.00095 -0.131673 0.987809
0.993976 0.21573 0.692152
0.998575 -0.0139133 0.606897
1.00048 0.221398 0.709058
1.00002 -0.0143178 0.949756
1.00882 -0.220002 0.588669
1.00383 0.0491087 0.736927
1.00167 0.0945159 0.658422
0.999438 -0.119368 1.01901
1.00207 -0.280245 0.770995
0.993167 -0.232423 0.632098
0.988058 0.183318 0.738989
1.00388 -0.139644 0.579738
0.988482 -0.187982 0.812789
0.990277 -0.204825 0.765204
0.99057 0.143736 0.631799
0.991761 0.198016 1.07985
0.995362 0.188188 0.498021
1.00833 0.0741827 0.66339
0.981591 0.190448 0.617579
1.01899 -0.111323 0.935306
0.988985 0.279232 1.06165
0.99739 -0.205546 1.02254
0.999183 -0.0200656 1.03421
1.01137 -0.195277 0.954008
1.00248 0.0780205 0.909149
1.01245 -0.00657088 0.670924
0.989156 0.292484 0.813185
0.997515 -0.185437 1.0504
1.00265 -0.157021 0.623034
1.00011 0.220499 0.544548
1.00486 0.2073 1.0009
0.985299 -0.0977562 0.835797
1.00875 0.056086 0.527525
0.998422 -0.244036 0.863903
1.00137 -0.0451461 1.09347
0.992951 -0.217205 0.54942
1.00638 0.28083 0.934587
1.0023 0.0625744 0.771869
0.994894 -0.193253 1.09448
1.0068 0.0243067 0.557491
1.00355 0.0870138 0.989739
1.01853 -0.193353 0.835493
0.99808 0.0373918 1.02408
1.00271 0.0302971 0.870002
1.00005 0.226854 0.635148
0.988601 -0.000649139 0.935606
1.01195 -0.109229 1.01792
0.99804 0.0143176 0.739068
0.997711 -0.262014 1.09878
0.999873 0.273318 0.971383
0.995609 0.0531943 0.793508
1.00311 -0.242975 0.936495
0.989833 -0.226333 1.08313
1.00248 0.0858443 0.764262
1.00665 0.0670561 0.784152
0.996194 -0.102815 0.950493
1.00728 -0.0998108 1.00596
0.993261 -0.0926274 0.683662
0.999227 0.0410697 0.993131
0.9839 0.2624 1.08903
0.990471 0.137125 1.0794
0.997031 -0.292806 0.719508
1.00224 -0.0128045 0.534726
0.982865 0.15492 0.748663
1.0156 -0.0602266 0.896386
1.00896 0.0944995 0.922109
1.01348 0.0583724 0.781144
0.987857 -0.0562676 0.640093
1.01134 0.0586812 1.03854
0.997935 -0.299469 0.913736
0.993265 -0.160229 0.73066
0.994819 0.0719486 0.728474
0.992187 -0.107916 0.955296
1.0035 -0.131252 0.572456
1.00058 -0.177364 1.0301
0.998236 0.0965643 0.879254
0.989694 0.130439 0.837166
0.99275 0.0290047 0.967768
1.00604 -0.193388 0.959878
1.01073 0.303726 0.654859
1.01701 -0.161189 0.790494
0.990386 -0.299809 0.936646
1.0079 -0.236158 0.901426
1.0017 -0.110605 0.75298
0.988314 0.0172841 0.997171
1.01482 0.154382 0.886437
0.990227 0.0567374 0.52246
0.997332 0.207581 0.9336
1.01288 0.296071 0.641256
0.994747 -0.13919 0.98153
1.00447 0.0784762 0.707917
1.01468 0.093013 0.645235
1.00115 0.0965641 1.01123
0.973178 0.0221959 0.59485
0.990503 -0.0751162 0.583339
1.00177 0.18686 0.859061
0.999749 -0.290043 0.638502
0.998509 -0.270729 0.623694
0.982895 0.243102 0.549178
1.01732 -0.194448 1.06922
1.00218 -0.207959 0.845387
1.00281 -0.00784742 0.570805
1.0167 -0.105423 1.08656
0.991177 0.035643 0.577217
0.99763 -0.302333 0.873324
0.990582 -0.26973 0.820548
0.986524 0.211627 0.710392
0.998817 0.115812 0.863769
0.99251 -0.205511 1.04178
0.996972 -0.221899 0.951937
0.997987 0.187096 0.518844
0.988964 0.0494686 0.752475
0.988543 0.162748 0.900801
0.99831 -0.209578 0.788997
1.01142 -0.0686489 0.728741
0.98171 -0.1922 0.854516
1.00011 0.245954 0.824103
1.02319 -0.024016 0.717295
1.00862 -0.212282 0.935219
1.0136 0.158113 0.740544
1.00181 0.0400044 0.639167
0.996067 -0.130269 0.545698
0.992892 -0.0291029 1.04296
0.998808 -0.0584607 0.798557
0.993521 0.249351 0.840808
0.98447 0.148428 0.778006
0.985782 0.0841392 0.841012
0.998268 -0.28239 1.08646
1.00591 0.0646751 0.937517
1.00173 0.155573 0.579567
1.00082 0.0915312 0.656789
0.998013 -0.278986 0.526259
1.0029 -0.220177 1.01292
1.00286 -0.110219 0.914359
1.00275 0.0774845 0.768292
1.00081 -0.122884 0.811098
1.00415 0.29769 0.651916
1.01161 0.0985511 0.658059
0.993067 -0.269655 0.526091
1.00554 -0.246845 0.820647
1.01949 0.180407 1.08639
0.996465 0.118858 0.549791
0.998949 -0.0211321 0.643878
0.984211 0.170656 0.642511
1.0051 -0.112772 0.866619
0.998103 0.249064 0.945897
0.992728 0.308059 0.801714
1.0038 -0.143283 1.09439
0.992185 -0.20645 0.587541
0.980842 -0.24398 0.841822
1.00637 0.254852 0.682463
0.981006 0.148247 0.591247
1.01413 -0.100154 0.876445
1.00887 -0.149548 0.896506
0.989491 0.104834 0.97227
1.01105 -0.281302 1.00611
1.01009 0.0294277 0.576374
1.00299 0.0105507 0.968691
1.0093 -0.0506959 0.817463
0.984874 -0.052412 0.886525
1.00304 0.224402 0.617511
1.00813 0.1201 0.672444
0.993398 0.116498 0.702125
1.00998 -0.125774 0.805623
0.998287 -0.305119 0.767526
1.00037 -0.0561957 0.503808
1.01438 0.161505 0.835091
0.991549 0.174134 0.626919
0.997576 -0.120292 0.551702
1.01512 0.0118493 0.666474
0.990096 -0.0448099 0.970162
0.981774 0.0723271 0.683444
0.992635 0.0619958 0.829576
0.98634 0.107409 0.938257
0.997984 -0.20122 0.611686
1.00276 0.197009 0.986816
1.00829 0.181132 0.722085
1.00239 0.223137 0.789484
1.0035 0.134458 0.864421
1.00182 -0.196103 0.517122
0.997725 0.0768915 0.5421
1.00685 -0.243419 0.786352
0.991467 0.081582 0.591393
0.975532 0.0444273 0.524085
1.00107 -0.0148028 0.886599
0.99037 0.0532012 1.05141
1.00874 0.186781 0.64836
0.977043 0.0975349 0.628783
1.01367 0.294181 0.648304
0.986355 0.289406 0.700168
1.01192 -0.20735 0.985459
0.993076 -0.0862576 0.537122
1.00452 -0.285572 0.727444
1.00505 -0.213206 0.897072
0.988312 -0.255579 0.9389
1.00707 0.211424 1.02744
1.00159 0.208872 0.789489
0.997334 -0.00744385 1.01643
0.992972 -0.123888 0.582209
0.994786 0.226366 0.789357
1.00549 -0.290409 1.02616
1.00301 0.174038 0.89174
1.00281 -0.227878 0.978148
1.00337 0.275329 0.748054
1.01091 -0.281336 0.503295
1.01551 0.30882 0.76181
0.992511 -0.276247 0.911911
0.986517 -0.299682 0.557177
0.99454 -0.0957861 0.603103
1.00263 -0.119537 0.860784
1.00337 -0.182592 0.630113
0.995079 -0.182333 0.786319
1.0188 -0.0182904 0.625964
1.00871 -0.301117 0.73238
0.998666 0.248649 1.02935
1.00162 -0.0995355 0.933311
1.01058 0.179117 0.550886
0.995581 0.236236 0.642632
1.00351 -0.094596 0.983301
0.983934 -0.107916 0.744279
0.996145 0.145493 0.871663
0.99914 -0.112397 0.988612
1.01118 -0.175623 0.55134
0.999321 0.155735 0.783294
1.00682 -0.0116397 0.90256
1.0107 -0.242353 0.624231
0.993235 -0.190964 0.798093
1.0052 0.129962 0.551604
1.00547 -0.0747602 1.0472
1.00427 0.0085921 0.691553
1.02226 0.140744 1.07076
0.990573 -0.306509 0.804515
1.00888 -0.136155 1.07482
0.999873 -0.192904 0.575132
1.00452 -0.296535 0.581245
1.01324 0.0949722 0.528979
1.00169 -0.144974 0.641407
1.00846 -0.218692 0.584616
0.987414 -0.14961 0.932323
0.993561 -0.269795 0.858848
1.0149 0.0352307 1.02055
0.988874 0.132021 1.01379
0.995447 0.106439 0.865531
0.99623 -0.0423974 0.861561
1.00162 0.207566 0.615299
1.00854 -0.213952 0.900966
0.99788 -0.0638831 0.55632
1.00124 0.0422935 1.07088
0.992897 -0.284643 1.07501
1.00717 0.0534541 0.773882
0.984203 0.0460025 0.881642
0.992109 -0.0270827 0.755536
1.00926 -0.0955151 0.812507
1.01032 -0.214821 0.634195
1.02374 -0.0409524 0.932522
0.97618 0.00151052 0.946342
0.979336 -0.0105457 0.547631
0.984433 0.0232998 0.803125
0.998851 0.216195 0.700199
0.989596 0.115004 1.04127
0.992631 0.0799603 0.570658
0.994015 0.10799 0.823911
0.996307 0.29381 0.703669
0.979734 0.182014 1.01123
0.991819 -0.0580237 0.83328
1.00426 0.0565744 0.523186
0.993328 0.282766 0.681517
0.979481 0.00950872 0.646788
0.981742 0.29758 0.773141
0.998435 -0.267228 0.677476
0.987869 -0.217925 0.800854
1.01409 0.103041 0.551035
0.986741 -0.083103 0.600774
1.02077 0.166117 0.635584
0.98513 0.0685487 0.846717
0.997748 0.0897407 0.802091
0.989848 0.23948 1.05766
1.00743 -0.118914 0.82978
0.993518 -0.277508 0.938153
0.999439 0.142181 0.751138
1.0081 -0.118557 1.02492
1.00768 -0.257732 0.904818
1.00449 -0.103097 0.999424
0.995063 -0.0779836 0.555247
1.00641 0.292761 0.575632
0.996266 -0.155003 0.715776
1.00019 -0.123094 0.756743
0.998751 0.028876 1.00648
0.979372 0.187963 0.578253
0.997989 0.218332 0.504639
0.995278 -0.202651 0.962293
0.993272 -0.144479 0.517134
0.991698 -0.20859 0.802052
0.989225 -0.109006 1.0365
1.0047 0.054937 0.579991
1.0119 -0.0347604 0.707147
1.00705 -0.195631 1.08416
1.0054 -0.207133 0.70306
1.0002 -0.1973 0.989616
1.00452 0.0536732 0.937007
1.00175 0.0445405 0.64848
1.02413 -0.0849653 0.644328
0.996043 -0.0912257 1.01586
1.01224 0.117595 0.750708
0.992238 0.102103 0.770988
0.985187 -0.0318899 0.779639
0.994301 0.152647 0.817177
0.982074 -0.136562 0.785308
0.999513 0.112426 0.833766
0.997886 0.0945985 0.680932
0.998025 0.268518 0.780119
0.996098 0.235515 0.984747
1.0054 0.292843 0.968508
0.997553 0.267493 1.03052
0.984648 0.163689 0.97185
0.991085 0.280653 1.05689
0.992117 0.13325 0.884591
0.999895 -0.10008 0.947702
0.999948 0.109915 0.609316
1.00293 -0.201398 0.63186
0.987639 -0.0280171 0.914545
0.99723 -0.218698 0.572226
0.997044 0.213151 0.59422
1.00241 -0.228536 0.678005
0.997311 0.0802851 1.01131
0.986239 -0.184372 1.00205
0.999618 0.136917 0.918488
1.00937 -0.113978 0.810581
1.00749 -0.246148 0.889609
1.00341 -0.244555 0.703448
1.0002 0.0924057 0.519374
0.994803 -0.0663238 0.708682
0.985847 0.0380917 0.929714
1.00957 -0.20781 1.01941
1.00388 0.0835833 0.710959
0.983214 0.202827 0.711065
0.975962 0.198028 0.530887
0.988526 0.131781 0.664708
0.991797 -0.12908 1.04203
0.986221 0.112172 0.721628
1.00623 -0.262695 1.08611
1.0056 0.244241 0.954257
1.00476 0.0790916 0.881063
0.987423 -0.29545 0.555966
0.995341 -0.0171123 0.991309
1.00868 0.156786 0.708556
0.989958 -0.15996 1.0729
0.997211 0.0287852 0.6469
1.00548 0.0862612 0.851134
1.00428 -0.183797 0.893356
1.00624 0.0574467 0.646321
1.00426 -0.119609 1.06615
1.0011 0.0118672 0.959827
1.01586 0.0643179 0.571045
1.01661 0.195189 0.909444
1.00198 -0.171782 0.992064
0.98502 -0.225465 0.643234
1.00463 0.252008 1.05046
1.01305 -0.222188 0.827975
0.993151 -0.0517361 0.517884
0.998649 -0.124216 0.699447
0.997169 -0.248294 0.708338
0.996142 -0.276708 0.699468
0.996966 0.139294 0.590178
1.00133 0.206835 0.758157
0.99582 0.0189057 0.803036
1.0207 -0.170132 0.703255
0.988718 0.320032 1.03636
0.984445 -0.00167931 0.887234
1.00387 0.0392663 0.630841
1.0133 -0.0151574 0.505651
1.00533 -0.246248 1.08128
1.00111 -0.152556 0.597337
0.985994 -0.0476692 0.890585
1.0077 -0.121605 0.55169
0.996489 -0.249197 1.09079
0.99106 0.304812 1.07162
0.974338 -0.257235 0.679646
0.995272 0.0759202 0.904999
1.01697 -0.214786 0.89016
0.999233 -0.0453106 0.549009
0.985521 0.0324371 0.733212
0.999158 -0.153068 0.870637
0.998694 -0.0588449 0.835143
1.00775 -0.1325 0.67299
0.995919 -0.0947161 0.681942
0.99265 0.244178 0.748752
1.00204 -0.169636 1.00812
0.993212 -0.111988 0.684569
0.99809 0.128237 0.71209
0.985632 -0.246354 0.567435
0.994821 -0.191086 0.595631
0.998 0.128315 1.04092
1.00913 -0.283044 0.621127
0.99404 -0.0687594 1.05624
1.00278 -0.254076 0.700171
1.00582 0.266663 0.917284
1.00637 0.0115508 0.757254
0.999269 -0.198627 0.97224
0.991731 -0.289798 0.918595
0.994826 -0.051974 0.539217
0.999956 0.0542793 0.794414
0.995493 0.177922 1.1015
0.989677 0.234168 0.635823
1.00796 0.0339589 0.56313
1.01668 0.0586848 0.80103
0.998297 0.0709698 0.518413
0.986386 -0.0969917 0.923534
0.995629 -0.249791 1.01248
0.998803 -0.158485 0.776698
1.00376 0.0655091 0.619963
1.00172 -0.0212354 0.983838
1.01043 0.0217998 0.819879
1.0147 -0.0414459 1.04213
1.01086 -0.187581 0.861305
0.985517 -0.297609 1.00437
1.00641 0.0905048 0.735335
1.00551 0.22365 0.747895
0.989142 -0.0352453 0.804179
1.01269 -0.206257 0.902993
0.996907 0.283193 0.661699
1.00461 -0.101975 0.724591
1.00917 0.234998 1.10329
0.991745 0.239455 1.01808
0.999769 -0.114382 0.853243
0.997667 -0.212713 0.996089
0.991183 -0.0677795 0.756323
1.00277 -0.0559762 0.977606
1.0048 0.158678 0.926621
0.995048 0.217623 0.761649
1.00527 0.129926 0.673477
0.98393 0.195009 0.753772
1.0071 0.0411643 0.744043
1.01985 0.0404488 0.847993
1.00736 0.0836342 1.01139
1.00403 -0.206397 0.651349
0.990904 0.141911 0.56784
0.999931 -0.306347 1.07555
1.00236 -0.186234 0.683822
0.997583 -0.0204197 1.02214
1.01819 -0.238427 0.998624
1.01754 0.2253 0.707344
1.01085 0.0506182 1.04596
1.01033 -0.125681 1.05979
1.00685 0.0800581 0.545498
0.994553 -0.0773795 0.688458
0.998352 -0.173277 0.87587
1.01222 -0.233423 1.04831
1.00608 -0.0851359 0.763943
0.99315 -0.0658442 0.807364
0.997098 -0.245655 0.880712
0.989765 0.14232 0.626413
1.00327 -0.0542251 0.645415
0.994605 -0.0873895 0.555348
1.01307 0.139621 0.605271
1.00277 0.18172 0.654268
0.991139 0.0527594 0.798824
0.994598 -0.0892014 0.823318
0.994907 -0.0975354 0.837438
0.977401 0.266314 0.608573
1.00558 -0.239655 0.631289
0.998764 -0.259107 0.794961
1.00009 0.0108267 0.884641
0.99671 -0.221389 1.00855
1.00603 0.136259 1.04098
0.994374 -0.163139 1.01903
1.00582 0.190946 1.00003
0.995447 0.239436 0.862751
0.992572 0.181033 1.00995
1.00781 0.0251432 0.966829
1.01195 -0.270555 1.02871
1.00259 0.192534 0.9432
0.997315 -0.188938 0.821312
0.998528 0.0645058 0.67943
1.01456 -0.138745 0.868522
1.00697 0.118418 1.05331
1.00492 -0.0364437 0.589069
1.00424 -0.0543748 0.839134
1.00425 -0.269265 0.801976
1.0076 0.252733 0.784416
1.02383 0.0647687 1.0103
1.0121 -0.00833373 0.660877
0.99165 -0.0657073 0.775462
0.990489 -0.0158342 0.904323
1.00013 0.152959 0.58768
0.985615 0.309715 0.619143
1.01409 -0.100048 0.745438
0.997398 -0.0883343 0.574747
0.995984 0.111534 0.715914
1.00088 -0.123605 0.676516
1.00471 0.209886 0.643877
0.999909 0.103706 0.742138
1.00001 0.00284486 0.77436
1.01655 -0.272662 0.575594
1.00531 -0.159737 0.819548
0.996733 0.0646162 0.571041
1.01423 0.00872795 0.931918
1.00467 -0.231231 0.527605
1.01175 -0.224392 0.535753
0.9938 -0.224141 0.661053
0.993141 -0.186155 1.00078
0.999429 -0.0185583 0.585847
0.993853 -0.000276954 0.710626
0.997855 -0.251747 0.881918
0.998221 0.108973 0.58049
0.996876 -0.285132 0.832481
1.00075 -0.144953 0.961566
0.988858 0.0101166 0.627074
0.99479 0.281216 0.938431
1.00514 0.226905 1.05494
0.990911 0.124703 0.770219
0.99087 -0.0810708 1.02996
1.01148 -0.306182 0.559622
0.997697 0.0515806 0.708385
1.01223 -0.292906 0.717098
0.995869 -0.270466 0.707206
1.01277 -0.0727272 0.728485
1.00892 -0.218146 0.818319
1.01171 0.0831234 0.878439
1.00501 0.242252 0.636881
1.00123 0.105991 0.624062
0.999941 0.0969386 0.777116
1.01533 -0.00785978 0.762666
0.990202 0.0295437 0.566554
1.00692 -0.243201 0.54513
1.00129 0.0892127 0.656803
0.984216 -0.0680763 1.03866
1.00213 -0.142239 0.738016
1.00037 0.0862149 1.00956
0.99681 0.171576 1.02959
0.995655 0.240796 0.53087
0.996351 -0.226478 0.819321
0.998022 -0.215814 1.04969
0.993721 -0.138555 1.05268
1.02632 0.215185 0.714525
0.995329 0.0666596 0.828879
1.00599 -0.138428 1.03644
0.998842 0.0205594 1.03059
1.00318 -0.113432 0.93311
0.990007 0.169169 0.623115
1.01273 0.122627 0.868954
1.00529 0.107457 0.855151
0.990849 -0.0966469 1.03075
1.01438 -0.17921 0.725026
1.01723 -0.13501 0.59937
0.998542 0.153223 0.880251
1.00565 -0.264935 0.930533
1.00551 -0.278294 0.779748
0.98513 -0.238575 0.596527
0.992422 -0.213318 0.746273
0.997615 0.0210997 0.73218
1.00266 0.0592675 1.0493
0.985172 0.182495 0.894155
0.996282 -0.206399 0.845454
0.983072 -0.0558514 0.875418
1.00869 0.0160795 0.566894
1.00423 -0.153776 0.76623
1.00819 0.180713 0.605023
0.996196 -0.0675419 1.06536
1.00681 -0.0733658 0.902324
0.985676 -0.182985 1.00732
0.978673 0.237327 0.865122
1.00605 -0.11149 0.72356
0.983176 0.142298 0.966427
1.0154 -0.203096 0.514906
0.992591 -0.0354776 0.91023
0.992811 0.237537 0.827179
1.00013 0.135507 1.05432
0.98898 0.266399 0.790952
0.998106 -0.189372 0.845996
0.995581 -0.242054 0.707515
0.999214 0.212112 0.570954
1.0063 0.141194 0.584865
0.986084 0.210848 0.66239
0.999783 -0.0025101 0.689765
0.994339 -0.042327 0.528072
0.993279 0.246266 0.816476
0.99442 0.189297 0.509118
