ply
format ascii 1.0
comment Created by Open3D
element vertex 1784
property double x
property double y
property double z
end_header
1.00236 -0.170352 0.718534
0.999466 -0.0891113 0.592263
0.998986 0.0866605 0.765574
1.00139 -0.0921678 1.06876
1.00052 -0.210949 0.897598
1.0028 0.254985 1.09726
0.99826 -0.279322 0.528377
1.00371 0.167525 1.0057
0.993965 0.0914134 0.576899
1.00302 -0.0407741 0.99777
0.994027 -0.235152 1.09745
1.00655 -0.260483 0.539584
1.00329 -0.132851 0.625118
1.00247 -0.222736 0.868227
0.998435 0.0714844 0.633668
0.997914 0.227341 0.61192
1.00452 0.191869 0.579927
0.997193 -0.154951 0.512097
1.00256 0.0614697 0.678753
1.00088 0.0997563 0.894184
1.00371 -0.147568 1.03783
0.996059 -0.0410824 0.55385
1.00513 -0.159133 0.659916
0.998533 -0.0239829 0.903207
0.99402 -0.129366 0.879409
0.998661 0.00868524 0.719286
0.998638 0.240761 0.569545
0.995949 0.241461 0.749566
0.995314 0.114395 0.903602
1.00346 0.146904 0.504689
1.00083 0.0368084 0.538977
1.00536 -0.132476 0.734242
1.00074 0.00653103 0.963354
0.997641 -0.106235 1.0146
0.994567 0.104591 1.06016
1.00537 -0.271459 0.819683
0.997564 0.0979791 1.02656
0.999228 -0.219335 0.552517
1.00003 -0.00850425 0.993937
1.00604 -0.132697 0.834173
1.00173 -0.0405143 1.06777
1.00348 0.236488 1.00884
0.997081 0.0882989 0.504402
1.0014 -0.091267 0.769723
1.00334 -0.230297 0.820523
0.999717 0.00336081 1.0092
1.00032 -0.0369471 1.00516
1.00066 0.0700829 0.941088
1.00319 0.0302502 0.750376
1.00009 -0.0443342 0.557515
1.00067 -0.0522743 0.947955
0.99656 -0.164596 0.777494
1.00368 -0.276202 1.05853
0.99721 -0.26011 0.977672
0.9984 0.291966 0.55497
0.997213 -0.209162 0.629869
0.997869 -0.120094 0.740308
0.996639 0.114154 1.05095
1.00223 -0.0894109 0.916793
1.00315 0.16033 0.631537
0.999665 -0.200715 0.779372
1.00007 -0.216908 0.922653
0.997253 0.158258 0.671037
1.00359 0.117172 0.723693
1.00181 0.243048 0.688749
1.00044 -0.0577871 0.927378
1.00019 -0.295946 0.686549
1.00018 -0.241028 0.584284
0.999327 0.170746 0.720624
1.00338 -0.271681 0.73348
1.00198 0.220521 0.914537
1.00283 -0.185963 0.974353
1.00002 -0.100241 0.521449
1.00017 0.209566 0.546113
1.00211 -0.0348682 0.509536
1.00144 0.166522 0.801982
0.99854 -0.285418 0.616215
1.00029 -0.0995275 0.566619
0.999391 0.210742 0.696737
1.00251 0.0794258 0.97218
0.997868 0.21005 1.09482
1.00187 0.171623 0.653505
1.00413 -0.145021 0.562354
0.997084 -0.294622 0.914096
0.996424 0.142281 0.681777
0.997122 0.134641 0.619438
1.00116 0.236251 0.861164
1.00032 -0.16112 1.10058
0.998478 -0.160712 1.08345
1.00299 -0.0379853 0.972391
1.00213 0.140923 0.731018
0.997455 0.224043 0.798911
1.00176 -0.218912 0.76033
0.996489 0.277465 0.894893
0.999287 0.00843948 1.0288
1.00108 -0.142836 1.00234
0.998636 -0.0471063 0.70385
0.996805 0.289295 0.526908
0.998558 -0.186682 0.792334
1.00059 -0.260779 0.683961
0.999919 -0.059687 0.995348
1.00128 -0.166867 0.569862
1.00391 -0.0134976 0.841947
1.00171 0.0719548 0.552154
1.00014 0.28824 0.87732
1.00454 -0.0127681 0.938952
1.00472 -0.0512439 0.847791
0.998674 -0.234725 0.769602
1.0005 -0.0479112 0.910019
0.999066 -0.0376934 0.818799
0.995301 0.287541 0.924021
0.998498 -0.00548861 0.538679
1.00422 0.215127 0.813922
1.00294 -0.101077 0.85826
1.00267 -0.204852 0.651372
0.998912 0.0496194 0.690384
1.00162 -0.260002 0.672036
0.99858 -0.253698 1.01392
0.99787 -0.275462 0.697832
0.998859 -0.294813 0.988858
1.00066 0.249852 0.939395
1.0042 -0.212176 0.918421
1.00021 -0.228525 0.98567
0.996818 0.228573 0.794925
1.00201 0.189043 0.736454
0.997832 0.231727 0.796546
0.999747 -0.236438 0.644588
0.997544 0.0942571 0.590881
0.997198 0.0747742 0.848864
0.999337 -0.0471006 0.916547
1.00253 0.104708 0.709826
0.999796 -0.0423059 0.622404
0.994915 0.121649 1.05412
1.00023 0.198296 1.07826
0.995911 -0.162412 0.887066
1.00095 0.0622355 0.656211
0.997424 -0.105139 0.883465
0.998815 -0.0467675 0.563032
1.00573 0.296411 0.555179
1.00363 0.280261 1.02383
0.999167 0.0571271 0.845439
0.992992 -0.280347 0.930311
1.00292 0.303517 0.63293
0.995821 0.167216 0.868919
0.994808 -0.129747 0.69033
0.996643 -0.0760276 0.788705
0.994751 0.0686932 0.539034
1.00039 -0.127217 1.06523
0.995188 0.236454 0.747129
0.997951 -0.294996 0.57706
0.997081 0.234425 0.739652
1.00118 -0.216516 1.00549
1.0008 0.139846 0.746859
0.998463 0.0287158 1.09213
1.00183 -0.139666 0.9643
1.00022 0.0397819 1.07902
0.998047 -0.252918 0.768182
0.99888 -0.271522 1.05707
1.00065 -0.286182 0.570606
0.992382 0.252991 1.0094
1.00331 0.096708 0.720363
0.999793 -0.104967 1.07048
1.00246 -0.156246 0.69047
0.999416 -0.178378 0.72374
1.00245 -0.192424 0.826909
0.998763 -0.115836 0.758637
0.999898 0.191265 1.0328
0.996895 -0.244952 0.82885
0.99945 -0.192646 0.563388
0.992054 0.167009 1.04237
0.998379 0.110201 1.04536
0.99925 -0.0268543 0.951363
0.99748 0.182859 1.07157
0.998879 0.0263929 0.821968
1.00111 -0.10279 0.775321
0.999369 -0.0941846 0.985691
0.997341 0.231874 0.913109
1.00509 0.0391037 0.866105
1.0029 -0.0540483 0.807398
1.00176 0.158523 0.496068
1.00043 0.247129 0.673917
1.00525 0.0993189 0.882014
1.0047 -0.0359252 0.77014
1.00185 0.06388 1.0637
0.998306 -0.182105 0.580186
0.997536 -0.00637415 0.727072
0.99956 0.2164 0.948852
1.004 -0.287893 0.888647
0.996456 0.148903 0.970249
0.989123 -0.261284 0.713269
0.997891 0.193724 0.693037
1.00189 0.181468 0.77472
0.995711 0.118227 0.609512
1.00369 0.0397968 0.626912
1.00011 -0.282581 1.0583
1.00254 0.217645 0.818142
1.00036 -0.0961554 0.973035
0.996197 -0.103598 0.993929
0.998654 0.0460911 0.765523
1.00133 -0.105016 0.673396
0.997609 0.142306 0.929524
1.00495 0.0539342 1.06962
1.0003 0.0118851 0.703659
1.00355 0.224989 1.05206
0.996543 -0.210782 0.539035
0.999879 -0.118081 1.03682
1.00107 0.263644 0.842896
1.00117 -0.246242 0.869855
1.00287 -0.0647245 0.892562
1.0049 0.137334 0.987182
0.998537 -0.0324919 0.518458
1.00158 0.229424 1.03164
0.998614 -0.223046 0.943136
1.00075 -0.184826 0.609672
1.00282 0.0172482 0.870646
0.996229 0.23554 0.967292
0.99624 -0.0824769 0.669528
1.00526 -0.0330054 0.997567
0.998682 -0.205482 1.00026
1.0011 0.224923 0.663707
1.00266 -0.189195 0.775856
0.999443 0.0677973 0.605326
1.00268 0.194953 0.559308
0.99942 -0.0582518 1.03745
1.00127 -0.135571 1.02617
1.0017 -0.16466 0.736108
0.999671 -0.223916 1.02189
0.995895 -0.0215332 1.08713
0.996786 -0.298522 0.588082
0.997097 0.11019 1.00009
1.00702 0.139243 1.07445
1.00257 0.17569 0.795601
1.00176 0.192458 0.515258
1.00352 0.285985 0.790355
1.00138 0.021144 1.05947
0.996622 -0.154887 0.677161
1.00488 0.0373611 0.526731
1.00231 -0.113565 0.715272
0.994074 -0.059644 0.775308
1.00133 -0.13446 0.541104
0.99783 -0.188058 0.577916
1.00334 -0.0670113 0.969089
0.99776 -0.275955 0.922745
0.999492 0.0213562 0.703602
0.997554 0.296711 0.856026
0.99955 -0.132936 0.916223
1.00522 -0.229431 0.762058
0.997321 -0.25917 0.92162
0.999324 0.0437983 1.05699
1.00071 -0.035903 1.03002
0.999986 -0.250481 0.844104
1.00142 0.207967 0.694985
0.999208 0.14919 0.940546
1.00415 0.274437 0.858686
1.00446 0.157961 0.94116
1.00072 0.256207 0.561462
1.00348 0.143088 0.938904
0.999053 0.240948 0.698079
0.996764 0.206218 0.770774
1.00087 0.100118 0.598151
0.998682 0.0609471 1.0215
0.996921 0.20742 0.661636
1.00149 -0.227414 0.90237
1.00261 -0.149698 0.631806
1.00024 -0.0586869 1.00979
0.997997 0.166924 0.581521
0.998604 0.288161 1.08
0.99264 0.0332001 1.00267
0.999446 0.0966705 0.503067
0.997882 -0.260696 0.917235
0.99824 -0.126574 0.537645
1.00124 -0.243371 0.608065
0.995714 0.0265754 1.01179
1.00145 -0.146164 0.553342
0.999531 -0.0908628 1.07195
0.997482 -0.07045 0.93502
0.999433 -0.0681675 0.548904
1.00052 -0.10853 0.844857
0.99494 0.138963 1.04446
1.00125 0.138863 0.710916
1.00404 -0.0415228 0.667884
0.993479 0.0852059 0.777876
0.99998 -0.0014204 0.878836
1.00296 0.284022 0.903796
1.00187 0.0463661 0.814335
0.999904 -0.072016 0.5348
1.00239 0.298124 0.579561
1.00288 0.156234 0.789694
0.999373 0.085833 0.864982
0.995052 0.251179 1.03932
0.99851 0.264537 0.918614
0.994573 -0.267004 1.02997
1.0009 -0.296774 0.795677
0.999823 -0.0323025 0.763385
1.00385 -0.202546 0.862287
0.997674 -0.0193598 0.839232
1.00377 -0.217416 0.860201
0.99904 -0.220425 0.990697
0.99651 -0.180681 1.066
0.999133 0.213194 0.50366
0.999464 -0.148235 0.843803
0.999082 -0.289666 0.579644
0.998207 -0.276618 0.801289
0.996317 -0.16743 0.553535
1.00239 0.0645146 0.715581
0.998127 -0.130401 0.893746
1.00113 -0.299649 1.01008
0.994312 -0.0972747 0.579172
0.999164 0.0452296 0.763269
1.00188 -0.235502 1.04075
0.996469 0.0751243 1.06727
0.998389 -0.191606 0.827131
0.999252 -0.124475 0.930622
1.00161 -0.0849434 0.804815
0.998667 -0.0386303 0.531897
1.00359 0.290067 0.783213
0.994997 0.163291 0.861434
0.99877 0.0670902 0.978951
1.00865 -0.156407 1.03052
1.00302 -0.16281 0.840607
1.00529 -0.260976 0.741052
0.997047 -0.210527 0.502702
0.999339 -0.188557 0.916063
1.00082 0.0542429 1.02288
1.00002 -0.162335 0.796999
0.994934 0.192105 0.643675
1.00604 -0.078618 0.536409
0.997292 0.193382 1.0037
1.00151 0.173872 0.536224
0.997789 -0.256349 0.824709
1.00199 -0.212951 1.08368
1.00064 0.132868 1.02296
0.99794 -0.134749 0.54405
0.996939 -0.0581234 0.787071
0.995963 0.203849 1.0357
1.00601 -0.125212 1.05361
1.00251 0.0283768 0.989876
1.00049 0.157656 1.09858
1.00199 0.161662 0.922162
1.00123 -0.240132 0.976764
0.998366 0.15673 0.823576
0.996012 -0.215556 0.804444
0.997334 0.207787 1.04787
0.999146 0.0198136 0.91206
1.00017 -0.258513 1.06042
1.00087 0.185971 0.49999
0.997675 -0.218905 0.746068
1.00597 0.107618 0.706917
0.996849 0.153834 0.78033
1.00151 0.0096785 0.636476
1.00613 0.00411509 0.528115
0.999078 0.0135811 0.869416
1.00378 -0.0629947 0.823418
0.999975 -0.218188 0.530582
0.995838 -0.0432276 0.842674
1.00338 -0.0619982 0.991872
1.00285 0.295017 0.924245
0.997452 -0.0099959 0.59834
1.00259 0.0578139 1.08128
0.992539 0.203305 1.04507
1.00427 -0.0552398 0.89033
0.994973 0.224746 0.969441
0.999243 0.27497 0.827796
1.00161 0.22892 0.75962
1.00037 -0.190559 0.616758
1.00211 0.157729 0.579841
0.997896 -0.0984373 0.982044
1.00325 0.265398 0.889597
1.00448 0.221718 0.849428
1.00086 -0.186345 0.636573
0.994019 -0.250817 0.686083
1.00118 -0.23044 0.620427
0.996973 0.115738 0.997466
0.998751 0.113646 0.537716
1.00335 -0.159491 0.936115
0.998922 0.159194 1.02086
1.00253 -0.16522 0.659845
1.00393 -0.270651 0.730163
0.998938 0.123211 0.732357
0.996216 0.107512 1.05116
1.00127 -0.243101 0.888286
1.00069 -0.133249 0.781955
1.00533 -0.132765 0.603174
0.994341 -0.10027 0.557304
1.00128 -0.186248 0.958617
1.00539 -0.0648292 0.683564
0.992494 0.254039 0.719284
1.00492 0.16361 0.857709
1.00164 -0.0818057 0.959372
0.998175 -0.294885 0.927494
1.00228 -0.0523114 0.807025
0.998475 -0.0381324 0.578826
0.998472 0.248953 0.953427
1.00357 0.143299 1.01083
1.0012 -0.283192 0.563052
0.997839 0.0247883 0.557198
0.998085 -0.153273 0.6806
0.99984 -0.237749 0.788185
1.00003 -0.0791622 0.769853
1.00102 -0.298954 0.908627
1.00518 0.117265 0.819168
1.00178 0.14805 0.63342
1.00075 -0.177305 0.681249
0.995931 0.269907 0.700985
0.996019 -0.0573827 0.989767
0.99803 -0.0644593 0.741485
0.999162 0.260521 0.813962
1.00097 -0.0350094 1.08411
1.00184 0.0518328 0.55293
1.00093 -0.273002 0.547042
0.996245 0.213191 1.0677
0.993349 0.100475 0.716893
0.997316 -0.188552 0.7413
1.00318 -0.233168 0.68603
0.999845 0.0819347 0.971566
0.998173 -0.00499659 0.655504
0.997644 0.044519 0.977334
0.998727 0.22172 0.822257
1.00019 -0.0896955 0.879953
0.995339 0.0146213 0.710392
0.999669 -0.0672883 0.564922
0.998732 0.121258 0.563466
0.999056 -0.219614 0.620346
0.99837 0.136866 0.817945
1.00073 0.0419321 0.908608
1.00381 0.165388 0.943693
0.998569 0.0869404 0.854462
1.00251 0.088128 0.677431
0.996211 0.167765 0.793616
1.00602 0.254792 0.796003
0.998495 0.259634 0.66928
0.999323 0.171032 0.898506
1.00003 -0.0307069 0.907351
0.999395 -0.257503 0.72697
0.999245 -0.00386271 0.747426
1.00198 0.0459666 0.934062
1.00039 0.133675 0.821652
1.00138 0.270814 0.575321
0.9989 0.236562 0.839419
0.999935 0.102092 0.872933
0.998852 0.297888 0.690806
1.00671 -0.00228814 0.985866
1.00333 -0.243454 1.06532
0.995563 0.0670899 0.573318
1.00069 0.0489676 0.881445
1.00179 -0.0946255 0.682799
0.99707 0.0795069 0.696824
1.00201 -0.120065 0.631726
0.996319 0.0029665 0.986513
1.0022 0.186754 1.01547
1.00009 -0.246491 0.889942
1.0027 0.111671 0.771304
0.997308 -0.0190948 0.876865
1.00019 -0.292695 1.02961
1.00345 -0.0685076 0.962303
0.999164 0.212576 0.706561
0.997308 0.174254 0.500582
1.00397 -0.145657 0.62896
1.00223 -0.0888547 0.542621
0.99958 0.0139624 0.729428
1.00295 -0.0653727 0.766687
0.999879 0.125889 0.713798
1.00266 -0.13625 1.00941
1.00022 0.104081 1.02712
1.00141 -0.163332 0.943194
0.993026 0.0964159 1.05849
0.994976 0.249892 0.66358
1.00448 -0.148697 0.903221
0.999212 -0.230237 1.06278
0.996366 -0.175048 1.01019
1.00576 0.0307897 0.518364
1.00093 -0.0957496 1.09858
0.999673 0.249417 0.830097
1.00183 0.00766806 0.841034
0.998139 0.192808 0.848698
1.00123 -0.280308 0.626727
0.999095 -0.100946 0.80419
1.00147 -0.0359898 0.895102
1.00255 -0.223176 0.536341
0.999984 0.158602 0.636667
0.997113 -0.178087 0.733252
0.999731 -0.0218992 0.512014
1.00175 0.205957 1.00137
0.995393 -0.0232493 0.609939
0.997905 0.244499 0.934348
1.00152 0.137901 1.07178
1.00006 0.123284 0.696994
0.999977 -0.135265 0.726893
1.00475 0.0455783 0.685173
0.99693 0.25443 0.745625
1.00036 0.27439 1.0469
0.997015 -0.0598984 0.940664
0.999962 -0.0480715 0.921923
0.996705 0.240214 1.0132
0.998439 -0.237494 0.515543
0.99845 -0.085594 0.674321
1.0009 -0.132156 0.856459
0.999327 0.0415825 1.02816
0.997257 -0.0873935 0.917753
0.995734 0.0493343 0.986032
0.996748 -0.0225294 0.946904
0.992472 -0.13183 0.743732
0.998446 0.295878 1.0946
0.998491 0.229876 0.594783
0.996007 -0.0910773 0.638348
1.00206 -0.263743 0.702954
1.00359 0.261515 0.64995
0.996998 -0.180186 0.58336
1.00213 -0.0586115 0.503654
1.00365 0.210059 1.06963
0.998268 0.1511 0.718652
1.00113 0.0501966 0.693041
0.997195 0.16182 0.874112
1.00215 -0.184128 1.03545
1.00118 0.072994 0.858017
0.999811 0.224545 0.791131
1.00278 0.239384 0.693445
1.00398 -0.241813 0.852861
1.00013 0.219004 0.999772
1.00022 0.180039 0.658038
1.0037 0.216581 0.568062
1.00342 -0.0370181 1.01925
0.997767 0.290821 1.09546
1.00079 0.0460645 1.03305
1.00111 0.0999042 0.878944
0.999759 0.233282 0.800027
0.998938 -0.137268 1.05075
1.00103 -0.0968112 0.914721
1.00181 0.063764 0.793671
1.00035 -0.20622 0.863675
0.996874 -0.00653112 1.07836
0.996377 -0.20702 0.94473
0.99973 0.104292 0.529928
0.998733 -0.210442 0.98709
0.998322 0.26234 0.908298
0.998999 -0.0243227 0.964759
1.00293 -0.203108 0.743084
1.00002 -0.0426617 0.792921
0.998816 0.288363 0.634617
0.995677 -0.205689 0.956526
1.00573 -0.221796 1.04042
0.995063 -0.217316 0.550559
0.996578 -0.224424 0.908918
0.999679 0.0454557 1.08952
0.99854 -0.225268 0.782094
1.00001 0.0772857 1.04215
0.997557 0.0182711 1.10198
0.998727 -0.169506 0.873462
1.0015 0.20614 0.956782
1.00556 -0.0274753 1.01147
0.997909 -0.236943 1.02026
1.00397 -0.244773 0.774477
1.00342 -0.14497 0.531479
1.00049 -0.267055 0.928596
0.999073 0.272225 0.909108
1.0015 0.0503752 1.01729
1.00777 -0.14402 0.98097
0.998802 0.174983 0.899179
0.991984 -0.189349 0.947593
1.00146 -0.108534 0.635107
1.00023 -0.150399 1.07295
1.00351 0.0238364 0.953921
1.00046 0.0663449 0.80535
1.00249 -0.280189 1.08834
0.996672 0.0548024 0.551144
1.00038 -0.0130554 0.928657
1.00711 0.162865 0.95404
1.00082 -0.118562 0.738316
0.997059 0.233586 0.919256
0.999853 0.211608 0.594837
1.00878 0.08029 0.720025
1.00135 0.254722 0.927546
0.99314 0.17198 1.04516
0.999309 0.10444 0.991062
0.996636 -0.0294635 0.52499
1.00217 -0.0299274 0.507877
1.00308 0.110863 0.741017
1.00505 -0.0823525 1.06179
1.0022 0.292069 0.59808
0.999226 0.239718 0.718531
1.0056 0.0271578 0.762679
1.00549 0.286175 0.921325
1.00202 0.0777528 0.923769
1.00471 -0.131631 0.59108
0.999429 0.0528336 0.802287
1.00031 -0.25887 0.580525
1.00345 0.275392 0.625631
1.00316 -0.201619 1.09785
1.00106 0.284771 0.950141
1.00306 0.224583 0.951451
1.00332 0.294403 1.07064
0.998722 -0.12907 1.0103
0.998398 0.00936565 0.771695
0.99748 0.0348684 0.57311
1.00234 -0.0590983 1.08022
0.995998 0.188081 0.866547
0.995719 -0.190855 0.815457
0.997672 0.0265716 1.0735
1.00152 0.0798152 0.660395
1.00563 0.190448 0.892502
0.999318 0.0815513 0.634996
0.999788 0.281009 0.555738
0.994889 -0.269084 0.729501
0.996124 -0.135003 0.916403
1.0007 0.231126 1.09917
1.00327 -0.210782 0.899119
0.997475 -0.0825399 0.764272
1.00223 -0.0573243 1.01747
1.00219 -0.121755 1.02063
1.00357 0.180155 1.06672
0.998976 0.205846 0.931588
1.0029 -0.14467 0.726461
0.994683 -0.183184 1.02062
0.999737 0.0808636 0.762036
1.00243 0.105162 0.610348
0.999896 0.281082 0.91397
0.998264 0.266277 0.686416
1.00083 -0.292059 0.813133
0.998577 0.224762 0.543443
1.0022 0.192811 0.840729
1.00152 -0.0649655 0.973385
1.00272 -0.266885 0.502765
1.00344 0.0182114 0.553405
1.00149 0.228625 0.853487
1.00015 0.0622954 0.529013
1.0021 -0.103425 0.611284
0.99744 0.190885 1.02427
0.996253 -0.0619829 0.970383
0.9993 0.153575 0.584886
0.997443 0.161286 0.94612
1.00074 0.214194 0.767498
1.00021 0.123785 1.00365
1.00127 0.180724 0.597688
1.00207 -0.0542562 0.6136
0.998092 0.208356 1.00273
1.00223 -0.260832 0.715505
1.0069 0.275117 0.714299
0.999007 -0.0380047 0.742729
0.999672 0.00560752 0.509263
1.00624 0.181086 0.842599
0.997712 -0.167463 0.970909
1.00051 -0.133984 0.792611
1.0026 0.28073 0.61805
0.997287 -0.16248 0.53699
1.00132 0.123608 0.846034
1.00056 -0.200169 1.08143
1.00093 0.138577 1.09803
1.00048 0.288558 0.594266
1.0011 0.16079 0.944761
0.996996 0.0953639 0.912832
1.00234 -0.117307 0.630618
0.995726 -0.155577 0.559507
0.996073 0.190999 0.713341
1.00136 0.163697 0.799068
0.999087 0.183462 0.849859
1.0017 0.107775 0.814918
0.998638 -0.108955 0.635323
0.998789 -0.105723 1.06144
0.998179 0.28179 0.756232
0.999626 0.279535 0.978835
1.0009 -0.18476 1.08453
0.997549 0.176393 0.579794
0.999904 0.187191 1.03598
1.00126 -0.135306 0.65539
0.997783 0.123494 0.758793
0.995586 -0.214843 0.719292
0.9915 -0.0950376 0.558457
1.00381 -0.0119993 0.774095
0.999985 0.0659553 0.673459
1.00402 0.289793 0.933788
1.00115 -0.087169 0.607201
1.00033 0.108352 0.585259
1.00083 -0.0478693 0.904845
1.00009 0.149909 0.776204
0.998742 -0.196664 0.613748
1.00257 0.126889 0.833205
0.996761 -0.17556 0.730499
1.00396 0.155804 0.958253
0.999133 -0.238854 0.522083
0.999202 -0.152462 0.552392
0.995385 0.191203 1.03157
0.993194 -0.254864 0.86559
0.999562 0.016525 0.888491
0.999132 -0.192009 0.950139
1.00109 -0.289891 0.887103
0.994346 -0.0313439 0.902096
0.998955 -0.201817 0.862147
1.00246 -0.0169522 0.727087
0.999058 0.28614 0.863548
0.992617 0.279747 0.585101
0.995934 -0.108441 1.0668
0.998914 -0.272929 0.875623
1.00058 0.167779 0.838644
1.002 -0.0824695 0.795087
0.997619 0.0679675 0.624074
0.999013 0.0473377 0.684202
0.998988 0.249413 0.897852
0.998415 0.236346 0.822638
1.00128 -0.0971282 0.568895
0.997026 0.201847 0.633788
1.00018 -0.183874 1.0867
1.00516 0.150764 0.777926
0.996435 -0.101895 0.798965
1.00007 0.229501 0.831988
1.00184 0.272149 0.508614
1.00129 -0.298485 0.964415
1.00107 0.280277 0.730567
0.999108 0.162619 0.61113
0.999308 -0.201055 0.5511
0.999405 -0.145858 0.746895
1.00268 0.202558 0.64962
0.995501 -0.173289 0.774585
1.00132 -0.138302 0.840445
0.998059 0.0415603 0.543755
0.996975 0.0986234 0.667375
1.00079 -0.0131871 0.8823
1.00241 -0.211639 0.726565
1.00506 0.17194 0.626352
1.00276 0.149605 0.965716
0.998482 0.151765 1.08518
1.00278 -0.143062 0.518134
0.996637 -0.29267 1.04661
0.998389 0.224594 0.689019
0.998261 -0.0628048 0.511719
1.0045 0.150842 1.03994
0.998577 -0.191763 0.674163
1.00371 -0.134298 0.903667
0.997463 -0.228368 0.874156
1.00055 0.12077 0.97205
0.99951 -0.0701931 0.599706
0.999733 0.260346 0.498259
0.999965 0.277242 0.759675
0.996945 -0.0205577 1.02217
1.00375 -0.0225044 0.998134
0.999197 -0.153194 0.518973
1.00245 0.0861613 0.798131
1.00258 0.00600684 0.735331
1.00215 -0.104405 0.737905
1.00671 0.107579 0.97155
0.999206 0.0240916 0.750367
0.994689 -0.0115218 0.775674
1.0024 0.00891669 0.970518
1.00027 -0.124872 0.84906
0.998774 -0.259304 0.549497
1.00041 -0.023472 0.990138
0.998414 0.293533 0.601644
1.00137 -0.085961 0.534566
0.998835 0.247142 0.860697
0.994843 -0.145931 0.518014
1.00021 0.219066 0.608485
1.00469 -0.191527 1.08571
1.00012 -0.160148 0.953223
1.00014 0.203297 0.909124
1.001 -0.263886 0.854457
1.00471 0.136337 0.94111
0.996926 0.136767 0.812563
1.00313 -0.206855 0.698594
0.99809 0.123803 0.677441
0.994998 0.187745 0.565154
1.00376 0.195635 0.572855
0.994692 -0.122557 1.04184
0.999349 -0.174697 0.790619
1.0017 0.0270388 0.79035
1.00127 0.301346 0.674235
1.0013 0.260352 1.06914
0.995611 0.203293 1.01268
0.999407 0.00597828 1.01518
1.0005 -0.0334291 0.821446
0.996256 0.0715967 0.608855
1.0037 0.229095 0.679803
1.00346 -0.0352857 0.811577
0.99961 0.168392 0.533051
0.9972 0.137228 0.760764
0.999954 -0.0614366 0.658652
0.998986 -0.131216 0.916494
0.996407 -0.161921 0.824755
1.00486 -0.0865571 0.600999
1.00105 -0.0075268 1.07799
0.997818 -0.172728 0.733162
1.00799 0.143763 1.07145
0.998565 -0.258209 1.05666
0.999193 -0.116066 0.599919
1.00058 0.296548 0.786301
0.996012 0.00913315 0.66944
0.998096 -0.156966 0.960708
0.998353 -0.0758219 0.832903
1.00422 0.193686 0.543474
1.00458 0.282112 1.05276
0.994497 0.0324491 0.759677
0.997731 -0.295052 0.850411
1.00042 0.104409 0.601391
1.00049 0.055339 0.550056
1.00154 -0.0317891 1.07366
1.00322 -0.18413 1.06798
1.00313 0.071395 0.6433
0.995974 0.129829 0.624701
0.997384 -0.0981948 0.964395
0.999176 -0.01703 0.608431
0.998955 -0.0819284 1.03681
0.995689 0.129594 0.851322
1.00218 0.147096 0.759828
0.998691 -0.0573805 1.00303
0.997729 0.257119 0.747632
0.998453 -0.192009 0.778714
0.999948 0.084534 0.792316
0.999588 0.287905 0.964106
1.00127 0.0924883 0.804395
0.997608 0.215014 0.869714
1.001 -0.128179 0.792506
1.00222 -0.293762 0.900334
0.997761 0.0483173 0.819264
1.00071 0.0298881 1.00974
1.00075 -0.0491274 1.01853
0.994527 0.170404 0.882788
1.00256 -0.256263 0.835273
1.00062 0.112142 0.856337
1.00422 0.200866 0.704956
1.00423 0.199154 0.858292
1.00137 -0.164501 0.690366
0.997138 -0.0915389 0.836417
0.997277 0.173043 1.08835
1.00417 -0.0304623 0.57513
1.00528 0.0765344 0.517998
1.00444 0.204931 0.872874
1.00048 -0.116722 0.846533
1.00097 0.229459 1.04156
0.999653 -0.0592756 0.646981
0.994404 -0.176699 0.699306
1.00134 -0.123466 0.575034
1.00174 0.213016 0.897297
0.999698 0.116702 0.808367
0.995752 0.106725 0.911072
1.00294 0.0418065 0.651031
1.00535 -0.247161 0.868064
0.999876 0.169948 0.509717
0.99902 -0.0498715 0.601876
1.00707 0.0025415 0.890078
1.00526 0.26559 0.509728
0.999129 -0.264335 0.609349
0.998726 -0.0471605 0.822642
1.00021 0.241817 0.975088
1.00307 -0.211903 0.873832
0.999302 0.26164 0.657469
1.00317 0.0309355 1.09497
0.992033 -0.20085 0.651747
1.00349 -0.0255032 0.730153
0.996861 0.0560759 0.887086
1.00053 -0.100926 0.540933
1.00148 0.245403 1.07726
0.999222 -0.0404362 0.751306
0.99554 -0.272126 0.770665
1.00311 -0.00960394 0.693996
1.00179 0.168953 1.04321
1.0008 -0.0810484 0.656309
0.996852 -0.0579495 1.01643
1.00495 0.217283 0.504229
0.996909 0.247877 0.83592
0.998164 -0.230424 0.507789
1.00039 -0.0730542 0.894185
1.00301 -0.25868 0.648244
1.00231 0.248908 1.0904
0.997107 -0.181554 0.972105
0.999261 0.177989 0.742064
0.997836 -0.281647 0.781656
0.996934 -0.0469456 0.917751
1.00078 -0.00013195 0.977691
1.00093 0.290034 0.826826
1.0015 0.0896366 0.658927
1.00163 0.0737558 0.887627
0.999163 0.126754 0.833049
1.00277 -0.302969 0.824127
1.00107 -0.0765436 0.589595
0.996326 0.11623 0.984782
0.998388 -0.157741 1.04854
1.00064 -0.142406 0.974227
1.0008 0.0722763 0.715335
1.00724 -0.285099 1.08327
1.0007 -0.0513359 0.786055
0.994026 -0.239669 1.07814
0.999064 -0.136743 0.755386
0.999628 -0.256341 0.900222
1.00208 0.0172726 0.615128
1.00213 -0.210736 0.564171
0.99903 0.13883 0.994127
0.999286 0.0987632 1.06206
1.00005 -0.170655 0.992172
1.00251 -0.139476 0.651336
1.00209 0.251645 0.817946
1.00153 -0.238755 0.932589
0.998704 -0.0562539 0.497355
0.998628 -0.19399 1.06693
1.00324 0.0468199 0.982813
0.999797 0.0692323 0.726288
1.0054 0.216579 0.952725
1.00401 0.13407 0.837548
1.00007 -0.118166 0.572448
1.00036 0.0248906 0.662604
1.00117 -0.292178 0.60121
1.00378 -0.258175 0.620616
0.997802 0.0391592 0.738538
0.996034 0.27419 0.83347
1.00145 -0.000398429 0.667912
0.991705 0.29038 0.543691
0.996555 -0.109943 0.856067
1.00543 -0.000879358 0.827068
1.0016 -0.238493 0.840456
0.998489 0.00926306 0.578654
0.997663 -0.230367 0.734713
0.999698 -0.0728418 0.515211
0.999565 -0.198546 0.707786
1.00511 -0.0217659 0.936802
0.999892 0.132716 0.973831
1.00542 0.246804 1.00515
0.999213 -0.26849 0.654293
0.996213 -0.0305833 0.603061
1.00101 -0.0980758 0.546954
1.00048 -0.192681 0.907248
1.00158 -0.248854 1.05772
0.998131 -0.220099 0.643463
0.999328 -0.182829 0.517087
1.00397 0.194279 1.0265
1.00162 -0.294177 0.780923
1.0014 0.172594 0.950576
1.00646 0.0852531 0.64006
0.999635 0.145214 0.670142
1.00216 -0.295393 0.868169
0.999606 -0.151432 0.613927
0.997977 -0.192447 0.75745
0.999233 -0.187299 0.88285
1.00323 0.160904 0.840144
0.996508 -0.0251062 0.809662
0.998171 0.0160239 0.676142
1.00307 0.044049 0.84709
1.00181 -0.151054 0.659457
0.997257 0.00934574 0.988838
0.996973 -0.181703 0.535686
1.00156 -0.114482 0.670731
1.00497 0.115139 0.901925
0.993042 -0.151336 0.884397
0.998468 -0.11769 0.821067
0.999584 -0.256596 1.00434
0.996609 0.165724 1.0707
1.00097 -0.29122 0.865357
1.00042 0.00673054 0.689892
0.999254 0.0280043 0.747725
1.00038 -0.273527 0.685735
1.00215 0.192779 0.679162
1.00213 0.151686 1.08391
1.00207 0.161693 0.68261
1.00459 -0.00186935 0.565453
0.999392 -0.276747 0.949339
1.00079 -0.263663 0.613838
0.997261 -0.180213 0.697994
0.994496 0.191944 0.767344
0.995615 0.255116 0.738855
0.99826 0.216161 0.737889
1.00029 -0.130725 0.84036
0.999651 0.193064 0.859123
1.00202 0.248421 0.612804
0.998258 -0.180884 1.08638
1.00744 -0.298724 0.662564
1.00138 -0.0314906 0.544745
0.994831 0.0648907 0.906532
1.00056 -0.160023 1.08725
0.999118 0.23981 0.856357
1.00216 -0.170836 0.97033
1.00072 0.263883 0.600766
0.99612 0.245684 0.835971
1.00041 -0.066032 0.602802
1.00392 0.119595 0.833335
1.00091 -0.105586 0.71953
1.00028 0.277423 0.660976
1.00274 0.228533 1.04917
0.998798 0.156829 0.628998
0.999966 0.160042 0.638464
0.999448 -0.190178 0.785021
1.00477 0.00641537 0.784552
0.997408 0.122029 1.01956
1.00337 -0.180555 0.641224
1.00151 -0.125679 0.558945
1.0032 0.137596 1.06679
1.00461 0.0637328 1.02574
0.995126 0.111546 0.703959
1.00152 0.0124998 0.571327
1.0008 0.237954 0.523636
1.00696 -0.00975862 0.873176
0.998601 0.0422245 0.966333
1.00252 0.1008 0.893582
1.0004 -0.206273 0.517203
1.00583 -0.0105365 0.745051
0.999461 0.101727 1.02771
0.993702 0.155303 0.619334
1.00547 -0.113545 0.588413
1.00188 -0.126064 0.950147
0.999804 0.0178838 0.619743
1.00059 0.295833 0.780581
1.00282 -0.243079 0.514832
1.00039 0.243746 0.72291
0.998231 -0.189307 0.992795
0.999516 -0.182452 0.670267
0.993605 -0.272859 0.965211
1.00304 -0.0690984 0.779426
0.999399 0.0456512 0.749189
0.997966 -0.140135 0.848868
0.997249 -0.109163 0.625949
1.00253 -0.162478 0.864541
0.996572 -0.0702182 0.734452
1.0007 0.244779 0.935415
1.00248 -0.147122 0.579218
0.996932 0.282487 1.04774
1.00266 -0.168597 0.986871
0.995601 0.173342 1.00686
1.00252 0.162392 1.01218
1.00175 -0.0641175 0.692545
0.998904 0.24784 0.878097
1.00227 0.0573698 0.915593
0.996027 -0.205686 0.534391
0.999954 -0.0741816 0.911884
0.996491 0.0284093 0.533771
1.0015 0.274606 0.847512
0.999396 -0.233482 0.807779
1.00084 -0.280837 0.869662
1.0007 0.110849 0.665943
0.99885 0.237122 1.05805
0.994542 0.248818 0.968419
0.995861 0.187031 1.00439
1.00357 0.0255518 0.757409
0.998851 -0.257825 0.734103
0.997853 -0.24005 0.698586
1.00093 0.00474501 0.499887
0.995563 0.264611 0.652311
0.996573 -0.292682 0.782673
1.00026 0.142092 0.86335
1.00188 -0.269497 0.700927
0.99758 0.0845834 1.02636
0.996353 -0.181768 0.713059
0.997761 0.190956 0.667856
1.00368 -0.0353983 0.987491
0.999275 -0.148672 0.891823
0.99834 0.251349 0.838799
1.00154 0.131084 0.926498
1.00163 -0.218498 0.651313
0.994737 -0.109972 1.02794
0.999618 0.273788 0.961464
0.994195 -0.216697 1.05573
0.999895 0.0444104 0.81258
1.00178 0.277419 0.980827
1.00502 0.0636281 0.685131
1.00308 0.233998 0.612182
0.998195 -0.25637 0.516601
1.00716 -0.174601 0.592024
0.994571 0.0743658 0.99946
1.00391 -0.0105563 0.587622
1.00081 -0.291254 0.523421
1.00149 -0.00763351 0.501949
1.00672 0.208676 0.980399
0.99985 -0.000375624 0.652293
1.00024 -0.0690024 0.910029
1.00052 0.0122589 0.988254
0.99781 -0.0947747 1.00143
0.999469 -0.0650534 0.513934
0.998595 -0.0373809 0.919236
0.995553 -0.073558 0.678991
1.00238 -0.19263 0.96729
1.00459 -0.0550704 1.03643
1.00305 0.0818914 0.563544
0.999911 -0.00386218 0.649943
1.00257 -0.208723 1.10279
1.00744 0.235007 0.843583
0.999101 0.043479 1.02648
1.0016 -0.23065 0.657394
1.00018 -0.189663 0.641565
0.999028 0.248026 1.09419
1.00182 0.281575 0.863246
1.00031 0.127852 0.697642
1.00673 -0.213353 0.920636
0.996192 -0.214715 0.73672
0.998251 -0.0216921 1.04626
1.00123 -0.0920564 0.921225
0.995884 0.00845492 0.807494
0.996352 -0.145636 1.076
1.00164 0.00063668 1.04391
1.00127 -0.167596 0.698808
0.998751 -0.076348 0.6262
1.00074 -0.202992 0.766862
0.9996 0.00443883 0.891594
1.00269 -0.251948 0.987469
0.99996 -0.17174 0.565508
1.00201 -0.293457 0.752611
1.0018 -0.174294 0.987876
1.00523 -0.122165 0.688071
0.993476 0.0767654 0.550095
0.997766 -0.00401997 0.913116
0.998826 -0.222022 0.503545
1.00074 -0.0689986 0.623736
0.999401 0.19827 0.648336
1.0012 0.252058 1.0706
0.999463 0.195406 0.773384
0.995804 -0.269398 0.527489
0.99739 0.186572 0.603654
1.00297 0.152749 0.580161
1.00545 -0.0506425 0.958457
1.00075 0.181606 0.7036
1.00173 -0.180552 0.568522
0.993055 -0.292856 0.586845
1.00236 0.0117665 0.85286
0.99606 0.289762 1.05388
1.00388 -0.0157061 0.714256
1.00053 0.152567 0.99731
1.00114 0.22576 0.917118
0.998596 -0.18661 0.967313
1.00159 0.0920767 0.602591
0.999031 -0.254855 0.917173
0.995863 0.129165 0.980824
0.995925 0.136075 0.721
1.00245 0.0924111 1.10278
0.99851 -0.203534 0.97336
1.00295 0.0675302 0.851423
1.00475 0.108569 0.827214
1.00178 0.206383 0.95236
0.998366 0.180829 0.510837
0.999486 -0.1224 0.776287
0.998237 -0.0536587 0.614095
0.997374 -0.293507 0.526819
1.003 0.173605 0.626774
0.996079 -0.225066 0.940787
1.00281 0.178252 0.579017
1.00362 -0.185071 0.915311
1.00045 0.0962342 0.628406
1.00281 0.173783 0.70905
1.00369 0.294509 0.988893
1.00001 0.204324 0.763794
0.995614 0.0151249 0.559092
1.00209 0.00068536 0.677798
0.995092 0.0889984 0.594451
1.002 0.233566 0.912998
1.00076 0.133166 0.845974
1.00741 0.0789063 0.964017
0.993299 0.0841059 0.822454
0.99842 0.113163 0.746246
1.00495 -0.0577049 0.758219
0.999447 0.293264 1.01187
0.997713 -0.203855 0.888721
1.0006 -0.268389 0.923746
0.996539 -0.24004 0.847707
0.998374 0.170654 0.773162
0.998722 0.167406 0.932813
1.00033 -0.256151 0.559598
1.00107 -0.122431 0.615472
0.997623 0.155118 0.766945
1.00135 -0.227496 0.62398
0.997349 0.251759 0.580854
1.00031 0.114291 0.786855
0.996289 -0.24059 0.935142
0.999631 0.051446 0.528442
0.997285 -0.296007 0.58465
0.99717 0.272605 0.703893
0.996108 -0.176932 1.02595
0.999319 -0.2876 0.537056
1.00468 0.284161 0.547056
1.00295 -0.116125 0.780811
1.00312 -0.0152725 0.517123
1.0011 -0.201933 0.952616
0.996517 0.0434149 0.987469
1.00546 0.248437 0.934556
1.00083 0.000850328 0.908591
1.00042 0.210282 1.05371
0.998476 0.290982 0.530702
0.994709 -0.22802 0.605713
0.998337 0.0169157 0.988221
0.999892 0.181899 0.74093
1.00499 0.201298 0.57374
1.00089 -0.250844 1.09544
0.999244 0.0505343 0.896785
1.00297 0.175127 0.633465
0.995093 -0.218707 0.89094
0.999055 -0.0544062 0.549486
0.999782 0.0280263 0.954231
1.00218 -0.209284 0.503123
0.997197 -0.104275 0.977966
0.994728 -0.00517931 0.97002
1.00373 -0.140455 0.584707
0.996038 -0.135083 0.92364
0.997711 0.102672 0.974566
0.999983 -0.0665672 0.739057
0.996005 0.249952 1.07483
0.99904 0.0439893 0.759261
1.00043 -0.243322 0.767283
0.998327 0.0253289 1.01939
0.997391 -0.0344098 0.905598
1.00137 -0.17188 0.586759
1.00003 -0.0244701 0.834107
1.00097 -0.226865 0.784307
1.00283 -0.117043 0.877769
0.996405 -0.069586 0.56901
1.0064 -0.0121163 1.0532
1.00463 -0.234066 0.917848
0.996921 0.237011 0.556568
1.00201 0.150118 0.722087
1.00041 0.277717 1.00274
1.00228 -0.173313 0.626266
1.00271 0.238434 1.09541
1.00104 -0.0541315 0.814438
0.999058 0.215097 0.862319
1.00199 -0.208268 0.833767
0.997527 0.207024 1.03321
1.00362 0.128113 0.537421
1.0041 -0.19546 0.551278
0.999707 -0.092996 0.639951
0.997943 0.280575 0.637658
0.99961 0.213854 0.913765
1.00088 -0.187538 0.651914
1.00053 -0.199984 0.963771
0.998389 0.250254 0.837636
0.995539 0.192655 0.963154
1.0005 0.0558889 0.540591
0.996783 0.223339 0.722138
1.00036 -0.180588 0.81129
0.995565 0.192256 0.692273
0.999789 -0.148003 0.945978
1.00219 0.0828931 1.0135
0.998384 0.300193 0.898054
0.99539 -0.0252008 0.771886
1.00342 0.182244 0.939142
1.00312 0.283266 0.618515
1.00606 -0.0167218 0.993546
1.00129 -0.00521141 0.701978
0.996629 -0.229453 0.602555
1.00139 -0.0512271 0.986278
0.993812 -0.109919 0.946344
1.00579 0.249211 0.711868
1.00011 0.292818 1.04393
0.999147 0.183146 0.737474
0.997107 0.29681 0.533834
0.99825 0.222405 0.721606
1.00173 0.0189074 0.753323
0.998874 -0.160498 0.927886
1.00062 -0.226438 0.885728
0.999843 0.088081 0.691893
0.996109 0.125409 0.954458
1.00589 -0.26536 1.01528
0.999084 -0.247477 0.748799
0.998359 -0.210685 0.691807
0.997154 0.288739 0.802716
1.00137 0.225822 0.600929
1.0018 -0.164929 0.84245
1.00065 -0.232012 1.07438
0.999764 0.135814 0.594992
0.997672 -0.155863 1.07453
0.995437 0.282697 0.686938
1.00152 -0.238901 0.545835
0.99682 0.018115 0.702663
0.99823 0.199418 0.951024
0.995962 0.0556015 0.523975
0.998507 -0.160387 0.846564
1.00612 0.247911 1.08182
1.0023 -0.0933646 1.04106
0.999605 -0.0285492 0.845922
0.993063 -0.00637706 1.09328
0.997627 0.170683 1.05303
1.00482 -0.11891 0.659642
0.996759 0.0704118 0.847778
0.999918 0.0319674 1.02566
1.00132 -0.134279 0.882521
1.00033 -0.149998 0.943004
1.00615 0.230865 0.541003
0.998375 -0.144783 0.752979
0.997361 -0.250626 0.745735
0.995228 0.0498102 0.734588
1.00628 0.276065 0.634928
1.00346 0.0219867 0.852352
1.00229 -0.141234 0.991932
1.00195 0.233034 0.849791
0.999095 -0.0768685 1.08989
0.998666 -0.0827392 0.548044
1.00147 -0.230463 0.768286
1.00113 -0.0862002 0.559742
1.00072 -0.108934 1.0482
0.996354 0.209542 0.856364
1.00353 -0.113343 0.64646
0.996138 0.283781 0.645359
1.00112 -0.00292457 1.02086
0.9968 0.128107 0.89249
1.00046 -0.281479 0.553893
0.999203 0.171787 0.740725
0.997768 -0.101146 0.980685
0.998029 -0.28638 0.9418
1.00367 0.272098 0.513602
1.00086 -0.227974 0.639228
1.00209 0.231952 0.994951
0.997275 0.22427 0.512422
0.999077 -0.300148 1.05638
1.00011 0.146075 1.08667
0.999871 0.0347712 0.722913
0.992218 -0.151111 0.871303
1.00301 0.0862692 0.992992
1.0025 0.18747 0.874303
0.995222 0.134477 0.874975
0.995722 -0.258377 0.525944
1.00331 0.0429264 0.951264
0.999865 0.0384439 0.762371
1.0047 -0.0155579 0.799167
1.00518 -0.095358 0.501685
0.999236 -0.258414 0.946291
0.997927 0.0756077 0.828279
1.00617 0.245757 0.933847
1.00468 0.211938 1.02953
1.00062 0.172812 0.854791
1.00088 -0.22594 1.01433
0.996964 0.0706209 0.532627
1.00374 0.0759164 1.0946
1.0045 0.174969 1.02713
1.00259 -0.276281 0.733085
0.997689 -0.102611 1.04609
0.993877 0.127669 0.530084
0.997311 0.188058 0.5841
1.00163 -0.260266 0.909161
1.00032 0.226693 0.882156
1.00233 -0.0597122 0.556545
0.997799 -0.197223 0.628017
0.99976 -0.29795 1.06609
1.00326 -0.268424 0.827731
0.997925 -0.0583083 0.970169
1.00184 0.110472 0.803919
1.0025 -0.190439 1.05604
1.00129 0.0460169 0.900601
1.00049 0.159822 0.701878
0.997694 0.184483 0.536333
1.00213 -0.220647 0.769493
0.999284 -0.138218 0.846897
1.00103 -0.0614061 0.834383
0.998306 -0.0521925 0.671774
1.00094 0.262934 0.620863
1.00073 0.157228 0.953355
1.00265 -0.0509781 0.504234
0.995481 -0.0322128 0.648692
0.995068 -0.187059 0.970986
1.00444 -0.24177 0.844273
1.00407 -0.196175 0.567138
0.996674 -0.253594 0.95124
1.00261 0.0858274 1.0339
1.00204 -0.144821 1.09598
1.00352 0.245834 0.526814
1.00082 0.105445 0.903951
1.00023 -0.025964 0.781207
0.999238 -0.0646833 0.931059
1.00209 0.192649 1.01568
0.997976 -0.104729 0.878037
1.003 -0.131962 0.938842
1.00159 -0.288519 0.906028
0.998047 0.0730509 0.532338
0.997542 0.120524 0.866848
0.996113 0.14061 0.741513
1.00902 -0.146896 0.68432
1.00207 -0.270882 0.751723
1.00223 0.056589 0.686674
1.00299 0.0221754 0.875491
0.996885 0.0576314 0.56933
0.995547 0.248258 0.873806
0.997814 -0.284612 0.592038
1.00071 -0.0224471 0.64407
1.00081 -0.0335603 0.99116
0.99758 -0.213478 0.853796
1.00139 0.0368037 0.973264
1.0005 0.141513 0.50723
1.00002 -0.199647 0.928102
0.993028 -0.086461 0.84715
1.00297 -0.286066 0.606098
0.997753 0.130003 0.601229
0.996746 -0.217604 0.933472
0.998345 0.242655 0.971228
1.00366 0.188767 0.984191
0.996281 0.247369 0.671699
1.00106 0.115646 0.78016
1.00307 -0.25623 0.52009
0.997893 -0.212867 0.809581
1.00035 0.09543 0.703695
1.00149 -0.202277 0.840675
1.0007 -0.0152656 0.633216
0.99476 0.222471 0.569815
1.00432 -0.100892 0.728359
0.997907 -0.300814 0.747018
1.00147 0.243199 1.00471
0.997106 0.223907 0.762841
0.995922 -0.150089 0.763573
0.994059 -0.110511 0.914487
0.998596 -0.0182383 0.804548
1.00103 -0.0234566 1.09717
0.998916 0.150329 0.875878
1.00458 0.105125 0.893397
0.99792 -0.0823205 0.655468
0.997448 -0.0588756 0.852427
1.00187 0.0082366 0.94753
1.00054 0.0365146 0.642956
0.999103 -0.201272 0.563988
0.999164 0.0873173 0.707405
1.00319 0.0423914 0.678884
0.99812 -0.287921 0.554677
0.995295 -0.0705362 0.592588
0.999359 0.226941 0.81792
1.0051 0.28513 0.867392
1.00225 0.268562 0.614522
1.00059 0.256264 0.627294
0.994724 0.159799 0.875193
1.00316 -0.236827 0.530507
1.00096 0.192983 0.823481
0.99841 -0.222154 0.87984
0.999892 -0.140119 0.805491
0.996065 0.281213 1.02311
1.00203 -0.278276 1.01628
1.0025 0.271124 0.956951
0.995602 0.268893 1.09746
0.998627 0.00357741 0.949144
1.00226 -0.0545999 0.516226
1.00295 -0.0067012 0.867931
1.00053 -0.119738 0.900254
0.997192 -0.0269208 0.613657
1.00594 -0.13756 0.795165
0.99602 -0.0385795 0.860955
0.996549 0.24672 0.779308
1.00308 0.108763 0.892559
0.997109 -0.146967 0.51735
0.997013 -0.0603584 0.668469
1.00297 0.22333 0.96124
1.00293 0.209921 0.951782
1.00161 -0.0584833 0.925787
1.00013 0.0435715 0.740197
1.00406 0.028018 0.601954
1.00039 0.0688204 0.916791
0.999421 0.242312 0.522297
0.997151 0.049175 0.657395
0.999182 0.270034 0.895467
0.994035 0.074906 0.568849
0.997136 -0.18197 1.04965
1.00378 0.139261 0.98178
0.998989 -0.14342 1.00128
0.999894 -0.267068 0.906136
1.00166 0.101282 0.959562
1.00367 0.0427147 0.863114
0.995459 -0.0278147 0.819558
1.00111 0.256154 0.718344
0.998504 -0.153734 0.968865
1.00123 -0.159562 0.801988
0.99939 -0.165352 0.626548
0.997709 -0.236229 0.999045
1.00477 0.181307 0.990838
1.00148 -0.257899 0.832536
0.999426 0.25771 0.683417
0.991374 -0.0839059 0.830443
1.0028 0.212557 0.780644
1.0013 0.219105 1.06344
0.999393 -0.0917838 0.590401
1.00162 0.0656021 0.949962
1.0008 0.00636878 0.989661
0.99503 0.138791 1.02529
1.00136 0.209962 0.624368
1.00208 0.0360254 0.973787
1.00333 0.121613 0.803703
1.00355 -0.208658 0.886567
1.00622 -0.131564 0.957872
0.999898 -0.0601331 0.996365
1.00041 0.228935 0.509938
1.00317 -0.0838725 0.780445
0.99883 0.251971 0.638221
1.00355 -0.0702351 0.552972
1.00146 0.242816 0.705128
1.00227 0.297654 1.07039
1.00024 0.0741727 0.561339
1.00027 0.0342818 0.848724
0.99849 0.20862 0.98469
0.999652 0.195251 0.792494
1.00321 -0.224464 1.0011
1.00168 -0.0555453 1.07236
1.00189 -0.191652 0.895565
0.997754 -0.00767208 0.81112
0.997908 -0.276732 0.508616
1.00313 -0.259467 0.510736
1.00273 -0.0163953 0.976659
1.00195 0.193676 0.89975
1.00213 -0.0588966 0.887887
0.996194 0.236809 0.980799
1.00775 0.0341852 0.875749
0.997931 0.253976 0.803881
1.00604 0.24629 0.618184
0.993052 0.0346656 0.842405
1.00261 -0.0338589 0.665953
0.995486 0.0855628 1.04793
1.00287 -0.0422026 0.810851
0.997706 -0.206874 0.869151
1.00681 0.0860435 0.977252
1.00338 0.141661 0.880539
1.00025 0.225918 1.03629
0.996592 0.00169652 0.955136
0.996233 -0.164387 0.505987
0.998699 -0.197791 0.706114
0.999769 0.126572 0.794429
0.99917 0.151108 0.687429
1.0025 -0.281019 0.809805
0.99714 -0.246189 0.76663
0.996126 0.17896 0.54141
1.00252 0.143596 0.609996
0.996077 0.154003 1.061
0.998409 0.195341 0.880133
1.00084 0.133379 1.02099
0.999335 0.273384 0.950573
0.999801 -0.0278959 1.00724
0.999805 -0.213456 0.885869
0.998898 0.0973957 0.860081
0.998892 -0.068634 0.739499
0.999285 0.138902 1.03522
0.998134 -0.0693742 0.582731
0.999385 -0.0658457 0.728834
0.999891 0.293466 0.857905
1.00069 -0.0658941 0.550771
1.00434 -0.13646 0.593168
1.00344 -0.0946693 0.826816
0.997477 -0.0616535 0.861118
1.00553 0.276536 1.03058
1.00061 -0.249361 0.912249
0.996134 0.0380877 0.885745
0.999038 0.041021 0.779617
1.0007 -0.290167 0.766701
1.00402 0.263077 1.02355
1.00021 -0.0619872 0.954554
0.996824 -0.0882197 0.765893
0.998996 -0.25612 0.901131
1.00285 -0.208426 0.719334
0.999443 -0.0594408 0.677045
0.998062 -0.298263 0.985026
1.00527 0.30692 0.503748
1.00078 0.1843 0.554585
0.995439 0.0204286 0.508369
1.0001 0.0171818 0.549416
1.00034 0.0568503 1.09571
1.0023 -0.166292 0.964259
1.00268 0.0248072 0.834368
1.00241 -0.039183 0.891411
0.997616 0.125051 0.825657
1.00346 -0.215563 0.618469
1.00583 -0.155028 0.740729
1.00073 -0.268064 0.719219
0.997817 -0.111147 1.08467
0.999366 -0.21118 0.595136
0.997273 0.127743 0.785639
0.99285 -0.108841 0.736071
0.998187 -0.209972 0.639188
1.00349 -0.23863 0.891972
1.00329 0.0378941 0.825828
0.999821 0.0136355 0.718436
1.00505 0.18169 0.506472
1.00142 -0.160931 1.04904
0.999699 -0.0901947 0.899039
1.00275 0.0825166 1.05339
1.00032 0.268474 0.790082
1.00346 0.229531 0.927292
0.997848 0.0066032 0.690319
0.998448 0.275774 0.584691
1.00719 0.106447 1.00595
1.00043 0.104412 0.921431
1.00295 -0.168975 0.581044
1.00199 -0.0144291 0.6672
0.994879 0.208659 0.797938
1.00213 -0.20675 0.676299
1.00169 -0.278794 0.951692
1.00537 -0.237848 0.553495
1.00091 -0.214843 0.675459
0.997586 0.0403375 1.0699
0.993334 -0.173432 0.625297
0.999858 0.177376 0.733066
1.00019 0.194969 0.748109
1.00005 -0.000291345 0.712188
1.00239 0.195222 0.54892
0.997842 0.287382 0.596394
0.998827 -0.266488 0.88285
1.00048 -0.146654 0.68384
0.996518 0.208699 0.583106
1.00373 0.151249 0.563018
0.998598 0.206159 0.608782
0.998465 -0.13122 0.900601
0.997094 0.137238 0.955148
1.00296 -0.0858545 0.828614
1.00123 -0.195169 0.84396
0.995544 -0.0835245 0.700392
0.99829 0.301499 0.633128
1.00112 -0.0426651 0.963238
1.00436 -0.00497124 0.936407
1.00011 0.124097 0.805696
1.00145 0.0363335 0.742853
0.999567 0.065075 0.66498
1.00131 0.0229593 0.92269
1.00457 0.251236 0.865564
1.00161 0.186194 0.907403
0.998148 0.244255 0.933745
0.996555 0.0635265 0.847389
1.00389 -0.142013 1.09567
0.996807 -0.0433158 1.01348
0.997373 -0.0807528 1.03611
1.00162 -0.154907 0.860369
1.00453 -0.17642 0.963003
0.994795 0.219268 0.723193
1.00204 -0.284316 0.699231
1.00044 -0.222245 0.893389
1.00269 0.0230089 0.967598
0.998563 -0.256938 0.526625
0.999876 0.202995 0.763395
0.996383 -0.0481862 0.969729
0.995479 -0.195467 0.942251
1.00159 0.163967 0.647079
0.997232 0.194358 0.795447
1.00299 -0.180856 0.523461
1.00022 -0.280045 0.734819
1.00617 0.2742 0.803793
0.995998 -0.122991 0.994028
0.999366 -0.190739 0.936829
0.999454 -0.195176 0.939504
0.997498 0.19231 0.938705
0.998801 0.0937149 0.719735
0.996353 0.0359252 0.963924
1.00605 -0.174853 0.718649
1.00166 -0.293442 0.620924
1.00049 0.14605 1.06426
1.00552 0.143116 1.07435
0.999781 0.147275 0.809281
1.00179 0.190489 0.688821
0.99957 -0.225046 1.07226
0.997321 0.255405 0.872059
1.00719 0.300321 0.790278
0.997882 -0.0241794 1.05371
0.998335 0.0185123 0.783706
1.00232 0.284314 0.874168
1.00255 0.144261 0.743279
1.0019 0.232301 0.98281
0.997775 0.20531 0.847104
1.00337 -0.274561 0.717252
1.00464 -0.0480818 1.02184
1.00384 -0.00114862 0.681602
0.998624 0.074211 0.80715
0.997501 -0.172163 0.553789
1.0031 0.130934 0.887946
1.00099 0.117032 1.09104
0.999926 -0.199516 1.06248
0.997285 -0.248754 0.848027
1.00142 0.1656 0.645307
0.9963 -0.00256144 0.876091
0.998592 0.161354 0.922783
0.999665 -0.20124 1.01238
1.00519 0.300179 0.74135
1.00122 0.0426106 0.561026
0.99736 0.235584 0.531249
1.00024 0.0909828 0.528239
1.00082 0.17197 0.782168
0.999743 -0.154733 0.719413
0.998714 0.284489 0.572705
1.00263 0.16749 0.518204
0.995552 0.274963 0.912187
1.00224 0.0325273 0.882992
1.00409 -0.0972579 0.551332
0.999137 0.177663 0.646124
0.994915 -0.283614 0.780757
0.999037 0.2725 0.827795
1.00332 0.263084 0.820057
1.00137 -0.25398 0.743041
0.9973 0.279252 1.0268
0.999991 0.163398 0.898518
1.00323 0.227769 0.961405
1.0024 0.234915 0.8959
0.997281 0.236606 0.529654
1.00194 -0.160709 0.693753
0.995035 -0.208384 0.80568
1.00208 0.118714 0.551012
0.999314 -0.289716 0.556366
0.999538 -0.28343 0.538368
1.00172 0.290799 0.654034
0.997787 -0.061266 1.05848
0.998475 -0.291051 0.608514
0.999256 -0.124137 0.944793
1.00154 0.29198 0.580246
0.994149 -0.153871 0.83189
1.00691 0.108954 0.953833
1.00232 0.272058 0.911215
0.996608 -0.00926108 1.00104
1.00031 0.0070868 0.704879
0.996989 0.294915 0.51463
0.998614 0.120197 0.958658
0.999957 0.015392 1.09127
0.999317 0.120795 0.557363
1.00248 -0.148898 0.904477
0.99928 -0.255414 0.781161
1.0009 -0.29398 0.842191
1.00352 0.254136 0.652146
0.997391 0.159261 0.747736
1.00263 0.183968 0.883666
1 -0.210727 0.708081
0.999024 0.149536 0.821348
0.996072 0.180685 0.839871
1.00077 0.252051 0.862161
0.99926 0.0809385 0.971752
1.00254 0.27368 0.737367
0.999992 -0.169259 0.557884
1.00198 0.14788 1.01008
0.999894 -0.165961 0.788025
1.00017 -0.19863 0.99215
0.999603 -0.0197069 0.520137
1.00418 -0.209882 1.03519
0.996401 -0.034069 0.5441
0.999337 0.0477926 0.815075
1.00185 -0.060776 0.649407
0.996604 -0.241464 0.644882
0.9947 0.0753753 0.938793
1.00577 0.165413 0.669116
1.00154 -0.154602 0.586982
1.00459 -0.107887 0.9382
1.00038 -0.0917985 0.747131
0.99841 0.215357 1.02561
0.998971 0.122073 0.636753
0.999912 -0.222507 0.785539
1.00322 -0.0489865 0.639298
0.997937 -0.0719307 0.793228
0.995726 -0.246245 0.592374
1.00264 -0.212642 0.640005
1.00479 -0.218557 0.91766
0.999233 -0.0355003 0.586864
0.995496 -0.144822 0.805282
1.00024 0.117776 0.549814
0.999999 -0.303511 0.686602
0.999897 0.142241 0.545777
0.996538 0.136366 0.560995
1.00244 -0.0817737 0.906214
0.996172 -0.202784 0.568474
1.00239 0.254233 0.676458
1.00001 0.190471 0.892979
1.00279 0.172606 0.814681
0.996814 0.0888019 0.802826
0.999467 -0.151794 0.77118
0.99834 0.0541222 0.805724
1.00023 0.203133 0.735527
0.999981 -0.300928 1.00345
0.995158 -0.165421 1.08293
0.99787 0.121228 0.854173
1.00081 -0.0856937 0.732874
1.00182 -0.0731482 0.975268
1.00515 0.284271 0.766273
0.996725 0.122615 0.935828
1.0028 0.254081 1.08195
0.998127 0.182949 0.674129
0.997353 0.283571 1.01605
0.997635 -0.236146 0.725835
0.999984 -0.206209 0.747832
0.995622 0.102543 0.507195
1.00207 -0.000974166 1.03135
1.00199 -0.103102 0.971558
1.00397 0.267921 0.860061
0.997081 -0.0196558 0.937079
0.99866 0.159152 0.925663
1.00255 0.0497998 0.989798
1.00607 -0.213496 0.710917
1.00009 -0.103915 1.0612
0.998631 0.115806 0.622349
1.002 0.221471 1.02147
0.999302 -0.1355 0.558834
1.0021 -0.120256 0.624747
1.0051 -0.18534 0.951469
0.997999 0.0640551 1.06737
1.00151 0.151847 1.00802
1.00102 0.168698 0.809487
1.0005 -0.154928 0.827341
1.00227 0.0836474 0.62028
1.0024 -0.000458974 0.687598
1.0001 0.104436 0.983443
1.00516 0.178238 0.678048
0.994295 0.0894562 0.848305
0.995317 -0.287739 0.864767
1.00385 0.00862207 0.805433
0.994997 -0.107743 0.899069
0.99803 0.181677 1.10453
0.999082 -0.147101 0.934888
1.00161 -0.061809 0.852354
1.00289 -0.0716201 0.694541
0.998713 0.0714458 0.793323
1.00335 -0.180101 0.91155
0.996691 -0.264944 0.657338
1.0006 0.167412 0.692685
0.99151 0.183647 0.959393
0.999818 -0.15827 0.704621
