ply
format ascii 1.0
comment Created by Open3D
element vertex 1742
property double x
property double y
property double z
end_header
0.987697 0.0368577 0.981978
0.987643 0.0346075 0.981985
0.987589 0.0323573 0.981992
0.987535 0.030107 0.981999
0.987481 0.0278568 0.982006
0.987428 0.0256066 0.982013
0.987374 0.0233564 0.98202
0.98732 0.0211062 0.982027
0.987266 0.0188559 0.982034
0.987212 0.0166057 0.982041
0.987159 0.0143555 0.982048
0.986079 0.0122775 0.982163
0.986026 0.0100291 0.98217
0.985972 0.00778059 0.982177
0.984893 0.00570965 0.982292
0.984839 0.00346294 0.982299
0.984785 0.00121623 0.982306
0.984732 -0.0010305 0.982313
0.984678 -0.00327721 0.98232
0.984624 -0.00552392 0.982327
0.983545 -0.00758258 0.982442
0.983492 -0.00982755 0.982449
0.983438 -0.0120725 0.982456
0.983384 -0.0143175 0.982463
0.982306 -0.0163674 0.982578
0.982252 -0.0186106 0.982585
0.982199 -0.0208538 0.982592
0.98112 -0.0228967 0.982706
0.981067 -0.0251381 0.982713
0.981013 -0.0273796 0.98272
0.980959 -0.029621 0.982727
0.980906 -0.0318625 0.982734
0.980852 -0.0341039 0.982741
0.979774 -0.0361345 0.982856
0.979721 -0.0383742 0.982863
0.979667 -0.0406139 0.98287
0.978589 -0.0426375 0.982985
0.978536 -0.0448755 0.982992
0.978482 -0.0471134 0.982999
0.97638 -0.0489086 0.983221
0.976327 -0.0511431 0.983228
0.976273 -0.0533775 0.983235
0.97622 -0.0556119 0.983242
0.975142 -0.057618 0.983357
0.975089 -0.0598507 0.983364
0.975036 -0.0620833 0.983371
0.973958 -0.0640824 0.983486
0.973905 -0.0663133 0.983493
0.973852 -0.0685442 0.983499
0.972774 -0.0705363 0.983614
0.972721 -0.0727654 0.983621
0.972668 -0.0749946 0.983628
0.971591 -0.0769796 0.983743
0.971538 -0.079207 0.98375
0.971484 -0.0814345 0.983757
0.96836 -0.0829136 0.984087
0.968307 -0.0851357 0.984094
0.968254 -0.0873579 0.984101
0.968201 -0.0895801 0.984108
0.967124 -0.0915458 0.984222
0.967071 -0.0937662 0.984229
0.967018 -0.0959866 0.984236
0.964919 -0.0976836 0.984458
0.964866 -0.0999005 0.984465
0.964813 -0.102117 0.984472
0.962713 -0.1038 0.984695
0.96266 -0.106014 0.984701
0.962607 -0.108227 0.984708
0.959485 -0.109624 0.985038
0.959432 -0.111832 0.985045
0.95938 -0.11404 0.985052
0.956258 -0.115416 0.985382
0.956206 -0.117619 0.985389
0.956153 -0.119821 0.985396
0.9561 -0.122024 0.985403
0.952979 -0.123374 0.985732
0.952927 -0.125571 0.985739
0.952874 -0.127769 0.985746
0.949754 -0.129097 0.986076
0.949701 -0.131289 0.986083
0.949649 -0.133482 0.98609
0.947552 -0.135084 0.986312
0.947499 -0.137273 0.986318
0.947447 -0.139462 0.986325
0.944328 -0.14075 0.986655
0.944275 -0.142933 0.986662
0.944223 -0.145117 0.986668
0.941104 -0.146384 0.986998
0.941052 -0.148562 0.987005
0.941 -0.15074 0.987012
0.93686 -0.151675 0.987449
0.936808 -0.153847 0.987456
0.936756 -0.156018 0.987462
0.936704 -0.158189 0.987469
0.933586 -0.159407 0.987799
0.933534 -0.161573 0.987805
0.933483 -0.163739 0.987812
0.930365 -0.164936 0.988141
0.930314 -0.167097 0.988148
0.930262 -0.169257 0.988155
0.927145 -0.170433 0.988484
0.927094 -0.172589 0.988491
0.927042 -0.174744 0.988498
0.923926 -0.175899 0.988827
0.923875 -0.178049 0.988834
0.923823 -0.180199 0.98884
0.920707 -0.181333 0.98917
0.920656 -0.183478 0.989176
0.920605 -0.185623 0.989183
0.920554 -0.187768 0.989189
0.917439 -0.188875 0.989519
0.917387 -0.191015 0.989525
0.917336 -0.193155 0.989532
0.914222 -0.194241 0.989861
0.914171 -0.196375 0.989868
0.91412 -0.19851 0.989874
0.911005 -0.199575 0.990203
0.910955 -0.201704 0.99021
0.910904 -0.203833 0.990217
0.908811 -0.205239 0.990438
0.90876 -0.207365 0.990445
0.908709 -0.209491 0.990451
0.905596 -0.210516 0.99078
0.905545 -0.212636 0.990787
0.905495 -0.214756 0.990793
0.905444 -0.216877 0.9908
0.902332 -0.217875 0.991129
0.902281 -0.219991 0.991135
0.90223 -0.222106 0.991142
0.899118 -0.223083 0.991471
0.899068 -0.225193 0.991477
0.899018 -0.227303 0.991484
0.895906 -0.22826 0.991812
0.895856 -0.230364 0.991819
0.895805 -0.232469 0.991825
0.892694 -0.233404 0.992154
0.892644 -0.235504 0.992161
0.892594 -0.237603 0.992167
0.889484 -0.238517 0.992496
0.889434 -0.240612 0.992502
0.889383 -0.242706 0.992509
0.889333 -0.2448 0.992515
0.887243 -0.24609 0.992736
0.887193 -0.248181 0.992743
0.887143 -0.250271 0.992749
0.884034 -0.25114 0.993078
0.883984 -0.253225 0.993084
0.883934 -0.255311 0.993091
0.881845 -0.256571 0.993312
0.881795 -0.258653 0.993318
0.886305 0.348379 0.990484
0.886256 0.346313 0.99049
0.886206 0.344247 0.990497
0.888219 0.342366 0.990282
0.88817 0.340296 0.990289
0.88812 0.338227 0.990295
0.891164 0.336419 0.98997
0.891114 0.334344 0.989976
0.891064 0.332269 0.989983
0.891015 0.330195 0.989989
0.894058 0.328361 0.989664
0.894008 0.326281 0.989671
0.893958 0.324201 0.989677
0.897001 0.322346 0.989352
0.896951 0.32026 0.989359
0.896901 0.318175 0.989365
0.899943 0.316299 0.98904
0.899893 0.314208 0.989047
0.899843 0.312118 0.989053
0.902884 0.310221 0.988728
0.902834 0.308125 0.988735
0.902784 0.306029 0.988741
0.905825 0.304111 0.988417
0.905774 0.302009 0.988423
0.905724 0.299908 0.98843
0.908765 0.297969 0.988105
0.908714 0.295863 0.988112
0.908664 0.293756 0.988118
0.908614 0.29165 0.988125
0.911653 0.289684 0.9878
0.911603 0.287573 0.987807
0.911552 0.285461 0.987813
0.914592 0.283475 0.987489
0.914541 0.281358 0.987495
0.91449 0.279241 0.987502
0.918559 0.27727 0.987067
0.918508 0.275146 0.987074
0.918457 0.273022 0.98708
0.921495 0.270991 0.986756
0.921444 0.268862 0.986762
0.921394 0.266733 0.986769
0.924431 0.264682 0.986445
0.92438 0.262547 0.986451
0.924329 0.260413 0.986458
0.928396 0.258361 0.986023
0.928344 0.256219 0.98603
0.928293 0.254078 0.986037
0.932359 0.251998 0.985602
0.932308 0.24985 0.985609
0.932256 0.247701 0.985616
0.932205 0.245553 0.985622
0.93627 0.243438 0.985188
0.936219 0.241282 0.985195
0.936167 0.239127 0.985201
0.940232 0.236984 0.984767
0.94018 0.234821 0.984774
0.940128 0.232659 0.98478
0.944192 0.230488 0.984346
0.94414 0.228318 0.984353
0.944088 0.226148 0.98436
0.948151 0.223949 0.983926
0.948099 0.221773 0.983932
0.948047 0.219596 0.983939
0.952109 0.217369 0.983505
0.952057 0.215186 0.983512
0.952005 0.213002 0.983519
0.955038 0.210765 0.983195
0.954986 0.208576 0.983202
0.954934 0.206387 0.983209
0.957966 0.204129 0.982885
0.957914 0.201934 0.982892
0.957861 0.19974 0.982899
0.957809 0.197546 0.982905
0.960841 0.195262 0.982582
0.960788 0.193062 0.982589
0.960736 0.190863 0.982595
0.962739 0.188593 0.982382
0.962687 0.18639 0.982389
0.962634 0.184187 0.982396
0.964637 0.181903 0.982182
0.964584 0.179696 0.982189
0.964532 0.17749 0.982196
0.966534 0.175192 0.981983
0.966482 0.172982 0.981989
0.966429 0.170772 0.981996
0.968431 0.168459 0.981783
0.968378 0.166246 0.98179
0.968325 0.164033 0.981797
0.971355 0.16165 0.981474
0.971302 0.159431 0.98148
0.971249 0.157212 0.981487
0.971196 0.154994 0.981494
0.974225 0.152585 0.981171
0.974172 0.150361 0.981178
0.974119 0.148137 0.981185
0.977147 0.145706 0.980862
0.977094 0.143477 0.980868
0.977041 0.141248 0.980875
0.979042 0.138871 0.980662
0.978988 0.136638 0.980669
0.978935 0.134406 0.980676
0.980936 0.132014 0.980463
0.980882 0.129778 0.98047
0.980829 0.127542 0.980477
0.982829 0.125137 0.980264
0.982775 0.122897 0.980271
0.982722 0.120657 0.980278
0.983695 0.118328 0.980175
0.983642 0.116086 0.980182
0.983588 0.113845 0.980189
0.984561 0.111508 0.980086
0.984507 0.109265 0.980093
0.984454 0.107022 0.9801
0.9844 0.104779 0.980107
0.985373 0.102433 0.980004
0.985319 0.100188 0.980011
0.985266 0.0979433 0.980018
0.986238 0.095591 0.979915
0.986185 0.0933443 0.979922
0.986131 0.0910975 0.979929
0.986077 0.0888508 0.979936
0.986023 0.0866041 0.979943
0.98597 0.0843574 0.97995
0.986942 0.0819928 0.979847
0.986888 0.0797443 0.979854
0.986834 0.0774959 0.979861
0.986781 0.0752474 0.979868
0.986727 0.0729989 0.979875
0.986673 0.0707505 0.979882
0.987645 0.0683736 0.979779
0.987591 0.0661233 0.979786
0.987538 0.0638731 0.979793
0.987484 0.0616229 0.9798
0.98743 0.0593727 0.979807
0.987376 0.0571225 0.979814
0.987322 0.0548722 0.97982
0.987269 0.052622 0.979827
0.987215 0.0503718 0.979834
0.987161 0.0481216 0.979841
0.987107 0.0458713 0.979848
0.987053 0.0436211 0.979855
0.987 0.0413709 0.979862
0.986946 0.0391207 0.979869
0.986892 0.0368705 0.979876
0.986838 0.0346202 0.979883
0.986784 0.03237 0.97989
0.986731 0.0301198 0.979897
0.986677 0.0278696 0.979904
0.986623 0.0256193 0.979911
0.986569 0.0233691 0.979918
0.986515 0.0211189 0.979925
0.986462 0.0188687 0.979932
0.986408 0.0166184 0.979939
0.986354 0.0143682 0.979946
0.985275 0.0122903 0.980063
0.985222 0.0100418 0.98007
0.985168 0.00779331 0.980077
0.984089 0.00572235 0.980193
0.984036 0.00347564 0.9802
0.983982 0.00122893 0.980207
0.983928 -0.00101779 0.980214
0.983875 -0.0032645 0.980221
0.983821 -0.00551121 0.980228
0.982743 -0.00756989 0.980345
0.982689 -0.00981486 0.980352
0.982635 -0.0120598 0.980359
0.982582 -0.0143048 0.980366
0.981504 -0.0163547 0.980482
0.98145 -0.0185979 0.980489
0.981396 -0.0208411 0.980496
0.980319 -0.022884 0.980613
0.980265 -0.0251254 0.98062
0.980211 -0.0273669 0.980626
0.980158 -0.0296084 0.980633
0.980104 -0.0318498 0.98064
0.980051 -0.0340913 0.980647
0.978973 -0.0361219 0.980764
0.97892 -0.0383616 0.980771
0.978866 -0.0406013 0.980778
0.977789 -0.0426249 0.980894
0.977735 -0.0448628 0.980901
0.977682 -0.0471008 0.980908
0.975581 -0.048896 0.981134
0.975528 -0.0511304 0.981141
0.975474 -0.0533649 0.981148
0.975421 -0.0555993 0.981155
0.974344 -0.0576054 0.981271
0.974291 -0.059838 0.981278
0.974237 -0.0620707 0.981285
0.97316 -0.0640698 0.981402
0.973107 -0.0663007 0.981408
0.973054 -0.0685316 0.981415
0.971977 -0.0705237 0.981532
0.971924 -0.0727528 0.981539
0.971871 -0.074982 0.981546
0.970794 -0.076967 0.981662
0.970741 -0.0791944 0.981669
0.970688 -0.0814219 0.981676
0.967566 -0.082901 0.982011
0.967512 -0.0851232 0.982018
0.967459 -0.0873453 0.982025
0.967406 -0.0895675 0.982032
0.96633 -0.0915332 0.982148
0.966277 -0.0937536 0.982155
0.966224 -0.095974 0.982162
0.964126 -0.097671 0.982387
0.964073 -0.099888 0.982394
0.96402 -0.102105 0.982401
0.961922 -0.103788 0.982627
0.961869 -0.106001 0.982634
0.961816 -0.108215 0.982641
0.958696 -0.109611 0.982976
0.958643 -0.111819 0.982982
0.95859 -0.114028 0.982989
0.955471 -0.115403 0.983324
0.955418 -0.117606 0.983331
0.955365 -0.119809 0.983338
0.955312 -0.122012 0.983345
0.952193 -0.123361 0.98368
0.952141 -0.125559 0.983686
0.952088 -0.127756 0.983693
0.94897 -0.129085 0.984028
0.948917 -0.131277 0.984035
0.948865 -0.133469 0.984042
0.946769 -0.135072 0.984267
0.946717 -0.137261 0.984274
0.946664 -0.139449 0.98428
0.943547 -0.140737 0.984615
0.943495 -0.142921 0.984622
0.943442 -0.145105 0.984629
0.940325 -0.146371 0.984963
0.940273 -0.14855 0.98497
0.940221 -0.150728 0.984977
0.936083 -0.151663 0.985421
0.936031 -0.153834 0.985427
0.935979 -0.156006 0.985434
0.935927 -0.158177 0.985441
0.932812 -0.159395 0.985775
0.93276 -0.161561 0.985782
0.932708 -0.163727 0.985789
0.929593 -0.164924 0.986123
0.929541 -0.167084 0.98613
0.929489 -0.169245 0.986136
0.926374 -0.170421 0.986471
0.926323 -0.172576 0.986477
0.926271 -0.174732 0.986484
0.923157 -0.175887 0.986818
0.923106 -0.178037 0.986825
0.923054 -0.180187 0.986832
0.91994 -0.181321 0.987166
0.919889 -0.183466 0.987172
0.919838 -0.185611 0.987179
0.919787 -0.187756 0.987186
0.916673 -0.188863 0.98752
0.916622 -0.191003 0.987526
0.916571 -0.193143 0.987533
0.913458 -0.194229 0.987867
0.913407 -0.196363 0.987874
0.913356 -0.198498 0.98788
0.910244 -0.199563 0.988214
0.910193 -0.201692 0.988221
0.910142 -0.203821 0.988228
0.908051 -0.205227 0.988452
0.908 -0.207353 0.988459
0.907949 -0.209479 0.988465
0.904838 -0.210504 0.988799
0.904787 -0.212624 0.988806
0.904736 -0.214744 0.988812
0.904686 -0.216865 0.988819
0.901575 -0.217863 0.989153
0.901525 -0.219979 0.989159
0.901474 -0.222094 0.989166
0.898364 -0.223071 0.9895
0.898313 -0.225181 0.989506
0.898263 -0.227291 0.989513
0.895153 -0.228248 0.989846
0.895103 -0.230352 0.989853
0.895053 -0.232457 0.989859
0.891944 -0.233392 0.990193
0.891893 -0.235492 0.990199
0.891843 -0.237591 0.990206
0.888735 -0.238506 0.990539
0.888685 -0.2406 0.990546
0.888635 -0.242694 0.990552
0.888584 -0.244788 0.990559
0.886496 -0.246078 0.990783
0.886446 -0.248169 0.99079
0.886396 -0.250259 0.990796
0.883288 -0.251128 0.99113
0.883238 -0.253214 0.991136
0.883189 -0.255299 0.991143
0.881101 -0.256559 0.991367
0.881051 -0.258641 0.991373
0.885566 0.348391 0.988554
0.885517 0.346325 0.98856
0.885467 0.344258 0.988567
0.887479 0.342378 0.988349
0.887429 0.340308 0.988355
0.88738 0.338238 0.988362
0.890422 0.336431 0.988032
0.890372 0.334356 0.988038
0.890322 0.332281 0.988045
0.890273 0.330206 0.988051
0.893314 0.328372 0.987721
0.893264 0.326292 0.987728
0.893214 0.324212 0.987734
0.896255 0.322357 0.987404
0.896205 0.320272 0.987411
0.896155 0.318187 0.987417
0.899195 0.316311 0.987087
0.899145 0.31422 0.987094
0.899095 0.312129 0.9871
0.902135 0.310232 0.986771
0.902085 0.308136 0.986777
0.902034 0.306041 0.986784
0.905073 0.304123 0.986454
0.905023 0.302021 0.98646
0.904973 0.29992 0.986467
0.908011 0.297981 0.986137
0.907961 0.295875 0.986144
0.907911 0.293768 0.98615
0.90786 0.291662 0.986157
0.910898 0.289696 0.985827
0.910848 0.287585 0.985834
0.910797 0.285473 0.985841
0.913834 0.283487 0.985511
0.913784 0.28137 0.985518
0.913733 0.279253 0.985524
0.917799 0.277282 0.985083
0.917748 0.275158 0.98509
0.917698 0.273034 0.985096
0.920734 0.271003 0.984767
0.920683 0.268874 0.984773
0.920632 0.266745 0.98478
0.923668 0.264694 0.984451
0.923617 0.262559 0.984457
0.923566 0.260425 0.984464
0.92763 0.258373 0.984023
0.927579 0.256232 0.98403
0.927527 0.25409 0.984036
0.931591 0.25201 0.983595
0.93154 0.249862 0.983602
0.931488 0.247713 0.983609
0.931437 0.245565 0.983615
0.935499 0.24345 0.983174
0.935448 0.241294 0.983181
0.935396 0.239139 0.983188
0.939458 0.236996 0.982747
0.939406 0.234833 0.982754
0.939355 0.232671 0.98276
0.943416 0.2305 0.98232
0.943364 0.22833 0.982326
0.943312 0.226161 0.982333
0.947373 0.223962 0.981892
0.947321 0.221785 0.981899
0.947269 0.219609 0.981906
0.951328 0.217381 0.981465
0.951276 0.215198 0.981472
0.951224 0.213014 0.981479
0.954255 0.210777 0.98115
0.954203 0.208588 0.981157
0.954151 0.206399 0.981164
0.957182 0.204141 0.980835
0.957129 0.201947 0.980842
0.957077 0.199753 0.980849
0.957024 0.197559 0.980856
0.960054 0.195274 0.980527
0.960002 0.193075 0.980534
0.959949 0.190875 0.980541
0.961952 0.188605 0.980324
0.961899 0.186402 0.980331
0.961846 0.184199 0.980338
0.963848 0.181915 0.980121
0.963795 0.179709 0.980128
0.963743 0.177502 0.980135
0.965744 0.175204 0.979918
0.965691 0.172994 0.979925
0.965638 0.170784 0.979932
0.96764 0.168472 0.979715
0.967587 0.166259 0.979722
0.967534 0.164045 0.979729
0.970562 0.161662 0.979401
0.970509 0.159444 0.979408
0.970456 0.157225 0.979415
0.970403 0.155006 0.979422
0.97343 0.152597 0.979093
0.973377 0.150373 0.9791
0.973324 0.148149 0.979107
0.97635 0.145719 0.978779
0.976297 0.14349 0.978786
0.976244 0.141261 0.978793
0.978243 0.138883 0.978577
0.97819 0.136651 0.978584
0.978137 0.134418 0.97859
0.980136 0.132027 0.978374
0.980083 0.129791 0.978381
0.980029 0.127554 0.978388
0.982028 0.125149 0.978172
0.981975 0.122909 0.978179
0.981921 0.12067 0.978186
0.982894 0.11834 0.978081
0.98284 0.116099 0.978088
0.982786 0.113857 0.978095
0.983759 0.111521 0.97799
0.983705 0.109278 0.977997
0.983652 0.107034 0.978004
0.983598 0.104791 0.978011
0.98457 0.102446 0.977907
0.984516 0.100201 0.977914
0.984463 0.097956 0.977921
0.985435 0.0956037 0.977816
0.985381 0.093357 0.977823
0.985327 0.0911103 0.97783
0.985274 0.0888635 0.977837
0.98522 0.0866168 0.977844
0.985166 0.0843701 0.977851
0.986138 0.0820055 0.977746
0.986084 0.079757 0.977753
0.98603 0.0775086 0.97776
0.985977 0.0752601 0.977767
0.985923 0.0730116 0.977774
0.985869 0.0707632 0.977781
0.986841 0.0683863 0.977677
0.986787 0.0661361 0.977684
0.986733 0.0638859 0.977691
0.986679 0.0616356 0.977697
0.986625 0.0593854 0.977704
0.986572 0.0571352 0.977711
0.986518 0.054885 0.977718
0.986464 0.0526347 0.977725
0.98641 0.0503845 0.977732
0.986356 0.0481343 0.977739
0.986302 0.0458841 0.977746
0.986249 0.0436338 0.977753
0.986195 0.0413836 0.97776
0.986141 0.0391334 0.977767
0.986087 0.0368832 0.977774
0.986033 0.034633 0.977781
0.98598 0.0323827 0.977788
0.985926 0.0301325 0.977795
0.985872 0.0278823 0.977802
0.985818 0.0256321 0.977809
0.985764 0.0233818 0.977816
0.985711 0.0211316 0.977823
0.985657 0.0188814 0.97783
0.985603 0.0166312 0.977837
0.985549 0.0143809 0.977844
0.984471 0.012303 0.977962
0.984417 0.0100545 0.977969
0.984364 0.00780602 0.977976
0.983286 0.00573506 0.978094
0.983232 0.00348835 0.978101
0.983179 0.00124164 0.978108
0.983125 -0.00100509 0.978115
0.983071 -0.0032518 0.978122
0.983017 -0.00549851 0.978129
0.98194 -0.00755719 0.978248
0.981886 -0.00980216 0.978254
0.981832 -0.0120471 0.978261
0.981779 -0.0142921 0.978268
0.980702 -0.016342 0.978387
0.980648 -0.0185852 0.978394
0.980594 -0.0208284 0.9784
0.979517 -0.0228713 0.978519
0.979463 -0.0251128 0.978526
0.97941 -0.0273542 0.978533
0.979356 -0.0295957 0.97854
0.979303 -0.0318371 0.978546
0.979249 -0.0340786 0.978553
0.978172 -0.0361092 0.978672
0.978119 -0.0383489 0.978679
0.978065 -0.0405886 0.978685
0.976989 -0.0426122 0.978804
0.976935 -0.0448502 0.978811
0.976882 -0.0470881 0.978817
0.974782 -0.0488833 0.979047
0.974729 -0.0511178 0.979054
0.974675 -0.0533522 0.979061
0.974622 -0.0555867 0.979068
0.973545 -0.0575927 0.979186
0.973492 -0.0598254 0.979193
0.973439 -0.0620581 0.979199
0.972363 -0.0640571 0.979318
0.972309 -0.0662881 0.979324
0.972256 -0.068519 0.979331
0.97118 -0.0705111 0.979449
0.971127 -0.0727402 0.979456
0.971073 -0.0749694 0.979463
0.969998 -0.0769544 0.979581
0.969944 -0.0791818 0.979588
0.969891 -0.0814093 0.979595
0.966771 -0.0828884 0.979935
0.966718 -0.0851106 0.979942
0.966665 -0.0873328 0.979949
0.966611 -0.089555 0.979956
0.964514 -0.0912642 0.980185
0.964461 -0.0934829 0.980192
0.964408 -0.0957015 0.980199
0.962311 -0.0973968 0.980428
0.962258 -0.099612 0.980434
0.962205 -0.101827 0.980441
0.960108 -0.103508 0.98067
0.960055 -0.10572 0.980677
0.960002 -0.107932 0.980684
0.956884 -0.109327 0.981024
0.956832 -0.111533 0.981031
0.956779 -0.113739 0.981038
0.954683 -0.115391 0.981266
0.95463 -0.117594 0.981273
0.954577 -0.119797 0.98128
0.95146 -0.121151 0.98162
0.951408 -0.123349 0.981627
0.951355 -0.125546 0.981633
0.951302 -0.127744 0.98164
0.948186 -0.129072 0.98198
0.948133 -0.131265 0.981987
0.948081 -0.133457 0.981994
0.945986 -0.135059 0.982222
0.945934 -0.137248 0.982229
0.945882 -0.139437 0.982236
0.942766 -0.140725 0.982575
0.942714 -0.142909 0.982582
0.942661 -0.145092 0.982589
0.939546 -0.146359 0.982928
0.939494 -0.148537 0.982935
0.939442 -0.150716 0.982942
0.935307 -0.151651 0.983392
0.935255 -0.153822 0.983399
0.935203 -0.155993 0.983406
0.935151 -0.158165 0.983412
0.932037 -0.159383 0.983752
0.931985 -0.161549 0.983758
0.931933 -0.163715 0.983765
0.92882 -0.164911 0.984104
0.928768 -0.167072 0.984111
0.928717 -0.169233 0.984118
0.925604 -0.170409 0.984457
0.925552 -0.172564 0.984464
0.9255 -0.17472 0.98447
0.922388 -0.175875 0.98481
0.922337 -0.178025 0.984816
0.922285 -0.180175 0.984823
0.919173 -0.181309 0.985162
0.919122 -0.183454 0.985169
0.919071 -0.185599 0.985175
0.919019 -0.187744 0.985182
0.915908 -0.188851 0.985521
0.915857 -0.190991 0.985528
0.915806 -0.19313 0.985534
0.912695 -0.194217 0.985873
0.912644 -0.196351 0.98588
0.912593 -0.198486 0.985886
0.909483 -0.199551 0.986225
0.909432 -0.20168 0.986232
0.909381 -0.203809 0.986239
0.907291 -0.205215 0.986467
0.90724 -0.207341 0.986473
0.907189 -0.209467 0.98648
0.90408 -0.210492 0.986818
0.904029 -0.212612 0.986825
0.903978 -0.214732 0.986832
0.903927 -0.216853 0.986838
0.900819 -0.217852 0.987177
0.900768 -0.219967 0.987183
0.900718 -0.222082 0.98719
0.897609 -0.223059 0.987529
0.897559 -0.225169 0.987535
0.897508 -0.227279 0.987542
0.894401 -0.228236 0.98788
0.89435 -0.23034 0.987887
0.8943 -0.232445 0.987893
0.891193 -0.233381 0.988232
0.891143 -0.23548 0.988238
0.891093 -0.237579 0.988245
0.887986 -0.238494 0.988583
0.887936 -0.240588 0.98859
0.887886 -0.242682 0.988596
0.887836 -0.244776 0.988603
0.885748 -0.246066 0.98883
0.885698 -0.248157 0.988837
0.885648 -0.250248 0.988843
0.882543 -0.251116 0.989182
0.882493 -0.253202 0.989188
0.882443 -0.255287 0.989195
0.880356 -0.256547 0.989422
0.880306 -0.258629 0.989429
0.885857 0.3485 0.98651
0.885808 0.346432 0.986516
0.885758 0.344365 0.986523
0.887769 0.342482 0.986302
0.887719 0.340411 0.986308
0.88767 0.338339 0.986315
0.890709 0.33653 0.98598
0.89066 0.334453 0.985986
0.89061 0.332377 0.985993
0.89056 0.3303 0.985999
0.8936 0.328465 0.985664
0.89355 0.326383 0.985671
0.8935 0.324301 0.985677
0.896539 0.322444 0.985342
0.896489 0.320357 0.985349
0.896439 0.31827 0.985355
0.899477 0.316392 0.985021
0.899427 0.3143 0.985027
0.899377 0.312208 0.985034
0.902414 0.310309 0.984699
0.902364 0.308211 0.984706
0.902314 0.306113 0.984712
0.905351 0.304194 0.984377
0.905301 0.302091 0.984384
0.90525 0.299988 0.98439
0.908287 0.298047 0.984056
0.908237 0.295939 0.984063
0.908186 0.293831 0.984069
0.912251 0.291918 0.983621
0.9122 0.289802 0.983628
0.91215 0.287687 0.983634
0.912099 0.285572 0.983641
0.915135 0.283582 0.983306
0.915084 0.281462 0.983313
0.915033 0.279341 0.98332
0.919097 0.277367 0.982872
0.919046 0.275239 0.982878
0.918995 0.273112 0.982885
0.922029 0.271078 0.982551
0.921978 0.268945 0.982557
0.921927 0.266813 0.982564
0.924961 0.264758 0.98223
0.92491 0.26262 0.982236
0.924859 0.260482 0.982243
0.92892 0.258427 0.981795
0.928869 0.256282 0.981802
0.928818 0.254137 0.981809
0.932879 0.252053 0.981361
0.932827 0.249901 0.981368
0.932776 0.247749 0.981374
0.932724 0.245597 0.981381
0.936784 0.243479 0.980934
0.936733 0.24132 0.98094
0.936681 0.239161 0.980947
0.94074 0.237014 0.9805
0.940688 0.234848 0.980506
0.940637 0.232682 0.980513
0.944695 0.230508 0.980066
0.944643 0.228335 0.980073
0.944591 0.226162 0.980079
0.948649 0.223959 0.979632
0.948597 0.221779 0.979639
0.948545 0.219599 0.979646
0.952602 0.217369 0.979199
0.95255 0.215181 0.979205
0.952498 0.212994 0.979212
0.955527 0.210754 0.978879
0.955475 0.208561 0.978885
0.955422 0.206369 0.978892
0.958451 0.204107 0.978559
0.958399 0.201909 0.978566
0.958346 0.199712 0.978572
0.958294 0.197514 0.978579
0.961322 0.195226 0.978246
0.961269 0.193023 0.978253
0.961216 0.19082 0.978259
0.963217 0.188547 0.97804
0.963165 0.18634 0.978046
0.963112 0.184134 0.978053
0.965112 0.181846 0.977833
0.96506 0.179636 0.97784
0.965007 0.177426 0.977847
0.967007 0.175125 0.977627
0.966954 0.172911 0.977634
0.966901 0.170698 0.977641
0.968901 0.168382 0.977421
0.968848 0.166165 0.977428
0.968795 0.163948 0.977435
0.971821 0.161562 0.977102
0.971768 0.15934 0.977109
0.971715 0.157118 0.977115
0.97474 0.15471 0.976782
0.974687 0.152483 0.976789
0.974634 0.150255 0.976796
0.97458 0.148028 0.976803
0.977605 0.145594 0.97647
0.977552 0.143361 0.976477
0.977498 0.141129 0.976484
0.979497 0.138748 0.976264
0.979443 0.136512 0.976271
0.97939 0.134276 0.976278
0.981388 0.131881 0.976059
0.981334 0.129641 0.976066
0.981281 0.127402 0.976073
0.983278 0.124993 0.975853
0.983225 0.12275 0.97586
0.983171 0.120506 0.975867
0.984143 0.118173 0.975761
0.984089 0.115928 0.975768
0.984036 0.113683 0.975775
0.985007 0.111343 0.975668
0.984954 0.109097 0.975675
0.9849 0.10685 0.975682
0.984846 0.104603 0.975689
0.985818 0.102254 0.975583
0.985764 0.100006 0.97559
0.98571 0.0977575 0.975597
0.985656 0.0955091 0.975604
0.985603 0.0932606 0.975611
0.985549 0.0910121 0.975618
0.985495 0.0887636 0.975625
0.985441 0.0865152 0.975632
0.985388 0.0842667 0.975639
0.986359 0.0819004 0.975533
0.986305 0.0796501 0.97554
0.986251 0.0773999 0.975547
0.986197 0.0751497 0.975554
0.986143 0.0728995 0.975561
0.98609 0.0706493 0.975568
0.98706 0.0682706 0.975461
0.987007 0.0660187 0.975468
0.986953 0.0637667 0.975475
0.986899 0.0615147 0.975482
0.986845 0.0592627 0.975489
0.986791 0.0570108 0.975496
0.986737 0.0547588 0.975503
0.986684 0.0525068 0.97551
0.98663 0.0502548 0.975517
0.986576 0.0480028 0.975524
0.986522 0.0457509 0.975531
0.986468 0.0434989 0.975538
0.986414 0.0412469 0.975545
0.98636 0.0389949 0.975552
0.986307 0.036743 0.975559
0.986253 0.034491 0.975566
0.986199 0.032239 0.975573
0.986145 0.029987 0.97558
0.986091 0.0277351 0.975587
0.986037 0.0254831 0.975594
0.985984 0.0232311 0.975601
0.98593 0.0209791 0.975608
0.985876 0.0187271 0.975615
0.985822 0.0164752 0.975622
0.985768 0.0142232 0.975629
0.984691 0.0121434 0.975749
0.984637 0.00989322 0.975756
0.984583 0.007643 0.975763
0.983506 0.00557027 0.975883
0.983452 0.0033218 0.97589
0.983398 0.00107333 0.975897
0.983345 -0.00117513 0.975904
0.983291 -0.0034236 0.975911
0.983237 -0.00567207 0.975918
0.98216 -0.00773253 0.976037
0.982106 -0.00997924 0.976044
0.982053 -0.0122259 0.976051
0.981999 -0.0144727 0.976058
0.980922 -0.0165244 0.976178
0.980869 -0.0187693 0.976185
0.980815 -0.0210143 0.976192
0.979738 -0.0230589 0.976312
0.979685 -0.0253021 0.976319
0.979631 -0.0275454 0.976326
0.979578 -0.0297886 0.976333
0.979524 -0.0320318 0.97634
0.97947 -0.034275 0.976347
0.978394 -0.0363074 0.976467
0.97834 -0.0385488 0.976473
0.978287 -0.0407903 0.97648
0.977211 -0.0428156 0.9766
0.977157 -0.0450553 0.976607
0.977104 -0.047295 0.976614
0.975005 -0.049092 0.976847
0.974952 -0.0513282 0.976854
0.974898 -0.0535644 0.97686
0.974845 -0.0558006 0.976867
0.973769 -0.0578085 0.976987
0.973716 -0.0600429 0.976994
0.973662 -0.0622774 0.977001
0.972587 -0.0642782 0.977121
0.972533 -0.0665109 0.977128
0.97248 -0.0687435 0.977135
0.971405 -0.0707373 0.977254
0.971351 -0.0729683 0.977261
0.971298 -0.0751992 0.977268
0.969201 -0.0769418 0.9775
0.969148 -0.0791692 0.977507
0.969095 -0.0813967 0.977514
0.965976 -0.0828759 0.977859
0.965923 -0.085098 0.977866
0.96587 -0.0873202 0.977873
0.965817 -0.0895424 0.97788
0.963721 -0.0912517 0.978112
0.963668 -0.0934703 0.978119
0.963615 -0.095689 0.978126
0.961519 -0.0973843 0.978358
0.961466 -0.0995994 0.978365
0.961413 -0.101815 0.978372
0.959317 -0.103496 0.978604
0.959264 -0.105707 0.978611
0.959212 -0.107919 0.978618
0.956095 -0.109314 0.978963
0.956042 -0.11152 0.97897
0.95599 -0.113727 0.978976
0.953895 -0.115378 0.979208
0.953842 -0.117581 0.979215
0.95379 -0.119784 0.979222
0.950674 -0.121139 0.979567
0.950622 -0.123336 0.979574
0.950569 -0.125534 0.97958
0.950517 -0.127732 0.979587
0.947402 -0.12906 0.979932
0.947349 -0.131252 0.979939
0.947297 -0.133445 0.979946
0.945203 -0.135047 0.980177
0.945151 -0.137236 0.980184
0.945099 -0.139425 0.980191
0.941985 -0.140713 0.980536
0.941933 -0.142896 0.980542
0.941881 -0.14508 0.980549
0.938767 -0.146347 0.980893
0.938715 -0.148525 0.9809
0.938663 -0.150703 0.980907
0.93555 -0.151949 0.981251
0.935498 -0.154122 0.981258
0.935446 -0.156295 0.981265
0.935394 -0.158469 0.981272
0.932282 -0.159688 0.981616
0.93223 -0.161856 0.981623
0.932179 -0.164024 0.981629
0.929067 -0.165222 0.981973
0.929015 -0.167385 0.98198
0.928964 -0.169547 0.981987
0.925853 -0.170725 0.982331
0.925801 -0.172882 0.982338
0.925749 -0.175039 0.982344
0.922639 -0.176196 0.982688
0.922587 -0.178348 0.982695
0.922536 -0.1805 0.982702
0.919426 -0.181635 0.983046
0.919374 -0.183782 0.983052
0.919323 -0.185929 0.983059
0.919272 -0.188076 0.983066
0.916162 -0.189185 0.98341
0.916111 -0.191326 0.983416
0.91606 -0.193468 0.983423
0.91397 -0.194907 0.983654
0.913919 -0.197045 0.983661
0.913868 -0.199183 0.983668
0.910759 -0.200252 0.984011
0.910708 -0.202384 0.984018
0.910657 -0.204517 0.984025
0.907549 -0.205565 0.984368
0.907499 -0.207692 0.984375
0.907448 -0.20982 0.984382
0.90434 -0.210847 0.984725
0.904289 -0.212969 0.984732
0.904239 -0.215091 0.984738
0.904188 -0.217213 0.984745
0.901081 -0.218213 0.985089
0.90103 -0.22033 0.985095
0.90098 -0.222447 0.985102
0.897873 -0.223427 0.985445
0.897823 -0.225538 0.985452
0.897772 -0.22765 0.985458
0.894667 -0.228608 0.985802
0.894616 -0.230715 0.985808
0.894566 -0.232821 0.985815
0.89146 -0.233758 0.986158
0.89141 -0.23586 0.986165
0.89136 -0.237961 0.986171
0.887237 -0.238482 0.986627
0.887187 -0.240576 0.986633
0.887137 -0.24267 0.98664
0.887087 -0.244764 0.986646
0.885001 -0.246054 0.986877
0.884951 -0.248145 0.986884
0.884901 -0.250236 0.98689
0.881797 -0.251105 0.987234
0.881747 -0.25319 0.98724
0.881697 -0.255275 0.987246
0.879612 -0.256536 0.987477
0.879562 -0.258617 0.987484
0.885118 0.348512 0.984578
0.885068 0.346444 0.984585
0.885019 0.344376 0.984591
0.887028 0.342494 0.984367
0.886978 0.340422 0.984373
0.886929 0.338351 0.98438
0.889967 0.336542 0.98404
0.889917 0.334465 0.984046
0.889868 0.332389 0.984053
0.889818 0.330312 0.984059
0.892855 0.328476 0.983719
0.892805 0.326394 0.983726
0.892755 0.324313 0.983732
0.895792 0.322456 0.983393
0.895742 0.320369 0.983399
0.895692 0.318282 0.983406
0.898728 0.316404 0.983066
0.898678 0.314312 0.983072
0.898628 0.312219 0.983079
0.901664 0.310321 0.982739
0.901614 0.308223 0.982746
0.901564 0.306125 0.982752
0.904599 0.304206 0.982413
0.904549 0.302103 0.98242
0.904498 0.3 0.982426
0.907533 0.298059 0.982087
0.907483 0.295951 0.982093
0.907432 0.293843 0.9821
0.911495 0.29193 0.981645
0.911444 0.289814 0.981652
0.911393 0.287699 0.981658
0.911343 0.285584 0.981665
0.914376 0.283594 0.981326
0.914326 0.281474 0.981332
0.914275 0.279353 0.981339
0.918336 0.277379 0.980884
0.918285 0.275251 0.980891
0.918234 0.273124 0.980897
0.921267 0.27109 0.980558
0.921216 0.268957 0.980565
0.921165 0.266825 0.980572
0.924197 0.26477 0.980233
0.924145 0.262632 0.980239
0.924094 0.260494 0.980246
0.928153 0.258439 0.979792
0.928102 0.256294 0.979798
0.928051 0.254149 0.979805
0.932109 0.252065 0.979351
0.932058 0.249913 0.979357
0.932006 0.247761 0.979364
0.931955 0.245609 0.979371
0.936012 0.243491 0.978917
0.93596 0.241332 0.978924
0.935909 0.239173 0.97893
0.939966 0.237027 0.978476
0.939914 0.234861 0.978483
0.939862 0.232695 0.97849
0.943918 0.23052 0.978036
0.943866 0.228347 0.978043
0.943814 0.226174 0.978049
0.94787 0.223972 0.977596
0.947818 0.221792 0.977602
0.947765 0.219611 0.977609
0.95182 0.217381 0.977156
0.951768 0.215194 0.977162
0.951716 0.213007 0.977169
0.954743 0.210766 0.976831
0.954691 0.208574 0.976837
0.954638 0.206381 0.976844
0.957665 0.20412 0.976506
0.957613 0.201922 0.976513
0.95756 0.199724 0.976519
0.957508 0.197527 0.976526
0.960534 0.195239 0.976188
0.960481 0.193036 0.976195
0.960429 0.190833 0.976202
0.962428 0.188559 0.975978
0.962376 0.186353 0.975985
0.962323 0.184146 0.975992
0.964322 0.181859 0.975769
0.964269 0.179649 0.975776
0.964216 0.177439 0.975783
0.966215 0.175137 0.975559
0.966163 0.172924 0.975566
0.96611 0.17071 0.975573
0.968108 0.168395 0.97535
0.968055 0.166178 0.975357
0.968002 0.163961 0.975364
0.971026 0.161574 0.975026
0.970973 0.159352 0.975033
0.97092 0.15713 0.97504
0.973944 0.154723 0.974702
0.97389 0.152495 0.974709
0.973837 0.150268 0.974715
0.973784 0.14804 0.974722
0.976807 0.145607 0.974384
0.976753 0.143374 0.974391
0.9767 0.141141 0.974398
0.978697 0.138761 0.974175
0.978644 0.136525 0.974182
0.97859 0.134288 0.974189
0.980587 0.131894 0.973966
0.980533 0.129654 0.973973
0.98048 0.127414 0.97398
0.982476 0.125005 0.973758
0.982423 0.122762 0.973764
0.982369 0.120519 0.973771
0.98334 0.118186 0.973664
0.983286 0.115941 0.973671
0.983233 0.113696 0.973677
0.984204 0.111356 0.97357
0.98415 0.109109 0.973577
0.984096 0.106863 0.973583
0.984043 0.104616 0.97359
0.985014 0.102267 0.973483
0.98496 0.100019 0.97349
0.984906 0.0977702 0.973497
0.984852 0.0955218 0.973504
0.984798 0.0932733 0.973511
0.984745 0.0910248 0.973517
0.984691 0.0887764 0.973524
0.984637 0.0865279 0.973531
0.984583 0.0842794 0.973538
0.985554 0.0819131 0.973431
0.9855 0.0796629 0.973438
0.985446 0.0774126 0.973445
0.985393 0.0751624 0.973451
0.985339 0.0729122 0.973458
0.985285 0.070662 0.973465
0.986255 0.0682834 0.973358
0.986201 0.0660314 0.973365
0.986147 0.0637794 0.973372
0.986094 0.0615274 0.973379
0.98604 0.0592755 0.973386
0.985986 0.0570235 0.973393
0.985932 0.0547715 0.9734
0.985878 0.0525195 0.973406
0.985824 0.0502676 0.973413
0.98577 0.0480156 0.97342
0.985717 0.0457636 0.973427
0.985663 0.0435116 0.973434
0.985609 0.0412596 0.973441
0.985555 0.0390077 0.973448
0.985501 0.0367557 0.973455
0.985447 0.0345037 0.973462
0.985394 0.0322517 0.973469
0.98534 0.0299998 0.973476
0.985286 0.0277478 0.973483
0.985232 0.0254958 0.97349
0.985178 0.0232438 0.973497
0.985124 0.0209919 0.973504
0.98507 0.0187399 0.973511
0.985017 0.0164879 0.973518
0.984963 0.0142359 0.973525
0.983886 0.0121562 0.973647
0.983832 0.00990595 0.973654
0.983778 0.00765572 0.973661
0.982702 0.00558299 0.973782
0.982648 0.00333452 0.973789
0.982594 0.00108605 0.973796
0.98254 -0.00116242 0.973803
0.982487 -0.00341089 0.97381
0.982433 -0.00565935 0.973817
0.981357 -0.00771982 0.973939
0.981303 -0.00996653 0.973946
0.981249 -0.0122132 0.973953
0.981196 -0.01446 0.97396
0.980119 -0.0165117 0.974081
0.980066 -0.0187566 0.974088
0.980012 -0.0210016 0.974095
0.978936 -0.0230462 0.974216
0.978883 -0.0252895 0.974223
0.978829 -0.0275327 0.97423
0.978775 -0.0297759 0.974237
0.978722 -0.0320191 0.974244
0.978668 -0.0342623 0.974251
0.977592 -0.0362947 0.974373
0.977539 -0.0385361 0.97438
0.977485 -0.0407776 0.974387
0.97641 -0.042803 0.974508
0.976356 -0.0450427 0.974515
0.976303 -0.0472824 0.974522
0.974206 -0.0490794 0.974758
0.974152 -0.0513156 0.974765
0.974099 -0.0535518 0.974772
0.974045 -0.055788 0.974778
0.97297 -0.0577958 0.9749
0.972917 -0.0600303 0.974907
0.972863 -0.0622647 0.974914
0.971788 -0.0642655 0.975035
0.971735 -0.0664982 0.975042
0.971682 -0.0687309 0.975049
0.970607 -0.0707247 0.97517
0.970554 -0.0729556 0.975177
0.9705 -0.0751866 0.975184
0.968405 -0.0769292 0.97542
0.968351 -0.0791567 0.975427
0.968298 -0.0813841 0.975433
0.965182 -0.0828633 0.975783
0.965128 -0.0850855 0.97579
0.965075 -0.0873076 0.975797
0.965022 -0.0895298 0.975804
0.962927 -0.0912392 0.97604
0.962874 -0.0934578 0.976047
0.962821 -0.0956764 0.976053
0.960727 -0.0973717 0.976289
0.960674 -0.0995869 0.976296
0.960621 -0.101802 0.976303
0.958526 -0.103483 0.976538
0.958474 -0.105695 0.976545
0.958421 -0.107907 0.976552
0.955306 -0.109302 0.976902
0.955253 -0.111508 0.976908
0.955201 -0.113714 0.976915
0.953107 -0.115366 0.977151
0.953055 -0.117569 0.977158
0.953002 -0.119772 0.977164
0.949888 -0.121126 0.977514
0.949836 -0.123324 0.977521
0.949783 -0.125522 0.977528
0.949731 -0.127719 0.977534
0.946618 -0.129048 0.977884
0.946565 -0.13124 0.977891
0.946513 -0.133432 0.977898
0.944421 -0.135035 0.978133
0.944368 -0.137223 0.97814
0.944316 -0.139412 0.978146
0.941204 -0.1407 0.978496
0.941152 -0.142884 0.978502
0.9411 -0.145067 0.978509
0.937988 -0.146334 0.978859
0.937936 -0.148513 0.978865
0.937884 -0.150691 0.978872
0.934773 -0.151937 0.979221
0.934721 -0.15411 0.979228
0.934669 -0.156283 0.979235
0.934617 -0.158456 0.979242
0.931507 -0.159676 0.979591
0.931455 -0.161844 0.979597
0.931403 -0.164011 0.979604
0.928294 -0.16521 0.979953
0.928242 -0.167373 0.97996
0.92819 -0.169535 0.979967
0.925081 -0.170713 0.980316
0.92503 -0.17287 0.980322
0.924978 -0.175027 0.980329
0.921869 -0.176184 0.980678
0.921818 -0.178336 0.980685
0.921766 -0.180488 0.980691
0.918658 -0.181623 0.98104
0.918607 -0.18377 0.981047
0.918555 -0.185917 0.981054
0.918504 -0.188063 0.98106
0.915396 -0.189173 0.981409
0.915345 -0.191314 0.981416
0.915294 -0.193456 0.981423
0.913206 -0.194895 0.981657
0.913154 -0.197033 0.981664
0.913103 -0.199171 0.98167
0.909997 -0.20024 0.982019
0.909946 -0.202372 0.982026
0.909895 -0.204505 0.982032
0.906789 -0.205553 0.982381
0.906738 -0.20768 0.982388
0.906687 -0.209808 0.982394
0.903581 -0.210835 0.982743
0.903531 -0.212957 0.982749
0.90348 -0.215079 0.982756
0.903429 -0.217201 0.982763
0.900324 -0.218202 0.983111
0.900273 -0.220318 0.983118
0.900223 -0.222435 0.983124
0.897118 -0.223415 0.983473
0.897068 -0.225526 0.983479
0.897017 -0.227638 0.983486
0.893913 -0.228596 0.983834
0.893863 -0.230703 0.983841
0.893813 -0.232809 0.983847
0.890709 -0.233747 0.984196
0.890659 -0.235848 0.984202
0.890609 -0.237949 0.984209
0.887506 -0.238865 0.984557
0.887456 -0.240961 0.984563
0.887405 -0.243057 0.98457
0.887355 -0.245153 0.984576
0.88527 -0.246445 0.984811
0.88522 -0.248537 0.984817
0.88517 -0.250629 0.984824
0.882068 -0.2515 0.985172
0.882019 -0.253587 0.985178
0.881969 -0.255674 0.985185
0.879884 -0.256936 0.985419
0.884378 0.348524 0.982647
0.884329 0.346456 0.982653
0.88428 0.344388 0.98266
0.886287 0.342505 0.982432
0.886238 0.340434 0.982438
0.886188 0.338363 0.982445
0.889224 0.336553 0.9821
0.889175 0.334477 0.982106
0.889125 0.3324 0.982113
0.889075 0.330324 0.982119
0.892111 0.328488 0.981775
0.892061 0.326406 0.981781
0.892011 0.324324 0.981787
0.895046 0.322468 0.981443
0.894996 0.320381 0.981449
0.894946 0.318294 0.981456
0.89798 0.316416 0.981111
0.89793 0.314324 0.981118
0.89788 0.312231 0.981124
0.900914 0.310332 0.98078
0.900864 0.308235 0.980786
0.900814 0.306137 0.980793
0.903847 0.304217 0.980449
0.903797 0.302115 0.980455
0.903746 0.300012 0.980462
0.906779 0.298071 0.980117
0.906729 0.295963 0.980124
0.906678 0.293855 0.98013
0.910738 0.291941 0.979669
0.910688 0.289826 0.979676
0.910637 0.287711 0.979682
0.910586 0.285596 0.979689
0.913618 0.283606 0.979345
0.913567 0.281486 0.979351
0.913517 0.279365 0.979358
0.917575 0.277391 0.978897
0.917524 0.275263 0.978903
0.917473 0.273136 0.97891
0.920504 0.271102 0.978566
0.920453 0.268969 0.978573
0.920402 0.266837 0.978579
0.923432 0.264782 0.978235
0.923381 0.262644 0.978242
0.92333 0.260506 0.978249
0.927386 0.258451 0.977788
0.927335 0.256306 0.977794
0.927284 0.254161 0.977801
0.931339 0.252078 0.97734
0.931288 0.249926 0.977347
0.931236 0.247774 0.977354
0.931185 0.245622 0.97736
0.93524 0.243503 0.9769
0.935188 0.241344 0.976907
0.935137 0.239185 0.976913
0.939191 0.237039 0.976453
0.939139 0.234873 0.97646
0.939087 0.232707 0.976466
0.943141 0.230532 0.976006
0.943089 0.228359 0.976013
0.943037 0.226186 0.976019
0.94709 0.223984 0.975559
0.947038 0.221804 0.975566
0.946986 0.219624 0.975573
0.951038 0.217393 0.975112
0.950986 0.215206 0.975119
0.950933 0.213019 0.975126
0.953959 0.210778 0.974783
0.953907 0.208586 0.974789
0.953854 0.206394 0.974796
0.956879 0.204132 0.974453
0.956827 0.201934 0.97446
0.956774 0.199737 0.974467
0.956722 0.197539 0.974473
0.959746 0.195251 0.97413
0.959694 0.193048 0.974137
0.959641 0.190845 0.974144
0.961639 0.188572 0.973917
0.961587 0.186365 0.973924
0.961534 0.184159 0.973931
0.963532 0.181871 0.973705
0.963479 0.179661 0.973711
0.963426 0.177451 0.973718
0.965424 0.17515 0.973492
0.965371 0.172936 0.973499
0.965318 0.170723 0.973506
0.967316 0.168407 0.973279
0.967263 0.16619 0.973286
0.96721 0.163973 0.973293
0.970232 0.161587 0.97295
0.970178 0.159365 0.972957
0.970125 0.157143 0.972964
0.973147 0.154735 0.972621
0.973094 0.152508 0.972628
0.97304 0.15028 0.972635
0.972987 0.148053 0.972642
0.976008 0.145619 0.972299
0.975955 0.143387 0.972306
0.975901 0.141154 0.972313
0.977897 0.138773 0.972086
0.977844 0.136537 0.972093
0.97779 0.134301 0.9721
0.979786 0.131906 0.971874
0.979732 0.129667 0.971881
0.979679 0.127427 0.971888
0.981674 0.125018 0.971662
0.98162 0.122775 0.971669
0.981567 0.120532 0.971676
0.982537 0.118199 0.971566
0.982484 0.115954 0.971573
0.98243 0.113709 0.97158
0.9834 0.111369 0.971471
0.983347 0.109122 0.971478
0.983293 0.106875 0.971485
0.983239 0.104629 0.971492
0.984209 0.10228 0.971382
0.984156 0.100031 0.971389
0.984102 0.097783 0.971396
0.984048 0.0955345 0.971403
0.983994 0.093286 0.97141
0.983941 0.0910375 0.971417
0.983887 0.0887891 0.971424
0.983833 0.0865406 0.971431
0.983779 0.0842921 0.971438
0.984749 0.0819258 0.971328
0.984695 0.0796756 0.971335
0.984642 0.0774254 0.971342
0.984588 0.0751752 0.971349
0.984534 0.0729249 0.971356
0.98448 0.0706747 0.971363
0.98545 0.0682961 0.971254
0.985396 0.0660441 0.971261
0.985342 0.0637922 0.971268
0.985288 0.0615402 0.971275
0.985234 0.0592882 0.971282
0.985181 0.0570362 0.971289
0.985127 0.0547842 0.971296
0.985073 0.0525323 0.971303
0.985019 0.0502803 0.97131
0.984965 0.0480283 0.971317
0.984911 0.0457763 0.971324
0.984857 0.0435244 0.971331
0.984804 0.0412724 0.971338
0.98475 0.0390204 0.971345
0.984696 0.0367684 0.971352
0.984642 0.0345165 0.971359
0.984588 0.0322645 0.971366
0.984534 0.0300125 0.971373
0.984481 0.0277605 0.97138
0.984427 0.0255085 0.971387
0.984373 0.0232566 0.971394
0.984319 0.0210046 0.971401
0.984265 0.0187526 0.971408
0.984211 0.0165006 0.971414
0.984157 0.0142487 0.971421
0.983081 0.0121689 0.971545
0.983027 0.00991868 0.971552
0.982974 0.00766845 0.971559
0.981898 0.0055957 0.971682
0.981844 0.00334723 0.971689
0.98179 0.00109877 0.971696
0.981736 -0.0011497 0.971703
0.981683 -0.00339817 0.97171
0.981629 -0.00564664 0.971717
0.980553 -0.00770711 0.97184
0.9805 -0.00995382 0.971847
0.980446 -0.0122005 0.971854
0.980392 -0.0144473 0.971861
0.979317 -0.016499 0.971984
0.979263 -0.0187439 0.971991
0.979209 -0.0209889 0.971998
0.978134 -0.0230336 0.972121
0.97808 -0.0252768 0.972128
0.978027 -0.02752 0.972135
0.977973 -0.0297632 0.972142
0.977919 -0.0320064 0.972149
0.977866 -0.0342496 0.972156
0.976791 -0.036282 0.972279
0.976737 -0.0385235 0.972286
0.976684 -0.0407649 0.972293
0.975609 -0.0427903 0.972416
0.975555 -0.04503 0.972423
0.975502 -0.0472697 0.97243
0.973406 -0.0490668 0.972669
0.973352 -0.0513029 0.972676
0.973299 -0.0535391 0.972683
0.973245 -0.0557753 0.972689
0.972171 -0.0577832 0.972812
0.972118 -0.0600176 0.972819
0.972064 -0.0622521 0.972826
0.97099 -0.0642529 0.972949
0.970937 -0.0664856 0.972956
0.970883 -0.0687183 0.972963
0.969809 -0.0707121 0.973086
0.969756 -0.072943 0.973093
0.969702 -0.075174 0.9731
0.967608 -0.0769166 0.973339
0.967555 -0.0791441 0.973346
0.967501 -0.0813715 0.973353
0.964387 -0.0828507 0.973708
0.964334 -0.0850729 0.973714
0.964281 -0.0872951 0.973721
0.964227 -0.0895172 0.973728
0.962134 -0.0912266 0.973967
0.962081 -0.0934453 0.973974
0.962028 -0.0956639 0.973981
0.958914 -0.0970976 0.974336
0.958861 -0.099311 0.974342
0.958808 -0.101524 0.974349
0.956715 -0.103204 0.974588
0.956663 -0.105414 0.974595
0.95661 -0.107624 0.974602
0.953497 -0.109017 0.974956
0.953445 -0.111222 0.974963
0.953392 -0.113426 0.97497
0.9513 -0.115076 0.975209
0.951247 -0.117277 0.975216
0.951194 -0.119478 0.975222
0.948083 -0.120831 0.975577
0.94803 -0.123027 0.975584
0.947978 -0.125223 0.975591
0.947925 -0.127419 0.975597
0.945834 -0.129035 0.975836
0.945781 -0.131227 0.975843
0.945729 -0.13342 0.975849
0.943638 -0.135022 0.976088
0.943586 -0.137211 0.976095
0.943533 -0.1394 0.976102
0.940423 -0.140688 0.976456
0.940371 -0.142872 0.976463
0.940319 -0.145055 0.976469
0.937209 -0.146322 0.976824
0.937157 -0.1485 0.97683
0.937105 -0.150679 0.976837
0.933996 -0.151925 0.977191
0.933944 -0.154098 0.977198
0.933892 -0.156271 0.977205
0.93384 -0.158444 0.977212
0.930732 -0.159664 0.977566
0.93068 -0.161831 0.977572
0.930628 -0.163999 0.977579
0.92752 -0.165198 0.977933
0.927469 -0.16736 0.97794
0.927417 -0.169523 0.977947
0.92431 -0.170701 0.978301
0.924258 -0.172858 0.978307
0.924206 -0.175015 0.978314
0.9211 -0.176172 0.978668
0.921048 -0.178324 0.978674
0.920997 -0.180476 0.978681
0.91789 -0.181611 0.979035
0.917839 -0.183758 0.979042
0.917788 -0.185905 0.979048
0.917736 -0.188051 0.979055
0.914631 -0.189161 0.979409
0.914579 -0.191302 0.979415
0.914528 -0.193444 0.979422
0.912441 -0.194883 0.97966
0.91239 -0.197021 0.979667
0.912339 -0.199159 0.979673
0.909234 -0.200228 0.980027
0.909183 -0.20236 0.980034
0.909132 -0.204493 0.98004
0.906028 -0.205541 0.980394
0.905977 -0.207668 0.9804
0.905926 -0.209796 0.980407
0.902822 -0.210823 0.98076
0.902772 -0.212945 0.980767
0.902721 -0.215067 0.980774
0.90267 -0.217189 0.98078
0.899567 -0.21819 0.981134
0.899516 -0.220306 0.98114
0.899466 -0.222423 0.981147
0.896363 -0.223403 0.9815
0.896313 -0.225514 0.981507
0.896262 -0.227626 0.981513
0.89316 -0.228584 0.981866
0.89311 -0.230691 0.981873
0.893059 -0.232797 0.981879
0.889958 -0.233735 0.982233
0.889907 -0.235836 0.982239
0.889857 -0.237937 0.982246
0.886756 -0.238853 0.982599
0.886706 -0.240949 0.982605
0.886656 -0.243045 0.982612
0.886606 -0.245141 0.982618
0.884522 -0.246433 0.982856
0.884472 -0.248525 0.982862
0.884422 -0.250618 0.982869
0.881322 -0.251488 0.983222
0.881272 -0.253575 0.983228
0.881222 -0.255662 0.983235
0.879139 -0.256925 0.983472
0.884667 0.348633 0.980596
0.884617 0.346564 0.980603
0.884568 0.344494 0.980609
0.886575 0.34261 0.980378
0.886525 0.340537 0.980385
0.886475 0.338464 0.980391
0.889509 0.336653 0.980041
0.88946 0.334574 0.980048
0.88941 0.332496 0.980054
0.88936 0.330418 0.980061
0.892394 0.32858 0.979711
0.892344 0.326497 0.979718
0.892294 0.324413 0.979724
0.895327 0.322555 0.979375
0.895277 0.320466 0.979381
0.895227 0.318377 0.979388
0.898259 0.316498 0.979038
0.898209 0.314403 0.979045
0.898159 0.312309 0.979051
0.901191 0.310409 0.978702
0.901141 0.30831 0.978708
0.901091 0.30621 0.978715
0.904122 0.304289 0.978365
0.904072 0.302184 0.978372
0.904022 0.300079 0.978379
0.907052 0.298137 0.978029
0.907002 0.296027 0.978036
0.906951 0.293917 0.978042
0.911009 0.292002 0.977575
0.910958 0.289885 0.977581
0.910908 0.287768 0.977588
0.910857 0.285651 0.977594
0.914913 0.283702 0.977127
0.914863 0.281578 0.977133
0.914812 0.279454 0.97714
0.918868 0.277476 0.976672
0.918817 0.275345 0.976679
0.918766 0.273214 0.976686
0.921794 0.271177 0.976337
0.921743 0.26904 0.976343
0.921692 0.266904 0.97635
0.92472 0.264846 0.976001
0.924669 0.262704 0.976008
0.924618 0.260563 0.976014
0.928672 0.258504 0.975547
0.92862 0.256356 0.975554
0.928569 0.254207 0.97556
0.932622 0.252121 0.975093
0.932571 0.249965 0.9751
0.932519 0.24781 0.975107
0.936572 0.245695 0.974639
0.93652 0.243532 0.974646
0.936468 0.24137 0.974653
0.936416 0.239207 0.97466
0.940468 0.237058 0.974193
0.940416 0.234888 0.974199
0.940364 0.232718 0.974206
0.944415 0.230541 0.973739
0.944363 0.228364 0.973746
0.944311 0.226187 0.973753
0.948362 0.223982 0.973286
0.948309 0.221798 0.973293
0.948257 0.219614 0.973299
0.951281 0.217393 0.972951
0.951229 0.215204 0.972958
0.951177 0.213015 0.972965
0.9542 0.210773 0.972616
0.954148 0.208579 0.972623
0.954096 0.206385 0.97263
0.957119 0.204121 0.972282
0.957066 0.201922 0.972289
0.957013 0.199723 0.972295
0.956961 0.197523 0.972302
0.959983 0.195233 0.971954
0.959931 0.193029 0.971961
0.959878 0.190824 0.971968
0.961875 0.188549 0.971738
0.961822 0.186341 0.971745
0.96177 0.184132 0.971752
0.963766 0.181843 0.971522
0.963714 0.179631 0.971529
0.963661 0.17742 0.971536
0.965657 0.175116 0.971306
0.965604 0.172901 0.971313
0.965551 0.170686 0.97132
0.967547 0.168368 0.97109
0.967494 0.16615 0.971097
0.967441 0.163931 0.971104
0.970461 0.161543 0.970756
0.970408 0.159319 0.970763
0.970355 0.157095 0.97077
0.973375 0.154686 0.970422
0.973321 0.152457 0.970429
0.973268 0.150228 0.970436
0.973215 0.147999 0.970443
0.976234 0.145563 0.970095
0.976181 0.143329 0.970102
0.976127 0.141094 0.970109
0.978122 0.138712 0.969879
0.978068 0.136474 0.969886
0.978015 0.134236 0.969893
0.980009 0.13184 0.969664
0.979955 0.129598 0.969671
0.979902 0.127357 0.969678
0.981896 0.124946 0.969448
0.981842 0.122701 0.969455
0.981788 0.120456 0.969462
0.982758 0.118122 0.969351
0.982704 0.115875 0.969358
0.982651 0.113628 0.969365
0.98362 0.111286 0.969254
0.983567 0.109038 0.969261
0.983513 0.10679 0.969268
0.983459 0.104541 0.969275
0.984429 0.102191 0.969164
0.984375 0.0999403 0.969171
0.984321 0.0976901 0.969178
0.985291 0.0953326 0.969066
0.985237 0.0930806 0.969073
0.985183 0.0908286 0.96908
0.985129 0.0885766 0.969087
0.985075 0.0863247 0.969094
0.985021 0.0840727 0.969101
0.984968 0.0818207 0.969108
0.984914 0.0795687 0.969115
0.98486 0.0773168 0.969122
0.984806 0.0750648 0.969129
0.984752 0.0728128 0.969136
0.984698 0.0705608 0.969143
