ply
format ascii 1.0
comment Created by Open3D
element vertex 1747
property double x
property double y
property double z
end_header
0.951723 0.153481 0.818872
0.951669 0.151192 0.818879
0.951614 0.148904 0.818886
0.95254 0.146548 0.818662
0.952485 0.144258 0.818669
0.95243 0.141967 0.818676
0.953357 0.139605 0.818452
0.953302 0.137313 0.818459
0.953247 0.135021 0.818466
0.953192 0.132728 0.818473
0.953137 0.130436 0.818481
0.953082 0.128144 0.818488
0.953028 0.125851 0.818495
0.952973 0.123559 0.818502
0.952918 0.121267 0.818509
0.952863 0.118974 0.818516
0.952808 0.116682 0.818523
0.952754 0.11439 0.81853
0.952699 0.112097 0.818537
0.952644 0.109805 0.818544
0.952589 0.107513 0.818552
0.952534 0.105221 0.818559
0.95346 0.102829 0.818335
0.953405 0.100535 0.818342
0.95335 0.0982404 0.818349
0.954275 0.0958415 0.818125
0.95422 0.0935457 0.818132
0.954165 0.0912499 0.818139
0.95509 0.0888439 0.817915
0.955035 0.0865463 0.817922
0.95498 0.0842487 0.817929
0.954925 0.0819512 0.817936
0.95585 0.0795364 0.817712
0.955795 0.0772371 0.81772
0.95574 0.0749378 0.817727
0.955685 0.0726384 0.817734
0.95563 0.0703391 0.817741
0.954596 0.0681657 0.817979
0.954541 0.0658681 0.817986
0.954486 0.0635705 0.817993
0.954431 0.061273 0.818001
0.954376 0.0589754 0.818008
0.954321 0.0566778 0.818015
0.952308 0.0546531 0.818484
0.952253 0.052359 0.818491
0.952198 0.050065 0.818498
0.952143 0.0477709 0.818505
0.95013 0.0457638 0.818974
0.950075 0.0434732 0.818982
0.950021 0.0411826 0.818989
0.948008 0.0391895 0.819458
0.947953 0.0369024 0.819465
0.947899 0.0346154 0.819472
0.945886 0.0326363 0.819941
0.945832 0.0303528 0.819948
0.945777 0.0280692 0.819955
0.943765 0.0261042 0.820424
0.943711 0.0238241 0.820431
0.943656 0.0215441 0.820438
0.941645 0.019593 0.820907
0.94159 0.0173165 0.820914
0.941536 0.01504 0.820921
0.940503 0.0129332 0.821159
0.940449 0.0106584 0.821166
0.940394 0.00838367 0.821173
0.94034 0.00610888 0.821181
0.938329 0.00418767 0.821649
0.938274 0.00191641 0.821656
0.93822 -0.000354867 0.821663
0.93621 -0.00226204 0.822132
0.936155 -0.00452982 0.822139
0.936101 -0.00679758 0.822146
0.934091 -0.00869072 0.822615
0.934037 -0.010955 0.822622
0.933983 -0.0132192 0.822629
0.930995 -0.0149058 0.823329
0.930941 -0.0171648 0.823336
0.930887 -0.0194238 0.823343
0.9279 -0.0210893 0.824042
0.927846 -0.023343 0.824049
0.927792 -0.0255967 0.824056
0.927738 -0.0278505 0.824063
0.924751 -0.0294897 0.824763
0.924698 -0.0317381 0.82477
0.924644 -0.0339866 0.824777
0.922635 -0.0358149 0.825245
0.922581 -0.0380598 0.825252
0.922528 -0.0403048 0.825259
0.919542 -0.0419036 0.825959
0.919489 -0.0441433 0.825966
0.919435 -0.046383 0.825972
0.91645 -0.0479609 0.826672
0.916397 -0.0501953 0.826679
0.916343 -0.0524297 0.826686
0.914335 -0.0542124 0.827154
0.914282 -0.0564433 0.827161
0.914229 -0.0586743 0.827168
0.912222 -0.0604429 0.827636
0.912168 -0.0626703 0.827643
0.912115 -0.0648977 0.82765
0.912062 -0.0671251 0.827657
0.909078 -0.0686381 0.828356
0.909025 -0.0708602 0.828363
0.908972 -0.0730824 0.82837
0.907942 -0.0750611 0.828607
0.907889 -0.0772815 0.828614
0.907836 -0.0795019 0.828621
0.90583 -0.0812249 0.829089
0.905777 -0.0834419 0.829096
0.905724 -0.0856588 0.829103
0.902742 -0.0871138 0.829802
0.902689 -0.0893254 0.829809
0.902636 -0.0915371 0.829816
0.898678 -0.0927118 0.830745
0.898625 -0.0949165 0.830752
0.898572 -0.0971211 0.830759
0.89852 -0.0993257 0.830766
0.894562 -0.100465 0.831695
0.89451 -0.102663 0.831702
0.894457 -0.104861 0.831709
0.892453 -0.106515 0.832177
0.8924 -0.108709 0.832184
0.892348 -0.110903 0.83219
0.890344 -0.112544 0.832658
0.890291 -0.114735 0.832665
0.890239 -0.116925 0.832672
0.889211 -0.118834 0.832909
0.889159 -0.121023 0.832916
0.889106 -0.123211 0.832923
0.888078 -0.125113 0.83316
0.888026 -0.1273 0.833167
0.887974 -0.129487 0.833174
0.887921 -0.131674 0.833181
0.887869 -0.133861 0.833187
0.887817 -0.136048 0.833194
0.887764 -0.138236 0.833201
0.887712 -0.140423 0.833208
0.888635 -0.142911 0.832984
0.888583 -0.1451 0.832991
0.888531 -0.147289 0.832998
0.888478 -0.149478 0.833004
0.888426 -0.151666 0.833011
0.888373 -0.153855 0.833018
0.889296 -0.156356 0.832794
0.889244 -0.158546 0.832801
0.889191 -0.160737 0.832808
0.889139 -0.162928 0.832815
0.889087 -0.165118 0.832821
0.889034 -0.167309 0.832828
0.889957 -0.169822 0.832604
0.878493 0.369039 0.834481
0.878441 0.366889 0.834487
0.87839 0.364739 0.834494
0.881291 0.362905 0.8338
0.88124 0.36075 0.833807
0.881188 0.358594 0.833814
0.881137 0.356439 0.83382
0.884038 0.354579 0.833127
0.883986 0.352418 0.833134
0.883935 0.350257 0.83314
0.886835 0.348377 0.832447
0.886783 0.346211 0.832454
0.886732 0.344045 0.83246
0.889632 0.342143 0.831767
0.88958 0.339971 0.831774
0.889528 0.3378 0.83178
0.892427 0.335877 0.831087
0.892375 0.333701 0.831094
0.892323 0.331524 0.8311
0.895222 0.32958 0.830407
0.89517 0.327398 0.830414
0.895118 0.325216 0.830421
0.898017 0.323251 0.829728
0.897964 0.321064 0.829734
0.897912 0.318877 0.829741
0.90081 0.316891 0.829048
0.900758 0.314699 0.829055
0.900705 0.312507 0.829062
0.900653 0.310314 0.829068
0.904533 0.308362 0.828142
0.904481 0.306163 0.828149
0.904428 0.303963 0.828156
0.908308 0.301983 0.827229
0.908256 0.299776 0.827236
0.908203 0.29757 0.827243
0.911099 0.295512 0.82655
0.911046 0.2933 0.826557
0.910993 0.291089 0.826564
0.913889 0.28901 0.825871
0.913836 0.286793 0.825878
0.913783 0.284576 0.825885
0.916679 0.282476 0.825192
0.916625 0.280254 0.825199
0.916572 0.278032 0.825206
0.919467 0.275911 0.824513
0.919414 0.273683 0.82452
0.919361 0.271456 0.824527
0.922255 0.269314 0.823834
0.922202 0.267081 0.823841
0.922148 0.264848 0.823848
0.922095 0.262616 0.823855
0.924989 0.260447 0.823162
0.924935 0.258209 0.823169
0.924882 0.255971 0.823176
0.927775 0.253782 0.822484
0.927721 0.251539 0.822491
0.927667 0.249295 0.822498
0.93056 0.247085 0.821805
0.930506 0.244836 0.821812
0.930453 0.242588 0.821819
0.933345 0.240356 0.821127
0.933291 0.238103 0.821134
0.933237 0.235849 0.821141
0.936129 0.233596 0.820448
0.936075 0.231337 0.820455
0.936021 0.229078 0.820462
0.936948 0.226814 0.820236
0.936894 0.224554 0.820243
0.93684 0.222293 0.82025
0.936786 0.220032 0.820257
0.939677 0.217736 0.819565
0.939623 0.21547 0.819572
0.939569 0.213204 0.819579
0.941477 0.210903 0.81912
0.941423 0.208634 0.819127
0.941369 0.206364 0.819134
0.943277 0.20405 0.818675
0.943223 0.201777 0.818682
0.943168 0.199504 0.818689
0.945076 0.197175 0.81823
0.945022 0.194899 0.818237
0.944967 0.192622 0.818244
0.946875 0.19028 0.817785
0.946821 0.188 0.817793
0.946766 0.18572 0.8178
0.948674 0.183363 0.817341
0.948619 0.18108 0.817348
0.948564 0.178796 0.817355
0.94949 0.176469 0.817129
0.949436 0.174184 0.817136
0.949381 0.171899 0.817143
0.949327 0.169613 0.81715
0.950253 0.167277 0.816924
0.950198 0.16499 0.816931
0.950143 0.162703 0.816938
0.951069 0.160361 0.816713
0.951014 0.158072 0.81672
0.950959 0.155783 0.816727
0.951885 0.153433 0.816501
0.95183 0.151143 0.816508
0.951776 0.148852 0.816515
0.952701 0.146495 0.816289
0.952646 0.144203 0.816297
0.952592 0.141911 0.816304
0.953517 0.139547 0.816078
0.953462 0.137253 0.816085
0.953407 0.134959 0.816092
0.953352 0.132664 0.816099
0.953297 0.13037 0.816106
0.953243 0.128076 0.816113
0.953188 0.125782 0.816121
0.953133 0.123488 0.816128
0.953078 0.121194 0.816135
0.953023 0.1189 0.816142
0.952968 0.116606 0.816149
0.952913 0.114312 0.816156
0.952859 0.112018 0.816163
0.952804 0.109724 0.81617
0.952749 0.10743 0.816177
0.952694 0.105136 0.816185
0.952639 0.102842 0.816192
0.952584 0.100547 0.816199
0.952529 0.0982534 0.816206
0.953454 0.0958545 0.81598
0.953399 0.0935587 0.815987
0.953344 0.0912628 0.815994
0.955248 0.0887468 0.815536
0.955193 0.0864474 0.815543
0.955138 0.0841481 0.81555
0.955083 0.0818488 0.815557
0.956007 0.0794323 0.815332
0.955952 0.0771312 0.815339
0.955897 0.0748301 0.815346
0.955842 0.072529 0.815353
0.955787 0.070228 0.81536
0.954753 0.0680528 0.8156
0.954698 0.0657534 0.815607
0.954643 0.0634541 0.815614
0.954588 0.0611548 0.815622
0.954533 0.0588554 0.815629
0.954478 0.0565561 0.815636
0.952466 0.0545296 0.816108
0.952411 0.0522338 0.816115
0.952356 0.049938 0.816123
0.952301 0.0476422 0.81613
0.95029 0.0456333 0.816602
0.950235 0.0433409 0.816609
0.95018 0.0410486 0.816616
0.948168 0.0390537 0.817089
0.948114 0.0367649 0.817096
0.948059 0.0344761 0.817103
0.946048 0.0324952 0.817575
0.945993 0.0302099 0.817582
0.945939 0.0279246 0.817589
0.943928 0.0259578 0.818062
0.943873 0.023676 0.818069
0.943819 0.0213942 0.818076
0.941808 0.0194414 0.818548
0.941754 0.0171631 0.818555
0.941699 0.0148848 0.818562
0.940667 0.0127763 0.818802
0.940613 0.0104998 0.818809
0.940558 0.00822326 0.818816
0.940504 0.00594673 0.818823
0.938494 0.00402374 0.819295
0.93844 0.00175072 0.819302
0.938386 -0.000522298 0.819309
0.936376 -0.00243127 0.819781
0.936322 -0.00470077 0.819788
0.936268 -0.00697029 0.819795
0.934259 -0.00886522 0.820267
0.934204 -0.0111312 0.820274
0.93415 -0.0133972 0.820281
0.931164 -0.0150856 0.820986
0.93111 -0.0173463 0.820993
0.931056 -0.0196071 0.821
0.928071 -0.0212744 0.821704
0.928017 -0.0235298 0.821711
0.927963 -0.0257853 0.821718
0.927909 -0.0280408 0.821725
0.924924 -0.0296818 0.82243
0.92487 -0.031932 0.822437
0.924817 -0.0341822 0.822444
0.922809 -0.0360123 0.822916
0.922755 -0.038259 0.822923
0.922702 -0.0405057 0.82293
0.920695 -0.0423217 0.823401
0.920641 -0.0445649 0.823408
0.920587 -0.0468081 0.823415
0.917604 -0.0483894 0.82412
0.91755 -0.0506274 0.824126
0.917497 -0.0528653 0.824133
0.915491 -0.0546515 0.824605
0.915437 -0.056886 0.824612
0.915384 -0.0591204 0.824619
0.913378 -0.0608926 0.825091
0.913324 -0.0631235 0.825098
0.913271 -0.0653544 0.825105
0.913218 -0.0675854 0.825111
0.911212 -0.06934 0.825583
0.911159 -0.0715674 0.82559
0.911105 -0.0737948 0.825597
0.910076 -0.0757788 0.825836
0.910023 -0.0780045 0.825843
0.90997 -0.0802302 0.82585
0.907965 -0.0819584 0.826321
0.907911 -0.0841806 0.826328
0.907858 -0.0864028 0.826335
0.904878 -0.0878631 0.827039
0.904825 -0.09008 0.827046
0.904772 -0.0922969 0.827053
0.900816 -0.093477 0.827989
0.900763 -0.0956869 0.827996
0.900711 -0.0978968 0.828003
0.900658 -0.100107 0.828009
0.896703 -0.101252 0.828945
0.89665 -0.103455 0.828952
0.896598 -0.105657 0.828959
0.893619 -0.107046 0.829663
0.893566 -0.109243 0.829669
0.893514 -0.111441 0.829676
0.891511 -0.113085 0.830148
0.891458 -0.115279 0.830154
0.891406 -0.117473 0.830161
0.889403 -0.119103 0.830632
0.889351 -0.121294 0.830639
0.889298 -0.123485 0.830646
0.888271 -0.125388 0.830885
0.888219 -0.127577 0.830892
0.888166 -0.129766 0.830899
0.888114 -0.131954 0.830905
0.888062 -0.134143 0.830912
0.888009 -0.136332 0.830919
0.887957 -0.138521 0.830926
0.887905 -0.14071 0.830932
0.887852 -0.142899 0.830939
0.8878 -0.145087 0.830946
0.887748 -0.147276 0.830953
0.887695 -0.149465 0.83096
0.887643 -0.151654 0.830966
0.887591 -0.153843 0.830973
0.888513 -0.156343 0.830748
0.88846 -0.158534 0.830755
0.888408 -0.160725 0.830761
0.888356 -0.162915 0.830768
0.888303 -0.165106 0.830775
0.888251 -0.167296 0.830782
0.889173 -0.169809 0.830556
0.877724 0.369051 0.832472
0.877672 0.366901 0.832479
0.877621 0.364751 0.832485
0.880521 0.362917 0.831787
0.880469 0.360762 0.831793
0.880418 0.358606 0.8318
0.880366 0.356451 0.831807
0.883265 0.354591 0.831108
0.883214 0.35243 0.831115
0.883162 0.35027 0.831122
0.886061 0.348389 0.830423
0.886009 0.346223 0.83043
0.885957 0.344057 0.830437
0.888855 0.342155 0.829739
0.888803 0.339984 0.829745
0.888751 0.337812 0.829752
0.891649 0.335889 0.829054
0.891597 0.333713 0.82906
0.891545 0.331536 0.829067
0.894442 0.329592 0.828369
0.89439 0.327411 0.828376
0.894338 0.325229 0.828383
0.897234 0.323264 0.827684
0.897182 0.321077 0.827691
0.89713 0.31889 0.827698
0.900026 0.316904 0.827
0.899974 0.314711 0.827007
0.899921 0.312519 0.827014
0.899869 0.310327 0.82702
0.903747 0.308374 0.826087
0.903694 0.306175 0.826094
0.903642 0.303976 0.826101
0.907519 0.301995 0.825168
0.907467 0.299789 0.825175
0.907414 0.297582 0.825182
0.910308 0.295525 0.824484
0.910255 0.293313 0.824491
0.910203 0.291101 0.824498
0.913097 0.289022 0.8238
0.913044 0.286805 0.823807
0.912991 0.284589 0.823814
0.915884 0.282489 0.823116
0.915831 0.280266 0.823123
0.915778 0.278044 0.82313
0.918671 0.275923 0.822432
0.918617 0.273696 0.822439
0.918564 0.271468 0.822446
0.921457 0.269326 0.821748
0.921403 0.267094 0.821755
0.92135 0.264861 0.821762
0.921296 0.262628 0.821769
0.924188 0.26046 0.821072
0.924135 0.258222 0.821079
0.924081 0.255984 0.821086
0.926973 0.253794 0.820388
0.926919 0.251551 0.820395
0.926865 0.249308 0.820402
0.929756 0.247097 0.819705
0.929702 0.244849 0.819712
0.929648 0.242601 0.819719
0.932539 0.240369 0.819021
0.932485 0.238115 0.819028
0.932431 0.235862 0.819035
0.935321 0.233609 0.818338
0.935267 0.23135 0.818345
0.935213 0.229091 0.818352
0.93614 0.226827 0.818124
0.936086 0.224566 0.818131
0.936032 0.222306 0.818138
0.935978 0.220045 0.818145
0.938867 0.217748 0.817448
0.938812 0.215482 0.817455
0.938758 0.213216 0.817462
0.940666 0.210916 0.817
0.940611 0.208647 0.817007
0.940557 0.206377 0.817014
0.942464 0.204063 0.816552
0.94241 0.20179 0.816559
0.942355 0.199517 0.816566
0.944262 0.197188 0.816104
0.944208 0.194912 0.816111
0.944153 0.192635 0.816118
0.94606 0.190293 0.815656
0.946005 0.188013 0.815663
0.945951 0.185733 0.81567
0.947857 0.183376 0.815207
0.947802 0.181093 0.815215
0.947748 0.178809 0.815222
0.948673 0.176482 0.814994
0.948619 0.174197 0.815001
0.948564 0.171912 0.815008
0.948509 0.169626 0.815015
0.949435 0.16729 0.814788
0.94938 0.165003 0.814795
0.949325 0.162716 0.814802
0.95025 0.160374 0.814575
0.950196 0.158085 0.814582
0.950141 0.155796 0.814589
0.951066 0.153446 0.814361
0.951011 0.151156 0.814368
0.950957 0.148865 0.814375
0.951881 0.146508 0.814148
0.951827 0.144216 0.814155
0.951772 0.141923 0.814162
0.952696 0.13956 0.813935
0.952642 0.137266 0.813942
0.952587 0.134972 0.813949
0.952532 0.132677 0.813956
0.952477 0.130383 0.813963
0.952422 0.128089 0.81397
0.952367 0.125795 0.813978
0.952312 0.123501 0.813985
0.952258 0.121207 0.813992
0.952203 0.118913 0.813999
0.952148 0.116619 0.814006
0.952093 0.114325 0.814013
0.952038 0.112031 0.81402
0.951983 0.109737 0.814027
0.951928 0.107443 0.814034
0.951874 0.105149 0.814042
0.951819 0.102855 0.814049
0.951764 0.10056 0.814056
0.951709 0.0982664 0.814063
0.952633 0.0958675 0.813836
0.952578 0.0935716 0.813843
0.952523 0.0912758 0.81385
0.954425 0.0887598 0.813388
0.95437 0.0864604 0.813395
0.954315 0.0841611 0.813402
0.954261 0.0818618 0.813409
0.955184 0.0794453 0.813182
0.955129 0.0771442 0.813189
0.955074 0.0748431 0.813196
0.955019 0.072542 0.813204
0.954964 0.070241 0.813211
0.953931 0.0680658 0.813452
0.953876 0.0657664 0.813459
0.953821 0.0634671 0.813466
0.953766 0.0611678 0.813474
0.953711 0.0588685 0.813481
0.953656 0.0565691 0.813488
0.951645 0.0545426 0.813964
0.95159 0.0522468 0.813971
0.951535 0.049951 0.813978
0.95148 0.0476552 0.813985
0.94947 0.0456462 0.814461
0.949415 0.0433539 0.814468
0.94936 0.0410616 0.814475
0.94735 0.0390667 0.814951
0.947295 0.0367779 0.814958
0.94724 0.0344891 0.814965
0.945231 0.0325082 0.81544
0.945176 0.0302229 0.815447
0.945121 0.0279376 0.815454
0.943112 0.0259707 0.81593
0.943057 0.0236889 0.815937
0.943003 0.0214071 0.815944
0.940994 0.0194543 0.81642
0.940939 0.017176 0.816427
0.940885 0.0148977 0.816434
0.939853 0.0127892 0.816675
0.939799 0.0105127 0.816682
0.939744 0.00823613 0.816689
0.93969 0.0059596 0.816696
0.937681 0.00403659 0.817172
0.937627 0.00176358 0.817179
0.937573 -0.000509442 0.817186
0.935565 -0.00241843 0.817661
0.93551 -0.00468793 0.817668
0.935456 -0.00695745 0.817675
0.933448 -0.00885241 0.818151
0.933394 -0.0111184 0.818158
0.93334 -0.0133844 0.818165
0.930356 -0.0150728 0.818874
0.930302 -0.0173335 0.818881
0.930248 -0.0195943 0.818888
0.927264 -0.0212616 0.819598
0.92721 -0.0235171 0.819604
0.927156 -0.0257726 0.819611
0.927102 -0.0280281 0.819618
0.92412 -0.0296691 0.820328
0.924066 -0.0319193 0.820335
0.924012 -0.0341695 0.820342
0.922006 -0.0359996 0.820817
0.921952 -0.0382463 0.820824
0.921898 -0.040493 0.820831
0.919892 -0.042309 0.821306
0.919839 -0.0445522 0.821313
0.919785 -0.0467954 0.82132
0.916804 -0.0483768 0.822029
0.91675 -0.0506147 0.822036
0.916697 -0.0528527 0.822043
0.914692 -0.0546389 0.822518
0.914638 -0.0568733 0.822525
0.914585 -0.0591078 0.822532
0.91258 -0.0608799 0.823007
0.912526 -0.0631109 0.823014
0.912473 -0.0653418 0.82302
0.91242 -0.0675727 0.823027
0.910415 -0.0693274 0.823502
0.910362 -0.0715548 0.823509
0.910309 -0.0737822 0.823516
0.90928 -0.0757662 0.823757
0.909227 -0.0779919 0.823764
0.909174 -0.0802176 0.823771
0.90717 -0.0819459 0.824246
0.907117 -0.084168 0.824253
0.907064 -0.0863902 0.824259
0.904085 -0.0878506 0.824968
0.904032 -0.0900675 0.824975
0.903979 -0.0922844 0.824982
0.900026 -0.0934645 0.825924
0.899973 -0.0956744 0.825931
0.89992 -0.0978843 0.825938
0.899867 -0.100094 0.825945
0.895915 -0.101239 0.826888
0.895863 -0.103442 0.826894
0.89581 -0.105645 0.826901
0.892833 -0.107033 0.82761
0.89278 -0.109231 0.827616
0.892728 -0.111429 0.827623
0.890726 -0.113073 0.828098
0.890674 -0.115267 0.828105
0.890621 -0.117461 0.828111
0.88862 -0.119091 0.828586
0.888567 -0.121282 0.828593
0.888515 -0.123472 0.8286
0.887488 -0.125376 0.82884
0.887436 -0.127564 0.828847
0.887384 -0.129753 0.828854
0.887331 -0.131942 0.828861
0.887279 -0.134131 0.828867
0.887227 -0.13632 0.828874
0.887174 -0.138509 0.828881
0.887122 -0.140697 0.828888
0.88707 -0.142886 0.828894
0.887017 -0.145075 0.828901
0.886965 -0.147264 0.828908
0.886913 -0.149453 0.828915
0.88686 -0.151642 0.828922
0.886808 -0.15383 0.828928
0.887729 -0.156331 0.828701
0.887677 -0.158522 0.828708
0.887625 -0.160712 0.828715
0.887572 -0.162903 0.828722
0.88752 -0.165093 0.828729
0.887467 -0.167284 0.828735
0.888389 -0.169797 0.828508
0.876955 0.369064 0.830463
0.876903 0.366913 0.83047
0.876852 0.364763 0.830477
0.87975 0.36293 0.829773
0.879698 0.360774 0.82978
0.879647 0.358619 0.829787
0.879595 0.356463 0.829793
0.882492 0.354603 0.82909
0.882441 0.352443 0.829097
0.882389 0.350282 0.829103
0.885286 0.348401 0.8284
0.885234 0.346235 0.828407
0.885182 0.344069 0.828413
0.888079 0.342167 0.82771
0.888027 0.339996 0.827717
0.887975 0.337825 0.827724
0.890871 0.335902 0.82702
0.890819 0.333725 0.827027
0.890767 0.331549 0.827034
0.893662 0.329605 0.826331
0.89361 0.327423 0.826338
0.893557 0.325241 0.826344
0.896452 0.323276 0.825641
0.8964 0.321089 0.825648
0.896348 0.318902 0.825655
0.899242 0.316916 0.824952
0.89919 0.314724 0.824959
0.899137 0.312531 0.824966
0.899085 0.310339 0.824972
0.90296 0.308387 0.824033
0.902908 0.306187 0.82404
0.902855 0.303988 0.824047
0.90673 0.302008 0.823107
0.906678 0.299801 0.823114
0.906625 0.297595 0.823121
0.909517 0.295537 0.822418
0.909465 0.293325 0.822425
0.909412 0.291114 0.822432
0.912304 0.289035 0.821729
0.912251 0.286818 0.821736
0.912198 0.284601 0.821743
0.915089 0.282501 0.82104
0.915036 0.280279 0.821047
0.914983 0.278057 0.821054
0.917874 0.275936 0.820351
0.917821 0.273708 0.820358
0.917768 0.271481 0.820365
0.920658 0.269339 0.819663
0.920605 0.267106 0.81967
0.920551 0.264873 0.819677
0.920498 0.262641 0.819684
0.923388 0.260472 0.818981
0.923334 0.258234 0.818988
0.923281 0.255997 0.818995
0.92617 0.253807 0.818293
0.926117 0.251564 0.8183
0.926063 0.249321 0.818307
0.928952 0.24711 0.817604
0.928898 0.244862 0.817611
0.928844 0.242613 0.817618
0.931733 0.240382 0.816916
0.931679 0.238128 0.816923
0.931625 0.235874 0.81693
0.934513 0.233622 0.816228
0.934459 0.231363 0.816235
0.934405 0.229104 0.816242
0.935331 0.22684 0.816012
0.935277 0.224579 0.816019
0.935223 0.222318 0.816026
0.935169 0.220058 0.816033
0.938056 0.217761 0.815331
0.938002 0.215495 0.815338
0.937948 0.213229 0.815345
0.939854 0.210929 0.81488
0.9398 0.208659 0.814887
0.939745 0.20639 0.814894
0.941651 0.204076 0.814428
0.941597 0.201803 0.814435
0.941543 0.199529 0.814442
0.943448 0.197201 0.813977
0.943394 0.194925 0.813984
0.943339 0.192648 0.813991
0.945244 0.190306 0.813526
0.94519 0.188026 0.813533
0.945135 0.185746 0.81354
0.94704 0.183389 0.813074
0.946986 0.181106 0.813081
0.946931 0.178822 0.813088
0.947856 0.176495 0.812859
0.947801 0.17421 0.812866
0.947747 0.171924 0.812873
0.947692 0.169639 0.812881
0.948617 0.167303 0.812651
0.948562 0.165016 0.812658
0.948507 0.162729 0.812666
0.949432 0.160386 0.812436
0.949377 0.158098 0.812444
0.949322 0.155809 0.812451
0.950247 0.153459 0.812222
0.950192 0.151168 0.812229
0.950137 0.148878 0.812236
0.951062 0.146521 0.812007
0.951007 0.144229 0.812014
0.950952 0.141936 0.812021
0.951876 0.139573 0.811792
0.951821 0.137279 0.811799
0.951766 0.134984 0.811806
0.951711 0.13269 0.811813
0.951657 0.130396 0.81182
0.951602 0.128102 0.811827
0.951547 0.125808 0.811834
0.951492 0.123514 0.811842
0.951437 0.12122 0.811849
0.951382 0.118926 0.811856
0.951328 0.116632 0.811863
0.951273 0.114338 0.81187
0.951218 0.112044 0.811877
0.951163 0.10975 0.811884
0.951108 0.107456 0.811891
0.951053 0.105162 0.811898
0.950998 0.102868 0.811906
0.950944 0.100573 0.811913
0.950889 0.0982794 0.81192
0.951812 0.0958805 0.811691
0.951757 0.0935846 0.811698
0.951702 0.0912888 0.811705
0.953603 0.0887728 0.81124
0.953548 0.0864734 0.811247
0.953493 0.0841741 0.811254
0.953438 0.0818748 0.811262
0.954361 0.0794583 0.811033
0.954306 0.0771572 0.81104
0.954251 0.0748561 0.811047
0.954196 0.0725551 0.811054
0.954141 0.070254 0.811061
0.953108 0.0680788 0.811304
0.953053 0.0657795 0.811311
0.952998 0.0634801 0.811319
0.952943 0.0611808 0.811326
0.952888 0.0588815 0.811333
0.952833 0.0565821 0.81134
0.950824 0.0545556 0.811819
0.950769 0.0522598 0.811826
0.950714 0.049964 0.811833
0.950659 0.0476682 0.81184
0.94865 0.0456592 0.812319
0.948595 0.0433669 0.812326
0.94854 0.0410746 0.812333
0.946531 0.0390796 0.812812
0.946477 0.0367908 0.81282
0.946422 0.034502 0.812827
0.944413 0.0325211 0.813305
0.944359 0.0302358 0.813313
0.944304 0.0279505 0.81332
0.942296 0.0259836 0.813798
0.942241 0.0237018 0.813806
0.942187 0.02142 0.813813
0.940179 0.0194672 0.814291
0.940124 0.0171889 0.814298
0.94007 0.0149106 0.814306
0.939039 0.0128021 0.814548
0.938984 0.0105255 0.814556
0.93893 0.00824901 0.814563
0.938876 0.00597248 0.81457
0.936868 0.00404945 0.815048
0.936814 0.00177643 0.815055
0.93676 -0.000496587 0.815062
0.934753 -0.0024056 0.815541
0.934699 -0.0046751 0.815548
0.934644 -0.00694462 0.815555
0.932638 -0.00883959 0.816034
0.932584 -0.0111056 0.816041
0.93253 -0.0133716 0.816048
0.929547 -0.01506 0.816762
0.929493 -0.0173207 0.816769
0.929439 -0.0195815 0.816776
0.926458 -0.0212488 0.817491
0.926404 -0.0235043 0.817498
0.92635 -0.0257598 0.817505
0.926296 -0.0280153 0.817511
0.923315 -0.0296563 0.818226
0.923261 -0.0319066 0.818233
0.923207 -0.0341568 0.81824
0.921202 -0.0359868 0.818718
0.921149 -0.0382336 0.818725
0.921095 -0.0404803 0.818732
0.91909 -0.0422963 0.81921
0.919037 -0.0445395 0.819217
0.918983 -0.0467827 0.819224
0.916003 -0.0483641 0.819938
0.91595 -0.0506021 0.819945
0.915896 -0.05284 0.819952
0.913892 -0.0546263 0.82043
0.913839 -0.0568607 0.820437
0.913786 -0.0590952 0.820444
0.911782 -0.0608673 0.820923
0.911729 -0.0630982 0.82093
0.911675 -0.0653292 0.820936
0.911622 -0.0675601 0.820943
0.909619 -0.0693148 0.821422
0.909566 -0.0715422 0.821428
0.909512 -0.0737696 0.821435
0.908484 -0.0757536 0.821678
0.908431 -0.0779793 0.821685
0.908378 -0.080205 0.821692
0.906375 -0.0819333 0.82217
0.906322 -0.0841555 0.822177
0.906269 -0.0863776 0.822184
0.903292 -0.0878381 0.822897
0.903239 -0.0900549 0.822904
0.903186 -0.0922718 0.822911
0.899236 -0.093452 0.82386
0.899183 -0.0956619 0.823867
0.89913 -0.0978718 0.823874
0.899077 -0.100082 0.823881
0.895127 -0.101227 0.82483
0.895075 -0.10343 0.824837
0.895022 -0.105632 0.824843
0.892047 -0.107021 0.825557
0.891995 -0.109219 0.825564
0.891942 -0.111416 0.82557
0.889942 -0.11306 0.826048
0.889889 -0.115254 0.826055
0.889837 -0.117449 0.826062
0.887836 -0.119079 0.82654
0.887784 -0.121269 0.826546
0.887732 -0.12346 0.826553
0.886706 -0.125363 0.826795
0.886653 -0.127552 0.826802
0.886601 -0.129741 0.826809
0.886549 -0.13193 0.826816
0.886496 -0.134119 0.826823
0.886444 -0.136307 0.826829
0.886392 -0.138496 0.826836
0.886339 -0.140685 0.826843
0.886287 -0.142874 0.82685
0.886235 -0.145063 0.826857
0.886182 -0.147252 0.826863
0.88613 -0.14944 0.82687
0.886078 -0.151629 0.826877
0.886025 -0.153818 0.826884
0.886946 -0.156319 0.826655
0.886894 -0.158509 0.826662
0.886841 -0.1607 0.826669
0.886789 -0.16289 0.826675
0.886736 -0.165081 0.826682
0.886684 -0.167272 0.826689
0.887605 -0.169785 0.82646
0.877168 0.369187 0.828216
0.877117 0.367035 0.828223
0.877065 0.364883 0.82823
0.879961 0.363047 0.827521
0.87991 0.36089 0.827528
0.879858 0.358733 0.827535
0.879807 0.356576 0.827541
0.882702 0.354714 0.826833
0.88265 0.352552 0.82684
0.882599 0.350389 0.826846
0.885493 0.348507 0.826138
0.885442 0.346339 0.826145
0.88539 0.344171 0.826152
0.888284 0.342268 0.825444
0.888232 0.340095 0.82545
0.88818 0.337921 0.825457
0.891074 0.335997 0.824749
0.891022 0.333819 0.824756
0.89097 0.33164 0.824762
0.893863 0.329695 0.824054
0.893811 0.327511 0.824061
0.893759 0.325328 0.824068
0.896652 0.323361 0.82336
0.8966 0.321172 0.823367
0.896547 0.318983 0.823374
0.89944 0.316996 0.822666
0.899387 0.314801 0.822672
0.899335 0.312607 0.822679
0.899282 0.310413 0.822686
0.903155 0.308459 0.82174
0.903103 0.306258 0.821747
0.90305 0.304057 0.821754
0.905941 0.30202 0.821046
0.905889 0.299814 0.821053
0.905836 0.297607 0.82106
0.908727 0.29555 0.820352
0.908674 0.293338 0.820359
0.908621 0.291126 0.820366
0.911511 0.289047 0.819658
0.911458 0.286831 0.819665
0.911405 0.284614 0.819672
0.914295 0.282514 0.818964
0.914241 0.280292 0.818971
0.914188 0.278069 0.818978
0.917077 0.275948 0.818271
0.917024 0.273721 0.818278
0.916971 0.271494 0.818284
0.91986 0.269351 0.817577
0.919806 0.267119 0.817584
0.919753 0.264886 0.817591
0.9197 0.262653 0.817598
0.922588 0.260485 0.81689
0.922534 0.258247 0.816897
0.922481 0.256009 0.816904
0.925368 0.25382 0.816197
0.925314 0.251577 0.816204
0.925261 0.249333 0.816211
0.928148 0.247123 0.815504
0.928094 0.244874 0.815511
0.92804 0.242626 0.815518
0.930927 0.240395 0.814811
0.930873 0.238141 0.814818
0.930819 0.235887 0.814825
0.933705 0.233635 0.814118
0.933651 0.231376 0.814125
0.933597 0.229117 0.814132
0.935503 0.226848 0.813663
0.935449 0.224585 0.81367
0.935395 0.222323 0.813677
0.93534 0.22006 0.813684
0.938225 0.217762 0.812977
0.938171 0.215494 0.812984
0.938117 0.213227 0.812991
0.940022 0.210925 0.812522
0.939968 0.208653 0.812529
0.939913 0.206382 0.812536
0.941818 0.204066 0.812067
0.941763 0.201791 0.812074
0.941709 0.199516 0.812081
0.943613 0.197186 0.811612
0.943559 0.194908 0.811619
0.943504 0.19263 0.811626
0.945408 0.190286 0.811158
0.945354 0.188004 0.811165
0.945299 0.185722 0.811172
0.947203 0.183364 0.810703
0.947148 0.181079 0.81071
0.947093 0.178793 0.810717
0.948018 0.176465 0.810487
0.947963 0.174177 0.810494
0.947908 0.17189 0.810501
0.947854 0.169603 0.810508
0.948778 0.167266 0.810277
0.948723 0.164977 0.810284
0.948668 0.162688 0.810291
0.949592 0.160344 0.81006
0.949537 0.158053 0.810068
0.949483 0.155763 0.810075
0.950406 0.153411 0.809844
0.950352 0.151119 0.809851
0.950297 0.148826 0.809858
0.95122 0.146468 0.809627
0.951165 0.144174 0.809635
0.951111 0.14188 0.809642
0.952034 0.139514 0.809411
0.951979 0.137218 0.809418
0.951924 0.134922 0.809425
0.951869 0.132627 0.809432
0.951814 0.130331 0.809439
0.951759 0.128035 0.809447
0.951705 0.125739 0.809454
0.95165 0.123443 0.809461
0.951595 0.121148 0.809468
0.95154 0.118852 0.809475
0.951485 0.116556 0.809482
0.95143 0.11426 0.809489
0.951375 0.111964 0.809496
0.95132 0.109668 0.809503
0.951265 0.107373 0.809511
0.951211 0.105077 0.809518
0.951156 0.102781 0.809525
0.951101 0.100485 0.809532
0.951046 0.0981893 0.809539
0.951968 0.0957886 0.809309
0.951913 0.093491 0.809316
0.951858 0.0911934 0.809323
0.952781 0.0887858 0.809092
0.952726 0.0864864 0.809099
0.952671 0.0841871 0.809106
0.952616 0.0818878 0.809114
0.953538 0.0794713 0.808883
0.953483 0.0771703 0.80889
0.953428 0.0748692 0.808897
0.953373 0.0725681 0.808904
0.953318 0.070267 0.808912
0.953263 0.0679659 0.808919
0.953208 0.0656648 0.808926
0.953153 0.0633637 0.808933
0.953098 0.0610627 0.80894
0.953043 0.0587616 0.808947
0.952988 0.0564605 0.808954
0.950979 0.0544322 0.809437
0.950925 0.0521346 0.809444
0.95087 0.049837 0.809451
0.950815 0.0475395 0.809458
0.948807 0.0455287 0.80994
0.948752 0.0432347 0.809947
0.948697 0.0409406 0.809955
0.946689 0.0389439 0.810437
0.946635 0.0366533 0.810444
0.94658 0.0343628 0.810451
0.944572 0.0323801 0.810933
0.944518 0.030093 0.81094
0.944463 0.027806 0.810947
0.942456 0.0258373 0.811429
0.942401 0.0235538 0.811436
0.942347 0.0212702 0.811444
0.941316 0.0191511 0.811688
0.941262 0.0168694 0.811695
0.941207 0.0145876 0.811702
0.939201 0.0126452 0.812184
0.939146 0.0103669 0.812191
0.939092 0.00808866 0.812198
0.939037 0.00581036 0.812206
0.937031 0.00388556 0.812687
0.936977 0.00161078 0.812695
0.936923 -0.000663993 0.812702
0.934917 -0.00257476 0.813184
0.934863 -0.00484602 0.813191
0.934808 -0.0071173 0.813198
0.932803 -0.00901404 0.81368
0.932749 -0.0112818 0.813687
0.932695 -0.0135496 0.813694
0.93069 -0.0154323 0.814175
0.930635 -0.0176965 0.814182
0.930581 -0.0199608 0.81419
0.927601 -0.0216317 0.814909
0.927547 -0.0238907 0.814916
0.927493 -0.0261496 0.814923
0.927439 -0.0284086 0.81493
0.92446 -0.0300532 0.815649
0.924406 -0.0323069 0.815656
0.924352 -0.0345607 0.815663
0.922349 -0.0363943 0.816145
0.922295 -0.0386445 0.816152
0.922241 -0.0408947 0.816159
0.920238 -0.0427143 0.81664
0.920184 -0.044961 0.816647
0.92013 -0.0472077 0.816654
0.918127 -0.0490133 0.817136
0.918073 -0.0512565 0.817143
0.91802 -0.0534997 0.81715
0.916017 -0.0552912 0.817631
0.915963 -0.0575309 0.817638
0.91591 -0.0597706 0.817645
0.913907 -0.0615481 0.818127
0.913854 -0.0637842 0.818134
0.913801 -0.0660204 0.818141
0.913747 -0.0682566 0.818147
0.911745 -0.0700166 0.818629
0.911692 -0.0722492 0.818636
0.911638 -0.0744819 0.818643
0.910611 -0.0764712 0.818887
0.910557 -0.0787022 0.818894
0.910504 -0.0809331 0.818901
0.908503 -0.0826667 0.819382
0.908449 -0.0848941 0.819389
0.908396 -0.0871216 0.819396
0.905421 -0.0885873 0.820115
0.905368 -0.0908094 0.820121
0.905315 -0.0930316 0.820128
0.901367 -0.094217 0.821084
0.901314 -0.0964322 0.821091
0.901261 -0.0986473 0.821098
0.901208 -0.100862 0.821105
0.89726 -0.102013 0.82206
0.897208 -0.104221 0.822067
0.897155 -0.106429 0.822074
0.893208 -0.107551 0.82303
0.893156 -0.109753 0.823036
0.893103 -0.111954 0.823043
0.891104 -0.113601 0.823524
0.891051 -0.115799 0.823531
0.890999 -0.117997 0.823538
0.888026 -0.119348 0.824256
0.887974 -0.121541 0.824263
0.887921 -0.123733 0.82427
0.886896 -0.125638 0.824514
0.886843 -0.127829 0.82452
0.886791 -0.130019 0.824527
0.886739 -0.13221 0.824534
0.886686 -0.1344 0.824541
0.886634 -0.136591 0.824548
0.886582 -0.138782 0.824554
0.885556 -0.140673 0.824798
0.885504 -0.142861 0.824805
0.885452 -0.14505 0.824812
0.885399 -0.147239 0.824819
0.885347 -0.149428 0.824825
0.885295 -0.151617 0.824832
0.885242 -0.153806 0.824839
0.886163 -0.156306 0.824609
0.88611 -0.158497 0.824616
0.886058 -0.160688 0.824622
0.886005 -0.162878 0.824629
0.885953 -0.165069 0.824636
0.885901 -0.167259 0.824643
0.886821 -0.169772 0.824412
0.876399 0.369199 0.826206
0.876347 0.367047 0.826213
0.876296 0.364895 0.826219
0.87919 0.36306 0.825506
0.879138 0.360902 0.825513
0.879087 0.358745 0.825519
0.879035 0.356588 0.825526
0.881929 0.354726 0.824813
0.881877 0.352564 0.82482
0.881825 0.350401 0.824826
0.884718 0.348519 0.824113
0.884666 0.346351 0.82412
0.884615 0.344183 0.824127
0.887507 0.34228 0.823414
0.887455 0.340107 0.82342
0.887403 0.337934 0.823427
0.890295 0.336009 0.822714
0.890243 0.333831 0.822721
0.890191 0.331653 0.822728
0.893083 0.329707 0.822015
0.89303 0.327523 0.822021
0.892978 0.32534 0.822028
0.895869 0.323373 0.821315
0.895817 0.321184 0.821322
0.895764 0.318996 0.821329
0.898655 0.317008 0.820616
0.898603 0.314814 0.820623
0.89855 0.31262 0.82063
0.898498 0.310426 0.820636
0.902368 0.308472 0.819684
0.902316 0.306271 0.819691
0.902263 0.304069 0.819698
0.905152 0.302033 0.818985
0.9051 0.299826 0.818992
0.905047 0.29762 0.818999
0.907936 0.295562 0.818286
0.907883 0.29335 0.818293
0.90783 0.291139 0.8183
0.910718 0.28906 0.817587
0.910665 0.286843 0.817594
0.910612 0.284626 0.817601
0.9135 0.282526 0.816889
0.913447 0.280304 0.816895
0.913394 0.278082 0.816902
0.916281 0.275961 0.81619
0.916228 0.273734 0.816197
0.916174 0.271506 0.816204
0.919061 0.269364 0.815491
0.919008 0.267131 0.815498
0.918954 0.264899 0.815505
0.918901 0.262666 0.815512
0.921787 0.260498 0.8148
0.921734 0.25826 0.814807
0.92168 0.256022 0.814814
0.924566 0.253832 0.814102
0.924512 0.251589 0.814109
0.924459 0.249346 0.814115
0.927344 0.247136 0.813403
0.92729 0.244887 0.81341
0.927236 0.242639 0.813417
0.930121 0.240407 0.812705
0.930067 0.238154 0.812712
0.930013 0.2359 0.812719
0.932897 0.233647 0.812007
0.932843 0.231388 0.812014
0.932789 0.229129 0.812021
0.934694 0.226861 0.811549
0.93464 0.224598 0.811556
0.934585 0.222336 0.811563
0.934531 0.220073 0.81157
0.937414 0.217775 0.810858
0.93736 0.215507 0.810865
0.937306 0.213239 0.810872
0.93921 0.210937 0.8104
0.939155 0.208666 0.810407
0.939101 0.206395 0.810414
0.941004 0.204079 0.809942
0.94095 0.201804 0.809949
0.940896 0.199529 0.809956
0.942799 0.197199 0.809484
0.942744 0.194921 0.809491
0.94269 0.192643 0.809498
0.944592 0.190299 0.809026
0.944538 0.188017 0.809033
0.944483 0.185735 0.80904
0.946385 0.183377 0.808568
0.946331 0.181091 0.808575
0.946276 0.178806 0.808582
0.9472 0.176477 0.80835
0.947145 0.17419 0.808357
0.94709 0.171903 0.808364
0.947036 0.169616 0.808371
0.947959 0.167279 0.808139
0.947904 0.16499 0.808146
0.94785 0.162701 0.808153
0.948773 0.160357 0.807921
0.948718 0.158066 0.807928
0.948663 0.155776 0.807935
0.949587 0.153424 0.807703
0.949532 0.151132 0.80771
0.949477 0.148839 0.807717
0.9504 0.146481 0.807484
0.950345 0.144187 0.807492
0.95029 0.141893 0.807499
0.951213 0.139527 0.807266
0.951158 0.137231 0.807273
0.951103 0.134935 0.807281
0.951048 0.13264 0.807288
0.950993 0.130344 0.807295
0.950938 0.128048 0.807302
0.950884 0.125752 0.807309
0.950829 0.123456 0.807316
0.950774 0.12116 0.807323
0.950719 0.118865 0.80733
0.950664 0.116569 0.807337
0.950609 0.114273 0.807345
0.950554 0.111977 0.807352
0.950499 0.109681 0.807359
0.950444 0.107386 0.807366
0.95039 0.10509 0.807373
0.950335 0.102794 0.80738
0.95028 0.100498 0.807387
0.950225 0.0982022 0.807394
0.951147 0.0958016 0.807162
0.951092 0.093504 0.807169
0.951037 0.0912064 0.807176
0.951959 0.0887988 0.806944
0.951904 0.0864994 0.806951
0.951849 0.0842001 0.806958
0.951794 0.0819008 0.806966
0.952715 0.0794843 0.806733
0.95266 0.0771833 0.806741
0.952605 0.0748822 0.806748
0.95255 0.0725811 0.806755
0.952495 0.07028 0.806762
0.95244 0.0679789 0.806769
0.952385 0.0656778 0.806776
0.95233 0.0633768 0.806783
0.952275 0.0610757 0.80679
0.95222 0.0587746 0.806798
0.952165 0.0564735 0.806805
0.950158 0.0544452 0.80729
0.950103 0.0521476 0.807297
0.950048 0.04985 0.807305
0.949993 0.0475525 0.807312
0.947986 0.0455417 0.807797
0.947931 0.0432476 0.807804
0.947877 0.0409536 0.807811
0.94587 0.0389568 0.808297
0.945815 0.0366663 0.808304
0.945761 0.0343757 0.808311
0.943755 0.032393 0.808797
0.9437 0.030106 0.808804
0.943645 0.0278189 0.808811
0.941639 0.0258502 0.809296
0.941585 0.0235667 0.809303
0.94153 0.0212831 0.80931
0.9405 0.0191641 0.809557
0.940446 0.0168823 0.809564
0.940391 0.0146005 0.809571
0.938386 0.0126581 0.810056
0.938332 0.0103798 0.810063
0.938277 0.00810154 0.81007
0.938223 0.00582325 0.810077
0.936218 0.00389842 0.810562
0.936163 0.00162365 0.81057
0.936109 -0.000651128 0.810577
0.934105 -0.00256192 0.811062
0.93405 -0.00483318 0.811069
0.933996 -0.00710445 0.811076
0.931992 -0.00900121 0.811561
0.931938 -0.011269 0.811568
0.931884 -0.0135367 0.811575
0.92988 -0.0154195 0.81206
0.929826 -0.0176837 0.812067
0.929772 -0.019948 0.812074
0.926794 -0.0216189 0.812798
0.92674 -0.0238779 0.812805
0.926686 -0.0261369 0.812812
0.926632 -0.0283959 0.812819
0.923654 -0.0300405 0.813544
0.9236 -0.0322942 0.813551
0.923546 -0.0345479 0.813558
0.921544 -0.0363816 0.814042
0.92149 -0.0386318 0.814049
0.921436 -0.040882 0.814056
0.919434 -0.0427016 0.814541
0.91938 -0.0449483 0.814548
0.919327 -0.047195 0.814555
0.917325 -0.0490006 0.81504
0.917271 -0.0512438 0.815047
0.917218 -0.053487 0.815054
0.915216 -0.0552785 0.815539
0.915162 -0.0575182 0.815546
0.915109 -0.0597579 0.815553
0.913108 -0.0615354 0.816038
0.913054 -0.0637716 0.816045
0.913001 -0.0660078 0.816052
0.912947 -0.068244 0.816058
0.910947 -0.0700039 0.816543
0.910893 -0.0722366 0.81655
0.91084 -0.0744693 0.816557
0.909813 -0.0764586 0.816803
0.90976 -0.0786895 0.81681
0.909706 -0.0809205 0.816817
0.907706 -0.0826541 0.817301
0.907653 -0.0848815 0.817308
0.9076 -0.087109 0.817315
0.904627 -0.0885747 0.818039
0.904573 -0.0907969 0.818046
0.90452 -0.093019 0.818052
0.900575 -0.0942045 0.819015
0.900522 -0.0964196 0.819022
0.900469 -0.0986348 0.819028
0.900416 -0.10085 0.819035
0.896471 -0.102 0.819998
0.896418 -0.104208 0.820004
0.896365 -0.106417 0.820011
0.892421 -0.107539 0.820973
0.892368 -0.10974 0.82098
0.892316 -0.111941 0.820987
0.890318 -0.113589 0.821471
0.890265 -0.115787 0.821478
0.890213 -0.117984 0.821485
0.887242 -0.119336 0.822208
0.88719 -0.121528 0.822215
0.887137 -0.123721 0.822222
0.886112 -0.125626 0.822467
0.88606 -0.127816 0.822474
0.886008 -0.130007 0.822481
0.885955 -0.132197 0.822488
0.885903 -0.134388 0.822494
0.885851 -0.136579 0.822501
0.885798 -0.138769 0.822508
0.884774 -0.14066 0.822754
0.884721 -0.142849 0.82276
0.884669 -0.145038 0.822767
0.884617 -0.147227 0.822774
0.884564 -0.149416 0.822781
0.884512 -0.151604 0.822787
0.88446 -0.153793 0.822794
0.885379 -0.156294 0.822562
0.885327 -0.158485 0.822569
0.885274 -0.160675 0.822576
0.885222 -0.162866 0.822583
0.88517 -0.165056 0.82259
0.885117 -0.167247 0.822596
0.886037 -0.16976 0.822364
0.875629 0.369211 0.824196
0.875578 0.367059 0.824202
0.875526 0.364907 0.824209
0.878419 0.363072 0.823491
0.878367 0.360915 0.823497
0.878315 0.358757 0.823504
0.878264 0.3566 0.823511
0.881155 0.354739 0.822793
0.881104 0.352576 0.822799
0.881052 0.350414 0.822806
0.883943 0.348531 0.822088
0.883891 0.346363 0.822095
0.883839 0.344196 0.822102
0.88673 0.342292 0.821384
0.886678 0.340119 0.82139
0.886626 0.337946 0.821397
0.889516 0.336022 0.820679
0.889464 0.333843 0.820686
0.889412 0.331665 0.820693
0.892302 0.329719 0.819975
0.892249 0.327536 0.819982
0.892197 0.325352 0.819988
0.895086 0.323386 0.819271
0.895034 0.321197 0.819277
0.894982 0.319008 0.819284
0.89787 0.31702 0.818566
0.897818 0.314826 0.818573
0.897765 0.312632 0.81858
0.897713 0.310438 0.818587
0.901581 0.308484 0.817628
0.901528 0.306283 0.817635
0.901476 0.304082 0.817641
0.904363 0.302045 0.816924
0.90431 0.299839 0.816931
0.904258 0.297632 0.816937
0.907145 0.295575 0.81622
0.907092 0.293363 0.816227
0.907039 0.291151 0.816234
0.909925 0.289072 0.815516
0.909872 0.286856 0.815523
0.909819 0.284639 0.81553
0.912705 0.282539 0.814813
0.912652 0.280317 0.81482
0.912599 0.278094 0.814826
0.915484 0.275974 0.814109
0.915431 0.273746 0.814116
0.915378 0.271519 0.814123
0.918263 0.269377 0.813406
0.918209 0.267144 0.813413
0.918156 0.264911 0.81342
0.918103 0.262679 0.813426
0.920987 0.26051 0.812709
0.920933 0.258272 0.812716
0.92088 0.256034 0.812723
0.923764 0.253845 0.812006
0.92371 0.251602 0.812013
0.923656 0.249359 0.81202
0.92654 0.247148 0.811303
0.926486 0.2449 0.81131
0.926432 0.242651 0.811317
0.929315 0.24042 0.8106
0.929261 0.238166 0.810607
0.929207 0.235913 0.810614
0.932089 0.23366 0.809897
0.932035 0.231401 0.809904
0.931981 0.229142 0.809911
0.933885 0.226873 0.809435
0.93383 0.224611 0.809442
0.933776 0.222348 0.80945
0.933722 0.220086 0.809457
0.936603 0.217788 0.80874
0.936549 0.21552 0.808747
0.936495 0.213252 0.808754
0.938397 0.21095 0.808278
0.938343 0.208679 0.808285
0.938289 0.206408 0.808292
0.940191 0.204092 0.807817
0.940136 0.201817 0.807824
0.940082 0.199542 0.807831
0.941984 0.197212 0.807356
0.941929 0.194934 0.807363
0.941875 0.192656 0.80737
0.943776 0.190311 0.806895
0.943722 0.18803 0.806902
0.943667 0.185748 0.806909
0.945568 0.18339 0.806433
0.945513 0.181104 0.806441
0.945459 0.178819 0.806448
0.946382 0.17649 0.806214
0.946327 0.174203 0.806221
0.946272 0.171916 0.806228
0.946218 0.169629 0.806235
0.947141 0.167292 0.806001
0.947086 0.165003 0.806008
0.947031 0.162714 0.806015
0.947954 0.16037 0.805781
0.947899 0.158079 0.805788
0.947844 0.155788 0.805795
0.948767 0.153437 0.805561
0.948712 0.151145 0.805568
0.948657 0.148852 0.805575
0.949579 0.146494 0.805341
0.949525 0.1442 0.805348
0.94947 0.141906 0.805356
0.950392 0.13954 0.805122
0.950337 0.137244 0.805129
0.950282 0.134948 0.805136
0.950227 0.132653 0.805143
0.950172 0.130357 0.80515
0.950117 0.128061 0.805157
0.950063 0.125765 0.805164
0.950008 0.123469 0.805171
0.949953 0.121173 0.805179
0.949898 0.118878 0.805186
0.949843 0.116582 0.805193
0.949788 0.114286 0.8052
0.949733 0.11199 0.805207
0.949678 0.109694 0.805214
0.949623 0.107399 0.805221
0.949568 0.105103 0.805228
0.949514 0.102807 0.805235
0.949459 0.100511 0.805243
0.949404 0.0982152 0.80525
0.950325 0.0958146 0.805016
0.95027 0.093517 0.805023
0.950215 0.0912194 0.80503
0.951136 0.0888118 0.804796
0.951081 0.0865124 0.804803
0.951026 0.0842131 0.804811
0.950971 0.0819138 0.804818
0.951892 0.0794974 0.804584
0.951837 0.0771963 0.804591
0.951782 0.0748952 0.804598
0.951727 0.0725941 0.804605
0.951672 0.070293 0.804612
0.951617 0.0679919 0.80462
0.951562 0.0656909 0.804627
0.951507 0.0633898 0.804634
0.951452 0.0610887 0.804641
0.951397 0.0587876 0.804648
0.951342 0.0564865 0.804655
0.949336 0.0544582 0.805144
0.949281 0.0521606 0.805151
0.949226 0.049863 0.805158
0.948196 0.0477071 0.805406
0.947166 0.0455547 0.805654
0.947111 0.0432606 0.805661
0.947056 0.0409665 0.805668
0.945051 0.0389698 0.806157
0.944996 0.0366792 0.806164
0.944941 0.0343887 0.806171
0.942937 0.0324059 0.80666
0.942882 0.0301189 0.806667
0.942827 0.0278318 0.806674
0.940823 0.0258631 0.807163
0.940768 0.0235796 0.80717
0.940714 0.0212961 0.807177
0.939684 0.019177 0.807425
0.93963 0.0168952 0.807432
0.939575 0.0146134 0.807439
0.937571 0.012671 0.807928
0.937517 0.0103927 0.807935
0.937462 0.00811443 0.807942
0.937408 0.00583613 0.807949
0.935404 0.00391129 0.808437
0.93535 0.00163651 0.808445
0.935296 -0.000638263 0.808452
0.933292 -0.00254907 0.80894
0.933238 -0.00482033 0.808947
0.933184 -0.00709161 0.808954
0.931181 -0.00898839 0.809443
0.931127 -0.0112561 0.80945
0.931073 -0.0135239 0.809457
0.92907 -0.0154067 0.809945
0.929016 -0.0176709 0.809952
0.928962 -0.0199352 0.809959
0.925986 -0.0216061 0.810688
0.925932 -0.0238651 0.810695
0.925878 -0.0261241 0.810702
0.925824 -0.0283831 0.810709
0.922848 -0.0300277 0.811438
0.922794 -0.0322815 0.811445
0.92274 -0.0345352 0.811452
0.920739 -0.0363688 0.81194
0.920685 -0.0386191 0.811947
0.920632 -0.0408693 0.811954
0.918631 -0.0426889 0.812443
0.918577 -0.0449356 0.81245
0.918523 -0.0471823 0.812456
0.916523 -0.0489879 0.812945
0.916469 -0.0512311 0.812952
0.916415 -0.0534743 0.812959
0.914415 -0.0552659 0.813447
0.914362 -0.0575055 0.813454
0.914308 -0.0597452 0.813461
0.912308 -0.0615228 0.813949
0.912255 -0.063759 0.813956
0.912201 -0.0659951 0.813963
0.912148 -0.0682313 0.813969
0.910148 -0.0699913 0.814458
0.910095 -0.072224 0.814464
0.910041 -0.0744567 0.814471
0.909015 -0.076446 0.814719
0.908962 -0.0786769 0.814726
0.908908 -0.0809078 0.814733
0.90691 -0.0826415 0.815221
0.906856 -0.0848689 0.815228
0.906803 -0.0870964 0.815234
0.903832 -0.0885621 0.815963
0.903779 -0.0907843 0.81597
0.903726 -0.0930064 0.815977
0.899782 -0.094192 0.816945
0.899729 -0.0964071 0.816952
0.899676 -0.0986223 0.816959
0.899624 -0.100837 0.816966
0.895681 -0.101988 0.817935
0.895628 -0.104196 0.817942
0.895575 -0.106404 0.817948
0.891634 -0.107527 0.818917
0.891581 -0.109728 0.818924
0.891529 -0.111929 0.818931
0.889532 -0.113576 0.819418
0.889479 -0.115774 0.819425
0.889427 -0.117972 0.819432
0.886458 -0.119323 0.82016
0.886406 -0.121516 0.820167
0.886353 -0.123708 0.820174
0.885329 -0.125613 0.820421
0.885277 -0.127804 0.820428
0.885224 -0.129994 0.820435
0.885172 -0.132185 0.820441
0.88512 -0.134376 0.820448
0.885067 -0.136566 0.820455
0.885015 -0.138757 0.820462
0.883991 -0.140648 0.820709
0.883939 -0.142837 0.820716
0.883886 -0.145026 0.820722
0.883834 -0.147214 0.820729
0.883782 -0.149403 0.820736
0.883729 -0.151592 0.820743
0.883677 -0.153781 0.82075
0.884596 -0.156282 0.820516
0.884543 -0.158472 0.820523
0.884491 -0.160663 0.82053
0.884439 -0.162853 0.820536
0.884386 -0.165044 0.820543
0.884334 -0.167235 0.82055
0.885253 -0.169747 0.820316
0.87584 0.369334 0.821942
0.875789 0.36718 0.821949
0.875737 0.365026 0.821955
0.878628 0.36319 0.821232
0.878576 0.361031 0.821239
0.878524 0.358872 0.821246
0.881414 0.357014 0.820523
0.881362 0.35485 0.820529
0.881311 0.352685 0.820536
0.881259 0.350521 0.820543
0.884148 0.348637 0.81982
0.884096 0.346467 0.819827
0.884044 0.344298 0.819833
0.886933 0.342393 0.81911
0.886881 0.340218 0.819117
0.886829 0.338043 0.819124
0.889717 0.336117 0.818401
0.889665 0.333937 0.818408
0.889613 0.331757 0.818415
0.892501 0.329809 0.817692
0.892449 0.327624 0.817699
0.892396 0.325439 0.817705
0.895283 0.32347 0.816983
0.895231 0.32128 0.816989
0.895179 0.319089 0.816996
0.898065 0.3171 0.816274
0.898013 0.314904 0.81628
0.89796 0.312708 0.816287
0.897908 0.310512 0.816294
0.901773 0.308557 0.815328
0.901721 0.306354 0.815335
0.901668 0.304151 0.815342
0.904554 0.302112 0.81462
0.904501 0.299904 0.814626
0.904448 0.297696 0.814633
0.907333 0.295637 0.813911
0.90728 0.293423 0.813918
0.907227 0.29121 0.813925
0.910112 0.289129 0.813202
0.910059 0.286911 0.813209
0.910006 0.284692 0.813216
0.91289 0.28259 0.812494
0.912836 0.280366 0.812501
0.912783 0.278143 0.812507
0.915667 0.27602 0.811785
0.915613 0.273791 0.811792
0.91556 0.271562 0.811799
0.918443 0.269418 0.811077
0.91839 0.267183 0.811084
0.918336 0.264949 0.811091
0.918283 0.262715 0.811098
0.921165 0.260545 0.810376
0.921112 0.258305 0.810383
0.921058 0.256065 0.81039
0.92394 0.253874 0.809668
0.923886 0.251629 0.809675
0.923833 0.249384 0.809681
0.926714 0.247172 0.80896
0.92666 0.244922 0.808967
0.926606 0.242672 0.808974
0.929487 0.240438 0.808252
0.929433 0.238183 0.808259
0.929379 0.235927 0.808266
0.93226 0.233673 0.807544
0.932206 0.231413 0.807551
0.932152 0.229152 0.807558
0.934053 0.226881 0.807079
0.933999 0.224617 0.807086
0.933945 0.222353 0.807093
0.936825 0.220058 0.806371
0.93677 0.217789 0.806378
0.936716 0.215519 0.806385
0.936662 0.21325 0.806392
0.938563 0.210946 0.805914
0.938508 0.208673 0.805921
0.938454 0.2064 0.805928
0.940355 0.204082 0.805449
0.9403 0.201806 0.805456
0.940246 0.199529 0.805463
0.942146 0.197197 0.804985
0.942092 0.194917 0.804992
0.942037 0.192637 0.804999
0.943938 0.190291 0.80452
0.943883 0.188008 0.804527
0.943828 0.185724 0.804534
0.945728 0.183364 0.804056
0.945673 0.181077 0.804063
0.945619 0.17879 0.80407
0.946541 0.17646 0.803834
0.946486 0.174171 0.803841
0.946432 0.171882 0.803848
0.946377 0.169593 0.803856
0.947299 0.167254 0.80362
0.947244 0.164964 0.803627
0.947189 0.162673 0.803634
0.948111 0.160327 0.803398
0.948057 0.158035 0.803406
0.948002 0.155742 0.803413
0.948924 0.153389 0.803177
0.948869 0.151095 0.803184
0.948814 0.148801 0.803191
0.949736 0.146441 0.802956
0.949681 0.144145 0.802963
0.949626 0.141849 0.80297
0.950547 0.139482 0.802734
0.950492 0.137184 0.802741
0.950437 0.134886 0.802749
0.950382 0.132589 0.802756
0.950327 0.130291 0.802763
