ply
format ascii 1.0
comment Created by Open3D
element vertex 1796
property double x
property double y
property double z
end_header
0.856824 0.40488 0.755973
0.856772 0.402718 0.75598
0.856721 0.400555 0.755987
0.856669 0.398393 0.755994
0.856617 0.39623 0.756
0.856565 0.394068 0.756007
0.856514 0.391905 0.756014
0.856462 0.389743 0.75602
0.85641 0.38758 0.756027
0.856359 0.385418 0.756034
0.856307 0.383255 0.75604
0.856255 0.381093 0.756047
0.856204 0.37893 0.756054
0.856152 0.376768 0.756061
0.8561 0.374605 0.756067
0.85893 0.372781 0.755187
0.858879 0.370614 0.755194
0.858827 0.368446 0.7552
0.858775 0.366278 0.755207
0.858723 0.36411 0.755214
0.858671 0.361943 0.75522
0.858619 0.359775 0.755227
0.858568 0.357607 0.755234
0.858516 0.355439 0.755241
0.858464 0.353271 0.755247
0.858412 0.351104 0.755254
0.85836 0.348936 0.755261
0.858308 0.346768 0.755268
0.860177 0.344781 0.754683
0.860125 0.342609 0.75469
0.860073 0.340438 0.754696
0.860021 0.338267 0.754703
0.859969 0.336095 0.75471
0.857997 0.333761 0.755308
0.857946 0.331593 0.755315
0.857894 0.329426 0.755321
0.857842 0.327258 0.755328
0.85779 0.32509 0.755335
0.857738 0.322922 0.755341
0.857686 0.320755 0.755348
0.854756 0.318379 0.756242
0.854704 0.316217 0.756248
0.854652 0.314054 0.756255
0.852681 0.311764 0.756853
0.85263 0.309605 0.756859
0.852578 0.307446 0.756866
0.852527 0.305287 0.756873
0.852475 0.303128 0.75688
0.852423 0.300969 0.756886
0.852372 0.29881 0.756893
0.85232 0.296651 0.7569
0.85035 0.294392 0.757497
0.850299 0.292237 0.757504
0.850247 0.290081 0.757511
0.850195 0.287925 0.757517
0.847267 0.285641 0.758411
0.847215 0.283491 0.758417
0.847164 0.281341 0.758424
0.847113 0.279191 0.758431
0.847061 0.27704 0.758437
0.845092 0.274822 0.759035
0.845041 0.272675 0.759041
0.844989 0.270529 0.759048
0.844938 0.268382 0.759055
0.844887 0.266235 0.759061
0.84196 0.264012 0.759954
0.841908 0.261871 0.759961
0.841857 0.259729 0.759968
0.839889 0.257548 0.760565
0.839838 0.25541 0.760572
0.839787 0.253272 0.760578
0.839736 0.251134 0.760585
0.839685 0.248996 0.760592
0.839633 0.246858 0.760598
0.839582 0.24472 0.760605
0.836657 0.242559 0.761498
0.836606 0.240426 0.761504
0.836555 0.238293 0.761511
0.836504 0.236161 0.761517
0.836453 0.234028 0.761524
0.836402 0.231895 0.761531
0.836351 0.229763 0.761537
0.8363 0.22763 0.761544
0.836249 0.225497 0.761551
0.836198 0.223364 0.761557
0.836147 0.221232 0.761564
0.836096 0.219099 0.76157
0.836045 0.216966 0.761577
0.838867 0.214788 0.760698
0.838815 0.21265 0.760704
0.838764 0.210512 0.760711
0.840628 0.208334 0.760127
0.840577 0.206192 0.760134
0.840526 0.204051 0.76014
0.840475 0.201909 0.760147
0.840423 0.199768 0.760153
0.840372 0.197626 0.76016
0.840321 0.195485 0.760167
0.843142 0.193246 0.759288
0.845005 0.19103 0.758704
0.866544 0.443347 0.750864
0.866492 0.441167 0.750871
0.86644 0.438987 0.750878
0.866388 0.436807 0.750884
0.866335 0.434627 0.750891
0.866283 0.432447 0.750898
0.866231 0.430267 0.750905
0.864257 0.427773 0.751506
0.864205 0.425596 0.751513
0.86127 0.42296 0.752412
0.861218 0.420788 0.752419
0.859244 0.418317 0.753021
0.859192 0.41615 0.753027
0.85914 0.413982 0.753034
0.859088 0.411814 0.753041
0.859036 0.409646 0.753048
0.858985 0.407478 0.753054
0.856051 0.404893 0.753953
0.855999 0.40273 0.75396
0.855947 0.400568 0.753967
0.855896 0.398405 0.753973
0.855844 0.396243 0.75398
0.855792 0.39408 0.753987
0.85574 0.391918 0.753994
0.855689 0.389755 0.754
0.855637 0.387592 0.754007
0.855585 0.38543 0.754014
0.855534 0.383267 0.75402
0.855482 0.381105 0.754027
0.85543 0.378942 0.754034
0.855378 0.37678 0.75404
0.855327 0.374617 0.754047
0.858155 0.372794 0.753162
0.858103 0.370626 0.753169
0.858052 0.368458 0.753175
0.858 0.36629 0.753182
0.857948 0.364123 0.753189
0.857896 0.361955 0.753195
0.857844 0.359787 0.753202
0.857792 0.357619 0.753209
0.857741 0.355451 0.753216
0.857689 0.353284 0.753222
0.857637 0.351116 0.753229
0.857585 0.348948 0.753236
0.857533 0.34678 0.753242
0.859401 0.344793 0.752655
0.859349 0.342622 0.752661
0.859297 0.34045 0.752668
0.859245 0.338279 0.752675
0.859193 0.336108 0.752682
0.857222 0.333774 0.753283
0.85717 0.331606 0.753289
0.857119 0.329438 0.753296
0.857067 0.32727 0.753303
0.857015 0.325102 0.75331
0.856963 0.322935 0.753316
0.856911 0.320767 0.753323
0.853982 0.318392 0.754221
0.852013 0.316094 0.754823
0.851961 0.313935 0.754829
0.851909 0.311776 0.754836
0.851858 0.309617 0.754843
0.851806 0.307458 0.754849
0.851754 0.305299 0.754856
0.851703 0.30314 0.754863
0.849734 0.300871 0.755464
0.849682 0.298715 0.75547
0.849631 0.29656 0.755477
0.849579 0.294404 0.755484
0.849528 0.292249 0.75549
0.849476 0.290093 0.755497
0.846549 0.287804 0.756395
0.846498 0.285654 0.756402
0.846446 0.283503 0.756409
0.846395 0.281353 0.756415
0.846344 0.279203 0.756422
0.846292 0.277053 0.756429
0.844324 0.274834 0.757029
0.844273 0.272687 0.757036
0.844222 0.270541 0.757043
0.841296 0.268308 0.757941
0.841245 0.266166 0.757947
0.841194 0.264025 0.757954
0.841143 0.261883 0.757961
0.841091 0.259742 0.757967
0.839124 0.25756 0.758568
0.839073 0.255422 0.758575
0.839022 0.253284 0.758581
0.838971 0.251146 0.758588
0.83892 0.249008 0.758594
0.838869 0.24687 0.758601
0.838818 0.244732 0.758608
0.835894 0.242571 0.759505
0.835843 0.240438 0.759512
0.835792 0.238305 0.759519
0.835741 0.236173 0.759525
0.83569 0.23404 0.759532
0.835639 0.231907 0.759538
0.835588 0.229775 0.759545
0.835537 0.227642 0.759552
0.835486 0.225509 0.759558
0.835435 0.223376 0.759565
0.835384 0.221244 0.759571
0.835333 0.219111 0.759578
0.838153 0.216938 0.758694
0.838102 0.214801 0.7587
0.838051 0.212663 0.758707
0.838 0.210525 0.758714
0.839862 0.208346 0.758126
0.839811 0.206205 0.758133
0.83976 0.204063 0.75814
0.842579 0.201845 0.757256
0.842528 0.199698 0.757262
0.842476 0.197551 0.757269
0.842425 0.195405 0.757276
0.844287 0.193193 0.756688
0.847105 0.19094 0.755804
0.868647 0.443867 0.74793
0.868594 0.441681 0.747937
0.868542 0.439496 0.747944
0.86849 0.437311 0.74795
0.865556 0.434639 0.748855
0.865504 0.432459 0.748861
0.865452 0.430279 0.748868
0.865399 0.428099 0.748875
0.865347 0.425919 0.748882
0.863374 0.423432 0.749487
0.863322 0.421255 0.749493
0.860389 0.418629 0.750397
0.858417 0.416162 0.751002
0.858365 0.413994 0.751009
0.858313 0.411826 0.751016
0.858261 0.409658 0.751023
0.858209 0.407491 0.751029
0.858157 0.405323 0.751036
0.858106 0.403155 0.751043
0.858054 0.400987 0.751049
0.858002 0.39882 0.751056
0.85795 0.396652 0.751063
0.857898 0.394484 0.75107
0.857846 0.392316 0.751076
0.857795 0.390148 0.751083
0.857743 0.387981 0.75109
0.857691 0.385813 0.751096
0.857639 0.383645 0.751103
0.857587 0.381477 0.75111
0.857535 0.379309 0.751117
0.857484 0.377142 0.751123
0.857432 0.374974 0.75113
0.859299 0.373032 0.750539
0.859247 0.370861 0.750545
0.859195 0.368689 0.750552
0.859143 0.366518 0.750559
0.859091 0.364347 0.750566
0.859039 0.362176 0.750572
0.858987 0.360004 0.750579
0.858936 0.357833 0.750586
0.858884 0.355662 0.750593
0.858832 0.35349 0.750599
0.85878 0.351319 0.750606
0.858728 0.349148 0.750613
0.858676 0.346976 0.75062
0.858624 0.344805 0.750626
0.858572 0.342634 0.750633
0.85852 0.340463 0.75064
0.858468 0.338291 0.750646
0.858416 0.33612 0.750653
0.858364 0.333949 0.75066
0.858313 0.331777 0.750667
0.856343 0.32945 0.751271
0.856291 0.327282 0.751278
0.85624 0.325115 0.751285
0.853312 0.322729 0.752188
0.853261 0.320566 0.752195
0.853209 0.318404 0.752201
0.85124 0.316106 0.752806
0.851189 0.313947 0.752812
0.851137 0.311788 0.752819
0.851086 0.309629 0.752826
0.851034 0.30747 0.752832
0.850982 0.305311 0.752839
0.850931 0.303152 0.752846
0.848963 0.300883 0.75345
0.848911 0.298727 0.753457
0.84886 0.296572 0.753463
0.848808 0.294416 0.75347
0.848757 0.292261 0.753477
0.848705 0.290105 0.753484
0.84578 0.287816 0.754387
0.845729 0.285666 0.754393
0.845677 0.283516 0.7544
0.845626 0.281365 0.754407
0.845575 0.279215 0.754413
0.845523 0.277065 0.75442
0.843557 0.274846 0.755024
0.843505 0.2727 0.755031
0.843454 0.270553 0.755037
0.84053 0.26832 0.75594
0.840479 0.266178 0.755947
0.840428 0.264037 0.755953
0.840377 0.261895 0.75596
0.840326 0.259754 0.755967
0.83836 0.257572 0.756571
0.838309 0.255434 0.756577
0.838258 0.253296 0.756584
0.838207 0.251158 0.756591
0.838155 0.24902 0.756597
0.838104 0.246882 0.756604
0.838053 0.244744 0.75661
0.838002 0.242606 0.756617
0.83508 0.24045 0.75752
0.835029 0.238318 0.757526
0.834978 0.236185 0.757533
0.834927 0.234052 0.757539
0.834876 0.231919 0.757546
0.834825 0.229787 0.757553
0.834774 0.227654 0.757559
0.837593 0.225502 0.75667
0.837542 0.223364 0.756677
0.837491 0.221227 0.756683
0.83744 0.219089 0.75669
0.837389 0.216951 0.756697
0.837337 0.214813 0.756703
0.837286 0.212675 0.75671
0.839148 0.2105 0.756119
0.839097 0.208358 0.756126
0.839045 0.206217 0.756133
0.841863 0.204004 0.755244
0.843724 0.201806 0.754653
0.843672 0.199656 0.75466
0.843621 0.197505 0.754666
0.843569 0.195355 0.754673
0.843518 0.193205 0.75468
0.846334 0.190952 0.753791
0.867865 0.443879 0.745889
0.867813 0.441694 0.745895
0.867761 0.439508 0.745902
0.867708 0.437323 0.745909
0.867656 0.435138 0.745916
0.867604 0.432952 0.745923
0.867552 0.430767 0.745929
0.86462 0.428111 0.746838
0.864568 0.425931 0.746845
0.862596 0.423444 0.747453
0.862544 0.421268 0.74746
0.862492 0.419091 0.747467
0.859561 0.41647 0.748376
0.859509 0.414299 0.748383
0.859457 0.412128 0.748389
0.859405 0.409956 0.748396
0.859353 0.407785 0.748403
0.859301 0.405614 0.748409
0.859249 0.403442 0.748416
0.857279 0.401 0.749024
0.857227 0.398832 0.749031
0.857175 0.396664 0.749038
0.857123 0.394496 0.749044
0.857071 0.392328 0.749051
0.858938 0.390415 0.748457
0.858886 0.388243 0.748463
0.858834 0.386072 0.74847
0.858782 0.383901 0.748477
0.85873 0.38173 0.748483
0.858678 0.379558 0.74849
0.858626 0.377387 0.748497
0.858574 0.375216 0.748504
0.858522 0.373044 0.74851
0.858471 0.370873 0.748517
0.861295 0.36903 0.747622
0.861243 0.366854 0.747629
0.861191 0.364677 0.747636
0.861139 0.362501 0.747642
0.861087 0.360324 0.747649
0.861035 0.358147 0.747656
0.860983 0.355971 0.747663
0.860931 0.353794 0.747669
0.860879 0.351618 0.747676
0.860826 0.349441 0.747683
0.860774 0.347265 0.747689
0.860722 0.345088 0.747696
0.86067 0.342912 0.747703
0.860618 0.340735 0.74771
0.860566 0.338558 0.747716
0.85764 0.336132 0.748625
0.857588 0.333961 0.748632
0.857536 0.33179 0.748638
0.855568 0.329462 0.749246
0.855516 0.327295 0.749253
0.855464 0.325127 0.74926
0.852539 0.322741 0.750168
0.852487 0.320578 0.750174
0.852436 0.318416 0.750181
0.850468 0.316119 0.750789
0.850417 0.31396 0.750795
0.850365 0.311801 0.750802
0.850313 0.309642 0.750809
0.850262 0.307483 0.750816
0.848295 0.305206 0.751423
0.848244 0.303051 0.75143
0.848192 0.300895 0.751437
0.848141 0.29874 0.751443
0.848089 0.296584 0.75145
0.848038 0.294429 0.751457
0.845114 0.292129 0.752365
0.845063 0.289978 0.752371
0.845011 0.287828 0.752378
0.84496 0.285678 0.752384
0.844908 0.283528 0.752391
0.844857 0.281377 0.752398
0.844806 0.279227 0.752404
0.84284 0.277005 0.753012
0.842789 0.274858 0.753019
0.842738 0.272712 0.753025
0.842686 0.270565 0.753032
0.839765 0.268332 0.75394
0.839713 0.26619 0.753946
0.839662 0.264049 0.753953
0.839611 0.261907 0.75396
0.83956 0.259766 0.753966
0.837595 0.257584 0.754573
0.837544 0.255446 0.75458
0.837493 0.253308 0.754587
0.837442 0.25117 0.754593
0.837391 0.249032 0.7546
0.83734 0.246894 0.754607
0.837289 0.244756 0.754613
0.837237 0.242618 0.75462
0.834318 0.240462 0.755527
0.834267 0.23833 0.755534
0.834216 0.236197 0.755541
0.834165 0.234064 0.755547
0.834114 0.231931 0.755554
0.834063 0.229799 0.75556
0.834012 0.227666 0.755567
0.836828 0.225515 0.754673
0.836777 0.223377 0.754679
0.836726 0.221239 0.754686
0.836675 0.219101 0.754693
0.836624 0.216963 0.754699
0.836573 0.214825 0.754706
0.836522 0.212687 0.754713
0.838382 0.210512 0.754119
0.838331 0.20837 0.754125
0.83828 0.206229 0.754132
0.841095 0.204016 0.753238
0.842955 0.201818 0.752644
0.842903 0.199668 0.752651
0.842852 0.197518 0.752658
0.8428 0.195367 0.752664
0.842749 0.193217 0.752671
0.845564 0.190964 0.751777
0.867084 0.443891 0.743847
0.867031 0.441706 0.743854
0.866979 0.439521 0.743861
0.866927 0.437335 0.743868
0.866875 0.43515 0.743874
0.866822 0.432965 0.743881
0.86677 0.430779 0.743888
0.86384 0.428123 0.744802
0.863788 0.425943 0.744809
0.861818 0.423457 0.74542
0.861766 0.42128 0.745427
0.861713 0.419103 0.745434
0.858784 0.416483 0.746347
0.858732 0.414311 0.746354
0.85868 0.41214 0.746361
0.858629 0.409969 0.746368
0.858577 0.407797 0.746374
0.858525 0.405626 0.746381
0.858473 0.403455 0.746388
0.856503 0.401012 0.746999
0.856451 0.398844 0.747006
0.8564 0.396676 0.747013
0.856348 0.394508 0.747019
0.856296 0.392341 0.747026
0.858161 0.390427 0.746428
0.858109 0.388256 0.746435
0.858057 0.386084 0.746442
0.858006 0.383913 0.746448
0.857954 0.381742 0.746455
0.857902 0.37957 0.746462
0.85785 0.377399 0.746469
0.857798 0.375228 0.746475
0.857746 0.373057 0.746482
0.857694 0.370885 0.746489
0.860516 0.369043 0.745589
0.860464 0.366866 0.745596
0.860412 0.364689 0.745602
0.86036 0.362513 0.745609
0.860308 0.360336 0.745616
0.860256 0.35816 0.745622
0.860204 0.355983 0.745629
0.860152 0.353807 0.745636
0.8601 0.35163 0.745643
0.860048 0.349454 0.745649
0.859996 0.347277 0.745656
0.859944 0.3451 0.745663
0.859892 0.342924 0.74567
0.85984 0.340747 0.745676
0.859788 0.338571 0.745683
0.856863 0.336145 0.746596
0.856811 0.333973 0.746603
0.85676 0.331802 0.74661
0.854793 0.329475 0.747221
0.854741 0.327307 0.747228
0.854689 0.325139 0.747234
0.851766 0.322753 0.748148
0.851714 0.320591 0.748154
0.851662 0.318428 0.748161
0.849696 0.316131 0.748772
0.849645 0.313972 0.748779
0.849593 0.311813 0.748785
0.847627 0.309529 0.749396
0.847576 0.307374 0.749403
0.847524 0.305218 0.74941
0.847473 0.303063 0.749416
0.847421 0.300907 0.749423
0.844499 0.298592 0.750336
0.844448 0.296441 0.750342
0.844397 0.294291 0.750349
0.844345 0.292141 0.750356
0.844294 0.289991 0.750362
0.844242 0.28784 0.750369
0.844191 0.28569 0.750376
0.84414 0.28354 0.750382
0.844088 0.28139 0.750389
0.844037 0.279239 0.750396
0.842073 0.277017 0.751007
0.842021 0.274871 0.751013
0.84197 0.272724 0.75102
0.841919 0.270577 0.751026
0.838999 0.268344 0.751939
0.838947 0.266202 0.751946
0.838896 0.264061 0.751952
0.838845 0.261919 0.751959
0.838794 0.259778 0.751966
0.836831 0.257596 0.752576
0.83678 0.255458 0.752583
0.836728 0.25332 0.75259
0.836677 0.251182 0.752596
0.836626 0.249044 0.752603
0.836575 0.246906 0.752609
0.836524 0.244768 0.752616
0.836473 0.24263 0.752623
0.836422 0.240492 0.752629
0.836371 0.238355 0.752636
0.83632 0.236217 0.752643
0.836268 0.234079 0.752649
0.836217 0.231941 0.752656
0.836166 0.229803 0.752662
0.836115 0.227665 0.752669
0.836064 0.225527 0.752676
0.836013 0.223389 0.752682
0.835962 0.221251 0.752689
0.835911 0.219113 0.752696
0.835859 0.216975 0.752702
0.837719 0.214807 0.752105
0.837667 0.212665 0.752112
0.837616 0.210524 0.752118
0.84043 0.208322 0.751219
0.840379 0.206175 0.751226
0.840327 0.204028 0.751233
0.842186 0.20183 0.750636
0.842134 0.19968 0.750642
0.844947 0.197443 0.749744
0.844896 0.195287 0.74975
0.844844 0.193132 0.749757
0.846702 0.190908 0.74916
0.84665 0.188749 0.749167
0.86822 0.444242 0.741198
0.868168 0.442053 0.741204
0.868115 0.439864 0.741211
0.868063 0.437676 0.741218
0.866093 0.435162 0.741833
0.866041 0.432977 0.74184
0.865989 0.430792 0.741846
0.865936 0.428606 0.741853
0.865884 0.426421 0.74186
0.862956 0.423776 0.742779
0.862904 0.421596 0.742786
0.860935 0.419116 0.7434
0.860883 0.416939 0.743407
0.860831 0.414763 0.743414
0.857904 0.412152 0.744333
0.857852 0.409981 0.744339
0.8578 0.40781 0.744346
0.857748 0.405638 0.744353
0.857696 0.403467 0.744359
0.857644 0.401296 0.744366
0.857592 0.399124 0.744373
0.857541 0.396953 0.74438
0.857489 0.394782 0.744386
0.857437 0.392611 0.744393
0.857385 0.390439 0.7444
0.857333 0.388268 0.744407
0.857281 0.386097 0.744413
0.860102 0.384291 0.743508
0.86005 0.382114 0.743515
0.859998 0.379938 0.743522
0.859946 0.377761 0.743529
0.859894 0.375585 0.743535
0.859842 0.373408 0.743542
0.85979 0.371231 0.743549
0.859738 0.369055 0.743556
0.859686 0.366878 0.743562
0.859634 0.364702 0.743569
0.861497 0.362734 0.742968
0.861445 0.360554 0.742975
0.861392 0.358374 0.742982
0.86134 0.356194 0.742988
0.861288 0.354013 0.742995
0.859322 0.351642 0.743609
0.85927 0.349466 0.743616
0.859218 0.347289 0.743623
0.859166 0.345113 0.74363
0.859114 0.342936 0.743636
0.859062 0.34076 0.743643
0.85901 0.338583 0.74365
0.856087 0.336157 0.744568
0.856035 0.333986 0.744575
0.855983 0.331814 0.744582
0.854018 0.329487 0.745196
0.853966 0.327319 0.745203
0.853914 0.325151 0.745209
0.850992 0.322765 0.746127
0.850941 0.320603 0.746134
0.850889 0.31844 0.746141
0.848924 0.316143 0.746755
0.848873 0.313984 0.746762
0.848821 0.311825 0.746768
0.846857 0.309542 0.747383
0.846805 0.307386 0.747389
0.846754 0.305231 0.747396
0.846702 0.303075 0.747403
0.84665 0.30092 0.747409
0.84373 0.298604 0.748327
0.843679 0.296454 0.748334
0.843628 0.294303 0.74834
0.843576 0.292153 0.748347
0.843525 0.290003 0.748354
0.843473 0.287853 0.74836
0.843422 0.285702 0.748367
0.843371 0.283552 0.748374
0.843319 0.281402 0.74838
0.843268 0.279252 0.748387
0.841305 0.27703 0.749001
0.841254 0.274883 0.749008
0.841202 0.272736 0.749014
0.841151 0.270589 0.749021
0.838233 0.268356 0.749939
0.838182 0.266214 0.749945
0.83813 0.264073 0.749952
0.838079 0.261932 0.749959
0.838028 0.25979 0.749965
0.836066 0.257608 0.750579
0.836015 0.25547 0.750586
0.835964 0.253332 0.750592
0.835913 0.251194 0.750599
0.835862 0.249056 0.750606
0.835811 0.246918 0.750612
0.835759 0.244781 0.750619
0.835708 0.242643 0.750625
0.835657 0.240505 0.750632
0.835606 0.238367 0.750639
0.835555 0.236229 0.750645
0.835504 0.234091 0.750652
0.835453 0.231953 0.750659
0.835402 0.229815 0.750665
0.83535 0.227677 0.750672
0.835299 0.225539 0.750678
0.835248 0.223401 0.750685
0.835197 0.221263 0.750692
0.835146 0.219125 0.750698
0.837004 0.21696 0.750098
0.836953 0.214819 0.750105
0.836902 0.212677 0.750111
0.839714 0.21048 0.749207
0.839662 0.208334 0.749214
0.839611 0.206187 0.749221
0.841468 0.203993 0.74862
0.84428 0.201766 0.747717
0.844228 0.19961 0.747723
0.844177 0.197455 0.74773
0.844125 0.195299 0.747737
0.845982 0.193079 0.747136
0.847838 0.190851 0.746536
0.847786 0.188689 0.746543
0.867437 0.444254 0.739153
0.867385 0.442066 0.73916
0.867333 0.439877 0.739166
0.86728 0.437688 0.739173
0.867228 0.435499 0.73918
0.867176 0.43331 0.739187
0.865207 0.430804 0.739805
0.865155 0.428619 0.739812
0.865103 0.426433 0.739819
0.86505 0.424248 0.739825
0.864998 0.422063 0.739832
0.862072 0.419428 0.740756
0.860105 0.416952 0.741374
0.860053 0.414775 0.741381
0.857127 0.412165 0.742304
0.857076 0.409993 0.742311
0.857024 0.407822 0.742318
0.856972 0.405651 0.742324
0.85692 0.403479 0.742331
0.856868 0.401308 0.742338
0.856816 0.399137 0.742345
0.856764 0.396965 0.742351
0.856712 0.394794 0.742358
0.85666 0.392623 0.742365
0.856608 0.390452 0.742372
0.856556 0.38828 0.742378
0.856504 0.386109 0.742385
0.859324 0.384303 0.741475
0.859272 0.382127 0.741482
0.85922 0.37995 0.741489
0.859168 0.377773 0.741495
0.859116 0.375597 0.741502
0.859064 0.37342 0.741509
0.859012 0.371244 0.741515
0.85896 0.369067 0.741522
0.858908 0.366891 0.741529
0.858856 0.364714 0.741536
0.860717 0.362746 0.740931
0.860665 0.360566 0.740938
0.860613 0.358386 0.740945
0.860561 0.356206 0.740952
0.860509 0.354026 0.740958
0.858543 0.351655 0.741576
0.858491 0.349478 0.741583
0.858439 0.347302 0.74159
0.858387 0.345125 0.741596
0.858335 0.342948 0.741603
0.858283 0.340772 0.74161
0.858231 0.338595 0.741617
0.85531 0.336169 0.74254
0.855258 0.333998 0.742547
0.855207 0.331826 0.742553
0.853242 0.329499 0.743171
0.85319 0.327331 0.743178
0.853139 0.325164 0.743184
0.850219 0.322778 0.744107
0.850167 0.320615 0.744114
0.848204 0.318314 0.744731
0.848152 0.316155 0.744738
0.8481 0.313996 0.744745
0.846137 0.311709 0.745362
0.846086 0.309554 0.745369
0.846034 0.307398 0.745376
0.845983 0.305243 0.745382
0.845931 0.303087 0.745389
0.84588 0.300932 0.745396
0.842961 0.298616 0.746318
0.84291 0.296466 0.746325
0.842859 0.294315 0.746332
0.842807 0.292165 0.746338
0.842756 0.290015 0.746345
0.842704 0.287865 0.746352
0.842653 0.285714 0.746358
0.842602 0.283564 0.746365
0.84255 0.281414 0.746372
0.842499 0.279264 0.746378
0.840537 0.277042 0.746996
0.840486 0.274895 0.747002
0.840434 0.272748 0.747009
0.840383 0.270601 0.747016
0.837467 0.268368 0.747938
0.837416 0.266227 0.747945
0.837365 0.264085 0.747951
0.837313 0.261944 0.747958
0.837262 0.259802 0.747965
0.835302 0.25762 0.748582
0.83525 0.255482 0.748588
0.835199 0.253345 0.748595
0.835148 0.251207 0.748602
0.835097 0.249069 0.748608
0.835046 0.246931 0.748615
0.834995 0.244793 0.748622
0.834944 0.242655 0.748628
0.834893 0.240517 0.748635
0.834841 0.238379 0.748641
0.83479 0.236241 0.748648
0.834739 0.234103 0.748655
0.834688 0.231965 0.748661
0.834637 0.229827 0.748668
0.834586 0.227689 0.748675
0.834535 0.225551 0.748681
0.834484 0.223413 0.748688
0.834433 0.221275 0.748694
0.834381 0.219137 0.748701
0.836238 0.216972 0.748097
0.836187 0.214831 0.748104
0.836136 0.21269 0.748111
0.838946 0.210493 0.747202
0.838895 0.208346 0.747209
0.838843 0.206199 0.747215
0.840699 0.204005 0.746612
0.843509 0.201778 0.745703
0.843457 0.199623 0.74571
0.843406 0.197467 0.745716
0.843354 0.195312 0.745723
0.845209 0.193091 0.74512
0.847065 0.190863 0.744516
0.847013 0.188701 0.744523
0.866602 0.442078 0.737115
0.86655 0.439889 0.737122
0.866497 0.4377 0.737129
0.866445 0.435512 0.737135
0.866393 0.433323 0.737142
0.864426 0.430817 0.737764
0.864373 0.428631 0.73777
0.864321 0.426446 0.737777
0.864269 0.424261 0.737784
0.864217 0.422075 0.737791
0.861293 0.41944 0.738719
0.859326 0.416964 0.739341
0.859274 0.414787 0.739347
0.859222 0.412611 0.739354
0.85917 0.410434 0.739361
0.859118 0.408258 0.739368
0.856195 0.405663 0.740296
0.856143 0.403492 0.740303
0.856091 0.40132 0.74031
0.85604 0.399149 0.740316
0.855988 0.396978 0.740323
0.855936 0.394806 0.74033
0.855884 0.392635 0.740336
0.858702 0.390845 0.739422
0.85865 0.388669 0.739428
0.858598 0.386492 0.739435
0.858546 0.384315 0.739442
0.858494 0.382139 0.739449
0.860354 0.380199 0.738841
0.860302 0.378019 0.738848
0.86025 0.375839 0.738854
0.860198 0.373659 0.738861
0.860146 0.371479 0.738868
0.860094 0.369299 0.738875
0.860042 0.367119 0.738881
0.85999 0.364938 0.738888
0.859937 0.362758 0.738895
0.859885 0.360578 0.738902
0.859833 0.358398 0.738908
0.859781 0.356218 0.738915
0.859729 0.354038 0.738922
0.859677 0.351858 0.738929
0.859625 0.349678 0.738935
0.857661 0.347314 0.739556
0.857609 0.345137 0.739563
0.857557 0.342961 0.73957
0.857505 0.340784 0.739577
0.857453 0.338608 0.739583
0.854534 0.336181 0.740511
0.854482 0.33401 0.740518
0.85443 0.331839 0.740525
0.852467 0.329511 0.741146
0.849549 0.327115 0.742074
0.849497 0.324952 0.74208
0.849446 0.32279 0.742087
0.849394 0.320627 0.742094
0.847432 0.318326 0.742715
0.84738 0.316167 0.742721
0.847328 0.314008 0.742728
0.845366 0.311721 0.743349
0.845315 0.309566 0.743355
0.845263 0.30741 0.743362
0.845212 0.305255 0.743369
0.84516 0.303099 0.743375
0.845109 0.300944 0.743382
0.842193 0.298628 0.74431
0.842141 0.296478 0.744316
0.84209 0.294328 0.744323
0.842038 0.292177 0.74433
0.841987 0.290027 0.744336
0.841935 0.287877 0.744343
0.841884 0.285727 0.74435
0.841833 0.283576 0.744356
0.841781 0.281426 0.744363
0.84173 0.279276 0.74437
0.839769 0.277054 0.74499
0.839718 0.274907 0.744997
0.839667 0.27276 0.745004
0.839615 0.270614 0.74501
0.836701 0.26838 0.745938
0.83665 0.266239 0.745944
0.836599 0.264097 0.745951
0.836548 0.261956 0.745958
0.836496 0.259814 0.745964
0.834537 0.257633 0.746585
0.834486 0.255495 0.746591
0.834435 0.253357 0.746598
0.834384 0.251219 0.746604
0.834333 0.249081 0.746611
0.834281 0.246943 0.746618
0.83423 0.244805 0.746624
0.834179 0.242667 0.746631
0.834128 0.240529 0.746638
0.834077 0.238391 0.746644
0.834026 0.236253 0.746651
0.833975 0.234115 0.746657
0.833924 0.231977 0.746664
0.833872 0.229839 0.746671
0.833821 0.227701 0.746677
0.83377 0.225563 0.746684
0.833719 0.223425 0.746691
0.835575 0.221268 0.746084
0.835523 0.219126 0.74609
0.835472 0.216985 0.746097
0.838281 0.214798 0.745183
0.83823 0.212651 0.74519
0.838178 0.210505 0.745197
0.840033 0.208318 0.74459
0.839982 0.206167 0.744596
0.842789 0.203946 0.743683
0.842738 0.20179 0.743689
0.842686 0.199635 0.743696
0.844541 0.197421 0.743089
0.844489 0.195262 0.743096
0.844437 0.193103 0.743103
0.84915 0.190773 0.741576
0.849098 0.188605 0.741583
0.86869 0.442593 0.734143
0.868638 0.440399 0.73415
0.868585 0.438205 0.734157
0.868533 0.43601 0.734164
0.86848 0.433816 0.73417
0.865558 0.431146 0.735104
0.865505 0.428957 0.735111
0.865453 0.426769 0.735118
0.863487 0.424273 0.735742
0.863435 0.422088 0.735749
0.860513 0.419453 0.736683
0.860461 0.417272 0.736689
0.860409 0.415092 0.736696
0.860357 0.412912 0.736703
0.858392 0.410446 0.737328
0.85834 0.40827 0.737334
0.858288 0.406093 0.737341
0.858236 0.403917 0.737348
0.858184 0.40174 0.737355
0.858132 0.399564 0.737361
0.85808 0.397387 0.737368
0.858028 0.395211 0.737375
0.857975 0.393034 0.737382
0.857923 0.390857 0.737388
0.857871 0.388681 0.737395
0.857819 0.386504 0.737402
0.859679 0.384571 0.736791
0.859627 0.382391 0.736798
0.859575 0.380211 0.736804
0.859523 0.378031 0.736811
0.859471 0.375851 0.736818
0.862286 0.37401 0.735898
0.862233 0.371825 0.735905
0.862181 0.36964 0.735912
0.862129 0.367454 0.735918
0.862077 0.365269 0.735925
0.862024 0.363084 0.735932
0.861972 0.360898 0.735939
0.86192 0.358713 0.735946
0.861868 0.356528 0.735952
0.861815 0.354342 0.735959
0.858897 0.35187 0.736892
0.858845 0.34969 0.736899
0.858793 0.34751 0.736906
0.858741 0.34533 0.736912
0.858689 0.34315 0.736919
0.856726 0.340797 0.737543
0.856674 0.33862 0.73755
0.853757 0.336194 0.738483
0.853705 0.334022 0.73849
0.853654 0.331851 0.738497
0.851692 0.329524 0.739121
0.848776 0.327127 0.740054
0.848724 0.324965 0.74006
0.848672 0.322802 0.740067
0.848621 0.32064 0.740074
0.846659 0.318339 0.740698
0.846608 0.31618 0.740704
0.846556 0.314021 0.740711
0.844596 0.311734 0.741335
0.844544 0.309578 0.741342
0.844493 0.307423 0.741348
0.844441 0.305267 0.741355
0.844389 0.303112 0.741362
0.844338 0.300956 0.741369
0.841424 0.29864 0.742301
0.841372 0.29649 0.742308
0.841321 0.29434 0.742314
0.841269 0.29219 0.742321
0.841218 0.290039 0.742328
0.841166 0.287889 0.742334
0.841115 0.285739 0.742341
0.841064 0.283588 0.742348
0.841012 0.281438 0.742354
0.840961 0.279288 0.742361
0.840909 0.277138 0.742368
0.83895 0.274919 0.742992
0.838899 0.272772 0.742998
0.838848 0.270626 0.743005
0.838796 0.268479 0.743011
0.838745 0.266332 0.743018
0.838694 0.264185 0.743025
0.838642 0.262039 0.743031
0.838591 0.259892 0.743038
0.835679 0.257685 0.74397
0.835628 0.255543 0.743977
0.835577 0.253402 0.743984
0.835526 0.25126 0.74399
0.835475 0.249119 0.743997
0.835423 0.246977 0.744004
0.835372 0.244836 0.74401
0.835321 0.242695 0.744017
0.83527 0.240553 0.744023
0.835218 0.238412 0.74403
0.835167 0.23627 0.744037
0.835116 0.234129 0.744043
0.835065 0.231987 0.74405
0.835014 0.229846 0.744057
0.834962 0.227704 0.744063
0.834911 0.225563 0.74407
0.83486 0.223421 0.744077
0.837667 0.221251 0.743158
0.837616 0.219104 0.743165
0.837564 0.216957 0.743171
0.839418 0.21478 0.742561
0.839367 0.21263 0.742568
0.839316 0.21048 0.742574
0.842122 0.208269 0.741656
0.84207 0.206113 0.741662
0.843923 0.203911 0.741052
0.843872 0.201751 0.741059
0.84382 0.199592 0.741066
0.843769 0.197433 0.741072
0.843717 0.195274 0.741079
0.84557 0.19305 0.740469
0.848374 0.190785 0.739551
0.848323 0.188617 0.739557
0.867906 0.442605 0.732094
0.867853 0.440411 0.7321
0.867801 0.438217 0.732107
0.867748 0.436023 0.732114
0.867696 0.433829 0.732121
0.864775 0.431159 0.733059
0.864723 0.42897 0.733066
0.86467 0.426781 0.733073
0.862706 0.424285 0.733701
0.862654 0.4221 0.733708
0.859733 0.419465 0.734646
0.859681 0.417285 0.734653
0.859629 0.415105 0.73466
0.859577 0.412925 0.734666
0.857613 0.410459 0.735294
0.857561 0.408282 0.735301
0.857509 0.406106 0.735308
0.857457 0.403929 0.735315
0.857405 0.401753 0.735321
0.857353 0.399576 0.735328
0.857301 0.397399 0.735335
0.857249 0.395223 0.735341
0.857197 0.393046 0.735348
0.857145 0.39087 0.735355
0.857093 0.388693 0.735362
0.857041 0.386517 0.735368
0.858899 0.384584 0.734754
0.858847 0.382404 0.734761
0.858795 0.380224 0.734768
0.858743 0.378044 0.734775
0.858691 0.375863 0.734781
0.861504 0.374023 0.733857
0.861452 0.371837 0.733863
0.8614 0.369652 0.73387
0.861347 0.367467 0.733877
0.861295 0.365281 0.733884
0.861243 0.363096 0.733891
0.861191 0.360911 0.733897
0.861138 0.358725 0.733904
0.861086 0.35654 0.733911
0.861034 0.354355 0.733918
0.858118 0.351883 0.734856
0.858065 0.349703 0.734862
0.858013 0.347523 0.734869
0.856052 0.345162 0.735497
0.856 0.342985 0.735503
0.855948 0.340809 0.73551
0.855896 0.338632 0.735517
0.852981 0.336206 0.736455
0.852929 0.334035 0.736461
0.852877 0.331863 0.736468
0.850917 0.329536 0.737096
0.848002 0.327139 0.738033
0.847951 0.324977 0.73804
0.847899 0.322814 0.738047
0.847847 0.320652 0.738053
0.845887 0.318351 0.738681
0.845836 0.316192 0.738688
0.845784 0.314033 0.738694
0.843825 0.311746 0.739321
0.843773 0.30959 0.739328
0.843722 0.307435 0.739335
0.84367 0.305279 0.739342
0.843619 0.303124 0.739348
0.843567 0.300968 0.739355
0.840655 0.298652 0.740292
0.840603 0.296502 0.740299
0.840552 0.294352 0.740306
0.8405 0.292202 0.740312
0.840449 0.290051 0.740319
0.840398 0.287901 0.740326
0.840346 0.285751 0.740332
0.840295 0.283601 0.740339
0.840243 0.28145 0.740346
0.840192 0.2793 0.740352
0.84014 0.27715 0.740359
0.838183 0.274931 0.740986
0.838131 0.272785 0.740993
0.83808 0.270638 0.740999
0.838029 0.268491 0.741006
0.837977 0.266344 0.741013
0.837926 0.264198 0.741019
0.837875 0.262051 0.741026
0.837823 0.259904 0.741033
0.834914 0.257697 0.74197
0.834862 0.255556 0.741976
0.834811 0.253414 0.741983
0.83476 0.251273 0.74199
0.834709 0.249131 0.741996
0.834657 0.24699 0.742003
0.834606 0.244848 0.74201
0.834555 0.242707 0.742016
0.834504 0.240565 0.742023
0.834453 0.238424 0.74203
0.834401 0.236282 0.742036
0.83435 0.234141 0.742043
0.834299 0.231999 0.742049
0.834248 0.229858 0.742056
0.834197 0.227716 0.742063
0.834145 0.225575 0.742069
0.834094 0.223433 0.742076
0.836899 0.221263 0.741152
0.836848 0.219116 0.741159
0.836797 0.216969 0.741166
0.838649 0.214793 0.740552
0.838598 0.212642 0.740559
0.838547 0.210492 0.740566
0.841351 0.208281 0.739642
0.841299 0.206126 0.739649
0.843151 0.203923 0.739035
0.8431 0.201764 0.739042
0.843048 0.199605 0.739049
0.842996 0.197446 0.739056
0.842945 0.195287 0.739062
0.844796 0.193063 0.738449
0.847599 0.190797 0.737526
0.847547 0.18863 0.737532
0.869032 0.442952 0.729419
0.86898 0.440755 0.729426
0.868927 0.438557 0.729433
0.868875 0.43636 0.72944
0.868822 0.434162 0.729447
0.866859 0.431647 0.730078
0.86394 0.428982 0.731021
0.863887 0.426793 0.731028
0.863835 0.424604 0.731035
0.863783 0.422416 0.731042
0.86182 0.419927 0.731673
0.858902 0.417297 0.732616
0.85885 0.415117 0.732623
0.858797 0.412937 0.73263
0.858745 0.410757 0.732637
0.858693 0.408577 0.732643
0.858641 0.406397 0.73265
0.858589 0.404217 0.732657
0.858537 0.402037 0.732664
0.858485 0.399857 0.73267
0.858433 0.397676 0.732677
0.85838 0.395496 0.732684
0.858328 0.393316 0.732691
0.858276 0.391136 0.732697
0.858224 0.388956 0.732704
0.858172 0.386776 0.732711
0.85812 0.384596 0.732718
0.858068 0.382416 0.732724
0.858016 0.380236 0.732731
0.857963 0.378056 0.732738
0.860775 0.37622 0.731808
0.860723 0.374035 0.731815
0.86067 0.37185 0.731822
0.860618 0.369664 0.731829
0.860566 0.367479 0.731836
0.860514 0.365294 0.731842
0.860461 0.363108 0.731849
0.860409 0.360923 0.731856
0.860357 0.358738 0.731863
0.860304 0.356552 0.731869
0.85739 0.354075 0.732812
0.857338 0.351895 0.732819
0.857286 0.349715 0.732826
0.857234 0.347535 0.732833
0.855274 0.345174 0.733463
0.855222 0.342998 0.73347
0.85517 0.340821 0.733477
0.855118 0.338645 0.733484
0.852204 0.336218 0.734426
0.852153 0.334047 0.734433
0.852101 0.331876 0.73444
0.850141 0.329548 0.735071
0.847229 0.327152 0.736013
0.847177 0.324989 0.73602
0.847126 0.322827 0.736027
0.847074 0.320664 0.736033
0.845115 0.318363 0.736664
0.845064 0.316204 0.736671
0.845012 0.314045 0.736677
0.843054 0.311758 0.737308
0.843002 0.309603 0.737315
0.842951 0.307447 0.737321
0.842899 0.305292 0.737328
0.842848 0.303136 0.737335
0.842796 0.30098 0.737341
0.842745 0.298825 0.737348
0.842693 0.296669 0.737355
0.842642 0.294514 0.737361
0.839731 0.292214 0.738304
0.83968 0.290064 0.73831
0.839629 0.287913 0.738317
0.842435 0.285892 0.737388
0.842384 0.283736 0.737395
0.839474 0.281463 0.738337
0.839423 0.279312 0.738344
0.839371 0.277162 0.73835
0.83932 0.275012 0.738357
0.839269 0.272862 0.738364
0.839217 0.270711 0.73837
0.839166 0.268561 0.738377
0.839114 0.266411 0.738384
0.839063 0.264261 0.73839
0.839012 0.26211 0.738397
0.837056 0.259916 0.739027
0.837004 0.25777 0.739034
0.836953 0.255623 0.739041
0.836902 0.253476 0.739047
0.83685 0.251329 0.739054
0.836799 0.249183 0.739061
0.836748 0.247036 0.739067
0.836696 0.244889 0.739074
0.836645 0.242742 0.739081
0.836594 0.240596 0.739087
0.836542 0.238449 0.739094
0.836491 0.236302 0.7391
0.83644 0.234155 0.739107
0.836388 0.232009 0.739114
0.836337 0.229862 0.73912
0.836286 0.227715 0.739127
0.836234 0.225568 0.739134
0.836183 0.223422 0.73914
0.838035 0.221256 0.738524
0.837983 0.219105 0.73853
0.837932 0.216955 0.738537
0.840735 0.21476 0.737609
0.840683 0.212604 0.737615
0.840632 0.210449 0.737622
0.84058 0.208293 0.737629
0.840528 0.206138 0.737635
0.842379 0.203935 0.737019
0.84423 0.201725 0.736402
0.844178 0.199562 0.736409
0.844126 0.1974 0.736415
0.844075 0.195237 0.736422
0.846876 0.192977 0.735494
0.846824 0.19081 0.735501
0.846772 0.188642 0.735507
0.871112 0.443467 0.726425
0.871059 0.441264 0.726432
0.871007 0.439062 0.726438
0.868089 0.436372 0.727387
0.868036 0.434174 0.727394
0.867984 0.431977 0.727401
0.866022 0.429465 0.728035
0.865969 0.427271 0.728042
0.863052 0.424617 0.72899
0.863 0.422428 0.728997
0.862948 0.420239 0.729004
0.858122 0.417309 0.73058
0.85807 0.415129 0.730587
0.858018 0.412949 0.730593
0.857966 0.410769 0.7306
0.857914 0.408589 0.730607
0.857861 0.406409 0.730614
0.857809 0.404229 0.73062
0.857757 0.402049 0.730627
0.857705 0.399869 0.730634
0.857653 0.397689 0.730641
0.857601 0.395509 0.730647
0.857549 0.393329 0.730654
0.857497 0.391149 0.730661
0.857444 0.388969 0.730668
0.857392 0.386788 0.730674
0.860202 0.384974 0.72974
0.86015 0.382789 0.729747
0.860098 0.380603 0.729753
0.860046 0.378418 0.72976
0.859993 0.376233 0.729767
0.859941 0.374047 0.729774
0.859889 0.371862 0.729781
0.859837 0.369677 0.729787
0.859784 0.367491 0.729794
0.859732 0.365306 0.729801
0.85968 0.363121 0.729808
0.859627 0.360935 0.729814
0.859575 0.35875 0.729821
0.859523 0.356565 0.729828
0.85661 0.354087 0.730776
0.856558 0.351907 0.730783
0.856506 0.349727 0.730789
0.856454 0.347547 0.730796
0.854495 0.345187 0.73143
0.854443 0.34301 0.731437
0.854391 0.340833 0.731444
0.854339 0.338657 0.73145
0.851428 0.33623 0.732398
0.851376 0.334059 0.732405
0.851324 0.331888 0.732411
0.849366 0.329561 0.733046
0.849314 0.327393 0.733052
0.849262 0.325225 0.733059
0.846352 0.322839 0.734006
0.8463 0.320676 0.734013
0.846249 0.318514 0.73402
0.844292 0.316216 0.734654
0.84424 0.314057 0.73466
0.844188 0.311898 0.734667
0.844137 0.309739 0.734674
0.844085 0.30758 0.734681
0.844033 0.305421 0.734687
0.843982 0.303262 0.734694
0.84393 0.301103 0.734701
0.843879 0.298944 0.734707
0.843827 0.296785 0.734714
0.841871 0.294526 0.735348
0.841819 0.292371 0.735354
0.841768 0.290215 0.735361
0.841716 0.28806 0.735368
0.841665 0.285904 0.735374
0.841613 0.283749 0.735381
0.838705 0.281475 0.736328
0.838654 0.279324 0.736335
0.838603 0.277174 0.736342
0.838551 0.275024 0.736348
0.8385 0.272874 0.736355
0.838448 0.270723 0.736362
0.838397 0.268573 0.736368
0.838345 0.266423 0.736375
0.838294 0.264273 0.736382
0.838243 0.262122 0.736388
0.836288 0.259928 0.737022
0.836237 0.257782 0.737029
0.836185 0.255635 0.737035
0.836134 0.253488 0.737042
0.836083 0.251341 0.737048
0.836031 0.249195 0.737055
0.83598 0.247048 0.737062
0.835929 0.244901 0.737068
0.835877 0.242754 0.737075
0.835826 0.240608 0.737082
0.835775 0.238461 0.737088
0.835723 0.236314 0.737095
0.835672 0.234167 0.737102
0.835621 0.232021 0.737108
0.835569 0.229874 0.737115
0.835518 0.227727 0.737122
0.835467 0.22558 0.737128
0.835415 0.223434 0.737135
0.837266 0.221268 0.736515
0.837214 0.219117 0.736522
0.837163 0.216967 0.736528
0.839964 0.214772 0.735595
0.839912 0.212617 0.735602
0.839861 0.210461 0.735608
0.839809 0.208306 0.735615
0.839758 0.20615 0.735622
0.841607 0.203947 0.735002
0.843457 0.201737 0.734382
0.843405 0.199575 0.734388
0.843353 0.197412 0.734395
0.843301 0.19525 0.734402
0.846101 0.19299 0.733469
0.846049 0.190822 0.733476
0.845997 0.188654 0.733482
0.870324 0.44348 0.724367
0.870271 0.441277 0.724374
0.870219 0.439074 0.724381
0.867303 0.436385 0.725334
0.867251 0.434187 0.725341
0.867198 0.431989 0.725348
0.865237 0.429478 0.725985
0.865185 0.427284 0.725992
0.86227 0.424629 0.726946
0.862217 0.42244 0.726952
0.862165 0.420252 0.726959
0.857342 0.417322 0.728543
0.85729 0.415142 0.72855
0.857238 0.412962 0.728557
0.857186 0.410782 0.728564
0.857134 0.408601 0.72857
0.857082 0.406421 0.728577
0.85703 0.404241 0.728584
0.856978 0.402061 0.728591
0.856925 0.399881 0.728597
0.856873 0.397701 0.728604
0.856821 0.395521 0.728611
0.856769 0.393341 0.728618
0.856717 0.391161 0.728624
0.856665 0.388981 0.728631
0.856613 0.386801 0.728638
0.859421 0.384986 0.727698
0.859369 0.382801 0.727705
0.859316 0.380616 0.727712
0.859264 0.37843 0.727719
0.859212 0.376245 0.727726
0.85916 0.37406 0.727732
0.859107 0.371874 0.727739
0.859055 0.369689 0.727746
0.859003 0.367504 0.727753
0.85895 0.365318 0.727759
0.858898 0.363133 0.727766
0.858846 0.360948 0.727773
0.858794 0.358762 0.72778
0.858741 0.356577 0.727787
0.855831 0.3541 0.728739
0.855779 0.35192 0.728746
0.855727 0.34974 0.728753
0.855674 0.34756 0.72876
0.853717 0.345199 0.729397
0.853665 0.343022 0.729404
0.853613 0.340846 0.72941
0.853561 0.338669 0.729417
0.850651 0.336243 0.73037
0.8506 0.334071 0.730376
0.850548 0.3319 0.730383
0.848591 0.329573 0.73102
0.848539 0.327405 0.731027
0.848487 0.325237 0.731034
0.845579 0.322851 0.731986
0.845527 0.320689 0.731993
0.845475 0.318526 0.732
0.843519 0.316228 0.732637
0.843468 0.314069 0.732644
0.843416 0.31191 0.73265
0.843365 0.309751 0.732657
0.843313 0.307592 0.732664
0.843261 0.305433 0.73267
0.84321 0.303274 0.732677
0.843158 0.301115 0.732684
0.843106 0.298956 0.73269
0.843055 0.296797 0.732697
0.8411 0.294538 0.733334
0.841048 0.292383 0.733341
0.840997 0.290227 0.733347
0.840945 0.288072 0.733354
0.840894 0.285916 0.733361
0.840842 0.283761 0.733368
0.840791 0.281605 0.733374
0.840739 0.27945 0.733381
0.840688 0.277294 0.733388
0.840636 0.275139 0.733394
0.840584 0.272983 0.733401
0.840533 0.270828 0.733408
0.840481 0.268672 0.733414
0.84043 0.266517 0.733421
0.840378 0.264361 0.733428
0.837474 0.262135 0.73438
0.837422 0.259984 0.734386
0.837371 0.257834 0.734393
0.837319 0.255684 0.7344
0.837268 0.253534 0.734406
0.837217 0.251383 0.734413
0.837165 0.249233 0.73442
0.837114 0.247083 0.734426
0.837062 0.244933 0.734433
0.837011 0.242782 0.73444
0.83696 0.240632 0.734446
0.836908 0.238482 0.734453
0.836857 0.236332 0.73446
0.836805 0.234181 0.734466
0.836754 0.232031 0.734473
0.836702 0.229881 0.73448
0.836651 0.227731 0.734486
0.8366 0.22558 0.734493
0.836548 0.22343 0.7345
0.836497 0.22128 0.734506
0.839296 0.219095 0.733568
0.839244 0.21694 0.733575
0.839193 0.214784 0.733581
0.839141 0.212629 0.733588
0.84099 0.210436 0.732965
0.840938 0.208277 0.732971
0.840887 0.206118 0.732978
0.842735 0.203912 0.732355
0.845533 0.201673 0.731417
0.845481 0.199505 0.731424
0.845429 0.197338 0.73143
0.845377 0.19517 0.731437
0.845325 0.193002 0.731444
0.847173 0.190766 0.730821
0.847121 0.188594 0.730827
0.872345 0.441787 0.721365
0.872292 0.439578 0.721371
0.869378 0.436884 0.72233
0.869326 0.434681 0.722336
0.869273 0.432478 0.722343
0.86636 0.429804 0.723302
0.866307 0.427607 0.723308
0.864347 0.425102 0.723949
0.864295 0.422908 0.723956
0.861382 0.420264 0.724914
0.859423 0.417779 0.725555
0.859371 0.415593 0.725562
0.859319 0.413408 0.725569
0.859266 0.411223 0.725576
0.859214 0.409037 0.725583
0.856302 0.406434 0.726541
0.85625 0.404254 0.726547
0.856198 0.402074 0.726554
0.856146 0.399894 0.726561
0.856094 0.397713 0.726568
0.856042 0.395533 0.726574
0.855989 0.393353 0.726581
0.858796 0.391555 0.725637
0.858744 0.389369 0.725643
0.858692 0.387184 0.72565
0.858639 0.384999 0.725657
0.858587 0.382813 0.725664
0.86044 0.380865 0.725037
0.860388 0.378676 0.725043
0.860335 0.376487 0.72505
0.860283 0.374298 0.725057
0.860231 0.37211 0.725064
0.860178 0.369921 0.72507
0.860126 0.367732 0.725077
0.860074 0.365543 0.725084
0.860021 0.363354 0.725091
0.859969 0.361165 0.725098
0.858012 0.358775 0.725738
0.85796 0.356589 0.725745
0.857908 0.354404 0.725752
0.854999 0.351932 0.726709
0.854947 0.349752 0.726716
0.854895 0.347572 0.726723
0.854843 0.345392 0.72673
0.854791 0.343212 0.726737
0.852835 0.340858 0.727377
0.852783 0.338682 0.727384
0.85273 0.336505 0.727391
0.849823 0.334084 0.728348
0.849771 0.331912 0.728355
0.849719 0.329741 0.728362
0.847764 0.327417 0.729002
0.847712 0.325249 0.729009
0.84766 0.323082 0.729016
0.847608 0.320914 0.729022
0.844702 0.318538 0.72998
0.84465 0.316376 0.729986
0.844599 0.314213 0.729993
0.842644 0.311923 0.730633
0.842592 0.309764 0.73064
0.842541 0.307605 0.730647
0.842489 0.305446 0.730653
0.842438 0.303287 0.73066
0.842386 0.301128 0.730667
0.842334 0.298969 0.730674
0.842283 0.29681 0.73068
0.842231 0.29465 0.730687
0.842179 0.292491 0.730694
0.842128 0.290332 0.7307
0.842076 0.288173 0.730707
0.842025 0.286014 0.730714
0.841973 0.283855 0.73072
0.841921 0.281696 0.730727
0.84187 0.279537 0.730734
0.841818 0.277378 0.73074
0.841767 0.275219 0.730747
0.841715 0.27306 0.730754
0.841663 0.270901 0.730761
0.841612 0.268742 0.730767
0.84156 0.266583 0.730774
0.841508 0.264424 0.730781
0.841457 0.262265 0.730787
0.841405 0.260106 0.730794
0.841354 0.257947 0.730801
0.841302 0.255788 0.730807
0.84125 0.253629 0.730814
0.841199 0.25147 0.730821
0.841147 0.249311 0.730827
0.839195 0.247129 0.731468
0.839144 0.244974 0.731474
0.839092 0.242818 0.731481
0.839041 0.240663 0.731488
0.838989 0.238507 0.731494
0.838937 0.236352 0.731501
0.838886 0.234196 0.731508
0.838834 0.232041 0.731514
0.838783 0.229885 0.731521
0.840631 0.227721 0.730894
0.840579 0.225562 0.730901
0.840528 0.223403 0.730908
0.840476 0.221244 0.730914
0.840424 0.219085 0.730921
0.840373 0.216926 0.730928
0.84222 0.214737 0.730301
0.842168 0.212574 0.730308
0.842117 0.210412 0.730315
0.844913 0.208189 0.729372
0.844861 0.206021 0.729378
0.844809 0.203853 0.729385
0.846656 0.201635 0.728759
0.846604 0.199463 0.728765
0.846552 0.197292 0.728772
0.8465 0.195121 0.728779
0.846448 0.192949 0.728786
0.849244 0.190675 0.727843
0.849192 0.188499 0.727849
0.873462 0.442131 0.718664
0.871503 0.439591 0.719309
0.868591 0.436896 0.720272
0.868538 0.434693 0.720279
0.868485 0.43249 0.720285
0.868433 0.430288 0.720292
0.86838 0.428085 0.720299
0.865469 0.425421 0.721262
0.865416 0.423224 0.721269
0.863458 0.420726 0.721913
0.860547 0.418087 0.722876
0.860495 0.415899 0.722883
0.860442 0.41371 0.72289
0.858485 0.411235 0.723534
0.858433 0.40905 0.723541
0.85838 0.406864 0.723548
0.858328 0.404679 0.723555
0.858276 0.402494 0.723561
0.858224 0.400308 0.723568
0.858171 0.398123 0.723575
0.858119 0.395938 0.723582
0.858067 0.393752 0.723588
0.858015 0.391567 0.723595
0.857962 0.389382 0.723602
0.85791 0.387196 0.723609
0.857858 0.385011 0.723616
0.857806 0.382826 0.723622
0.859657 0.380877 0.722992
0.859605 0.378688 0.722999
0.859553 0.3765 0.723005
0.8595 0.374311 0.723012
0.859448 0.372122 0.723019
0.859396 0.369933 0.723026
0.859343 0.367744 0.723032
0.859291 0.365555 0.723039
0.859239 0.363367 0.723046
0.859186 0.361178 0.723053
0.857231 0.358787 0.723697
0.857178 0.356602 0.723704
0.857126 0.354416 0.72371
0.854219 0.351944 0.724673
0.854167 0.349764 0.72468
0.854115 0.347584 0.724686
0.854063 0.345404 0.724693
0.854011 0.343224 0.7247
0.852056 0.34087 0.725344
0.852004 0.338694 0.725351
0.851952 0.336517 0.725357
0.849047 0.334096 0.72632
0.848995 0.331925 0.726326
0.848943 0.329753 0.726333
0.846989 0.32743 0.726977
0.846937 0.325262 0.726984
0.846885 0.323094 0.72699
0.846833 0.320926 0.726997
0.843929 0.31855 0.727959
0.843877 0.316388 0.727966
0.843825 0.314225 0.727973
0.841872 0.311935 0.728617
0.84182 0.309776 0.728623
0.841769 0.307617 0.72863
0.841717 0.305458 0.728637
0.841666 0.303299 0.728643
0.841614 0.30114 0.72865
0.841562 0.298981 0.728657
0.841511 0.296822 0.728663
0.841459 0.294663 0.72867
0.841407 0.292504 0.728677
0.841356 0.290345 0.728683
0.841304 0.288186 0.72869
0.841253 0.286027 0.728697
0.841201 0.283868 0.728704
0.841149 0.281709 0.72871
0.841098 0.27955 0.728717
0.841046 0.277391 0.728724
0.840994 0.275231 0.72873
0.840943 0.273072 0.728737
0.840891 0.270913 0.728744
0.84084 0.268754 0.72875
0.840788 0.266595 0.728757
0.840736 0.264436 0.728764
0.840685 0.262277 0.72877
0.840633 0.260118 0.728777
0.840581 0.257959 0.728784
0.84053 0.2558 0.72879
0.840478 0.253641 0.728797
0.840427 0.251482 0.728804
0.840375 0.249323 0.728811
0.838424 0.247141 0.729454
0.838373 0.244986 0.729461
0.838321 0.24283 0.729467
0.83827 0.240675 0.729474
0.838218 0.238519 0.729481
0.838167 0.236364 0.729487
0.838115 0.234208 0.729494
0.838064 0.232053 0.729501
0.838012 0.229897 0.729507
0.839859 0.227733 0.728877
0.839807 0.225574 0.728884
0.839755 0.223415 0.728891
0.839704 0.221256 0.728898
0.839652 0.219097 0.728904
0.839601 0.216938 0.728911
0.841447 0.214749 0.728281
0.841395 0.212587 0.728288
0.841343 0.210424 0.728295
0.844138 0.208201 0.727347
0.844086 0.206033 0.727353
0.844034 0.203865 0.72736
0.84588 0.201647 0.72673
0.845828 0.199475 0.726737
0.845776 0.197304 0.726744
0.845724 0.195133 0.72675
0.845672 0.192962 0.726757
0.848465 0.190688 0.725809
0.848413 0.188511 0.725816
0.848361 0.186335 0.725823
0.872671 0.442143 0.716598
0.870713 0.439603 0.717246
0.867803 0.436909 0.718214
0.86775 0.434706 0.718221
0.867697 0.432503 0.718228
0.867645 0.4303 0.718234
0.867592 0.428097 0.718241
0.864683 0.425434 0.719209
0.86463 0.423236 0.719216
0.862673 0.420739 0.719864
0.859764 0.4181 0.720832
0.859712 0.415911 0.720839
0.85966 0.413722 0.720845
0.857703 0.411247 0.721493
0.857651 0.409062 0.7215
0.857599 0.406877 0.721506
0.857547 0.404691 0.721513
0.857494 0.402506 0.72152
0.857442 0.400321 0.721527
0.85739 0.398135 0.721533
0.857338 0.39595 0.72154
0.857285 0.393765 0.721547
0.857233 0.391579 0.721554
0.857181 0.389394 0.721561
0.857128 0.387209 0.721567
0.857076 0.385023 0.721574
0.857024 0.382838 0.721581
0.858875 0.38089 0.720947
0.858822 0.378701 0.720954
0.85877 0.376512 0.720961
0.858718 0.374323 0.720967
0.858665 0.372134 0.720974
0.858613 0.369945 0.720981
0.858561 0.367757 0.720988
0.858508 0.365568 0.720995
0.856554 0.36317 0.721642
0.856501 0.360985 0.721649
0.856449 0.3588 0.721655
0.856397 0.356614 0.721662
0.856345 0.354429 0.721669
0.856292 0.352244 0.721676
0.85624 0.350058 0.721682
0.853336 0.347597 0.72265
0.853283 0.345417 0.722657
0.853231 0.343236 0.722663
0.851278 0.340883 0.723311
0.851226 0.338706 0.723317
0.851174 0.33653 0.723324
0.84827 0.334108 0.724291
0.848218 0.331937 0.724298
0.848166 0.329766 0.724305
0.848114 0.327594 0.724312
0.848062 0.325423 0.724318
0.84611 0.323106 0.724965
0.846058 0.320938 0.724972
0.846006 0.318771 0.724979
