ply
format ascii 1.0
comment Created by Open3D
element vertex 1794
property double x
property double y
property double z
end_header
0.974709 0.236343 0.860684
0.974666 0.234023 0.860617
0.974624 0.231703 0.86055
0.974581 0.229384 0.860484
0.974539 0.227064 0.860417
0.974496 0.224744 0.86035
0.974453 0.222425 0.860283
0.977418 0.220108 0.859636
0.977375 0.217783 0.859569
0.977333 0.215458 0.859502
0.97729 0.213134 0.859435
0.977247 0.210809 0.859368
0.977204 0.208484 0.859301
0.980169 0.206131 0.858653
0.980126 0.2038 0.858586
0.980083 0.20147 0.858519
0.98004 0.19914 0.858452
0.979997 0.19681 0.858385
0.979955 0.19448 0.858318
0.982918 0.19209 0.857668
0.982875 0.189754 0.857601
0.982832 0.187419 0.857534
0.979783 0.185159 0.858049
0.979741 0.182828 0.857982
0.979698 0.180498 0.857915
0.979655 0.178168 0.857848
0.979612 0.175838 0.857781
0.979569 0.173508 0.857714
0.979527 0.171177 0.857647
0.979484 0.168847 0.85758
0.979441 0.166517 0.857513
0.979398 0.164187 0.857446
0.979355 0.161856 0.857379
0.979313 0.159526 0.857312
0.97927 0.157196 0.857244
0.979227 0.154866 0.857177
0.979184 0.152536 0.85711
0.979141 0.150205 0.857043
0.979099 0.147875 0.856976
0.979056 0.145545 0.856909
0.979013 0.143215 0.856842
0.97897 0.140884 0.856775
0.978927 0.138554 0.856708
0.978885 0.136224 0.856641
0.978842 0.133894 0.856574
0.978799 0.131564 0.856507
0.978756 0.129233 0.85644
0.978713 0.126903 0.856373
0.978671 0.124573 0.856306
0.981631 0.122025 0.855652
0.981588 0.11969 0.855584
0.981545 0.117354 0.855517
0.981502 0.115019 0.85545
0.97437 0.539085 0.868228
0.974328 0.536775 0.868161
0.974285 0.534464 0.868095
0.974243 0.532153 0.868028
0.974201 0.529842 0.867962
0.977176 0.528234 0.86733
0.977134 0.525918 0.867263
0.977091 0.523602 0.867197
0.977049 0.521286 0.86713
0.977006 0.518969 0.867063
0.976964 0.516653 0.866997
0.976921 0.514337 0.86693
0.976879 0.512021 0.866863
0.978848 0.510145 0.866419
0.978805 0.507826 0.866352
0.978762 0.505506 0.866285
0.97872 0.503186 0.866219
0.978677 0.500867 0.866152
0.978634 0.498547 0.866085
0.978592 0.496227 0.866018
0.978549 0.493908 0.865952
0.978507 0.491588 0.865885
0.978464 0.489268 0.865818
0.978421 0.486948 0.865751
0.978379 0.484629 0.865685
0.978336 0.482309 0.865618
0.978294 0.479989 0.865551
0.978251 0.47767 0.865484
0.978208 0.47535 0.865418
0.976155 0.472645 0.86573
0.976113 0.470329 0.865663
0.97607 0.468013 0.865597
0.976028 0.465697 0.86553
0.975985 0.463381 0.865463
0.975943 0.461064 0.865397
0.9759 0.458748 0.86533
0.975857 0.456432 0.865263
0.9728 0.453581 0.865767
0.972757 0.45127 0.865701
0.9697 0.448434 0.866204
0.969658 0.446129 0.866138
0.969616 0.443823 0.866072
0.969573 0.441517 0.866005
0.969531 0.439212 0.865939
0.969488 0.436906 0.865873
0.969446 0.4346 0.865806
0.969404 0.432295 0.86574
0.969361 0.429989 0.865674
0.969319 0.427683 0.865607
0.969277 0.425378 0.865541
0.969234 0.423072 0.865475
0.972206 0.421228 0.864836
0.972163 0.418917 0.864769
0.972121 0.416606 0.864703
0.972078 0.414295 0.864636
0.972036 0.411984 0.86457
0.971993 0.409673 0.864503
0.974964 0.407792 0.863864
0.974922 0.405476 0.863797
0.974879 0.40316 0.86373
0.974836 0.400843 0.863664
0.974794 0.398527 0.863597
0.97676 0.39648 0.863148
0.976717 0.39416 0.863081
0.976675 0.391841 0.863014
0.979644 0.389909 0.862373
0.979602 0.387584 0.862306
0.979559 0.385259 0.862239
0.979516 0.382934 0.862172
0.979473 0.380609 0.862105
0.979431 0.378284 0.862038
0.979388 0.375959 0.861971
0.976334 0.373283 0.86248
0.976291 0.370963 0.862413
0.976248 0.368644 0.862347
0.976206 0.366324 0.86228
0.976163 0.364004 0.862213
0.976121 0.361685 0.862146
0.974071 0.359152 0.862464
0.974028 0.356836 0.862397
0.973986 0.35452 0.86233
0.973943 0.352203 0.862264
0.973901 0.349887 0.862197
0.973858 0.347571 0.86213
0.973815 0.345255 0.862064
0.973773 0.342939 0.861997
0.97373 0.340622 0.861931
0.973688 0.338306 0.861864
0.973645 0.33599 0.861797
0.973603 0.333674 0.861731
0.97356 0.331358 0.861664
0.973518 0.329041 0.861597
0.973475 0.326725 0.861531
0.973433 0.324409 0.861464
0.97339 0.322093 0.861397
0.973347 0.319777 0.861331
0.973305 0.31746 0.861264
0.973262 0.315144 0.861197
0.97322 0.312828 0.861131
0.973177 0.310512 0.861064
0.973135 0.308196 0.860997
0.973092 0.305879 0.860931
0.97305 0.303563 0.860864
0.973007 0.301247 0.860797
0.972965 0.298931 0.860731
0.972922 0.296615 0.860664
0.97288 0.294299 0.860597
0.972837 0.291982 0.860531
0.9748 0.289774 0.860077
0.974757 0.287454 0.86001
0.974715 0.285134 0.859943
0.974672 0.282815 0.859876
0.974629 0.280495 0.85981
0.974587 0.278175 0.859743
0.974544 0.275856 0.859676
0.974502 0.273536 0.859609
0.974459 0.271216 0.859543
0.974416 0.268897 0.859476
0.974374 0.266577 0.859409
0.974331 0.264257 0.859342
0.974289 0.261937 0.859276
0.974246 0.259618 0.859209
0.974203 0.257298 0.859142
0.974161 0.254978 0.859075
0.974118 0.252659 0.859009
0.974076 0.250339 0.858942
0.974033 0.248019 0.858875
0.97399 0.2457 0.858808
0.973948 0.24338 0.858741
0.973905 0.24106 0.858675
0.973863 0.23874 0.858608
0.97382 0.236421 0.858541
0.973777 0.234101 0.858474
0.973735 0.231781 0.858408
0.973692 0.229462 0.858341
0.973649 0.227142 0.858274
0.973607 0.224822 0.858207
0.973564 0.222503 0.858141
0.976527 0.220187 0.857488
0.976484 0.217862 0.857421
0.976442 0.215537 0.857355
0.976399 0.213212 0.857288
0.976356 0.210887 0.857221
0.976313 0.208562 0.857154
0.979275 0.206209 0.856501
0.979233 0.203879 0.856433
0.97919 0.201549 0.856366
0.979147 0.199218 0.856299
0.979104 0.196888 0.856232
0.979061 0.194558 0.856165
0.982023 0.192168 0.855511
0.98198 0.189833 0.855444
0.981937 0.187497 0.855376
0.97889 0.185237 0.855897
0.978847 0.182907 0.85583
0.978805 0.180577 0.855763
0.978762 0.178246 0.855696
0.978719 0.175916 0.855629
0.978676 0.173586 0.855562
0.978633 0.171256 0.855495
0.978591 0.168925 0.855427
0.978548 0.166595 0.85536
0.978505 0.164265 0.855293
0.978462 0.161935 0.855226
0.978419 0.159605 0.855159
0.978377 0.157274 0.855092
0.978334 0.154944 0.855025
0.978291 0.152614 0.854958
0.978248 0.150284 0.854891
0.978205 0.147954 0.854824
0.978163 0.145623 0.854757
0.97812 0.143293 0.85469
0.978077 0.140963 0.854623
0.978034 0.138633 0.854556
0.977991 0.136302 0.854489
0.977949 0.133972 0.854422
0.977906 0.131642 0.854354
0.977863 0.129312 0.854287
0.97782 0.126982 0.85422
0.977777 0.124651 0.854153
0.980736 0.122104 0.853494
0.980693 0.119768 0.853427
0.98065 0.117433 0.85336
0.980607 0.115097 0.853293
0.973485 0.539163 0.866093
0.973442 0.536852 0.866027
0.9734 0.534541 0.86596
0.973357 0.53223 0.865894
0.973315 0.529919 0.865827
0.976289 0.528312 0.865191
0.976246 0.525996 0.865124
0.976204 0.52368 0.865057
0.976161 0.521363 0.864991
0.976118 0.519047 0.864924
0.976076 0.516731 0.864857
0.976033 0.514415 0.864791
0.975991 0.512099 0.864724
0.977958 0.510223 0.864276
0.977916 0.507904 0.86421
0.977873 0.505584 0.864143
0.977831 0.503264 0.864076
0.977788 0.500945 0.864009
0.977745 0.498625 0.863943
0.977703 0.496305 0.863876
0.97766 0.493986 0.863809
0.977618 0.491666 0.863742
0.977575 0.489346 0.863675
0.977532 0.487026 0.863609
0.97749 0.484707 0.863542
0.977447 0.482387 0.863475
0.977405 0.480067 0.863408
0.977362 0.477748 0.863342
0.977319 0.475428 0.863275
0.975268 0.472723 0.863591
0.975225 0.470407 0.863524
0.975182 0.468091 0.863457
0.97514 0.465775 0.863391
0.975097 0.463459 0.863324
0.975055 0.461142 0.863257
0.975012 0.458826 0.863191
0.97497 0.45651 0.863124
0.971914 0.453659 0.863633
0.971872 0.451348 0.863566
0.971829 0.449037 0.8635
0.971787 0.446726 0.863433
0.971744 0.444415 0.863367
0.971702 0.442104 0.8633
0.97166 0.439793 0.863233
0.971617 0.437482 0.863167
0.971575 0.435171 0.8631
0.971532 0.43286 0.863034
0.97149 0.430549 0.862967
0.971447 0.428238 0.862901
0.971405 0.425927 0.862834
0.971362 0.423616 0.862768
0.974332 0.421767 0.862124
0.974289 0.419451 0.862058
0.974247 0.417135 0.861991
0.974204 0.414818 0.861924
0.974161 0.412502 0.861858
0.974119 0.410186 0.861791
0.976084 0.408157 0.861339
0.976041 0.405837 0.861272
0.975999 0.403517 0.861205
0.978967 0.401612 0.86056
0.978924 0.399287 0.860493
0.978881 0.396962 0.860426
0.981849 0.395035 0.85978
0.981806 0.392705 0.859713
0.981764 0.390375 0.859646
0.984731 0.388427 0.859
0.984688 0.386092 0.858932
0.984645 0.383756 0.858865
0.984602 0.381421 0.858798
0.984559 0.379085 0.858731
0.984517 0.37675 0.858664
0.981464 0.374063 0.859177
0.981421 0.371733 0.85911
0.981378 0.369403 0.859043
0.981336 0.367073 0.858976
0.981293 0.364742 0.858908
0.978241 0.362087 0.859423
0.978198 0.359762 0.859356
0.978155 0.357437 0.859289
0.975104 0.354803 0.859803
0.975061 0.352484 0.859737
0.975019 0.350164 0.85967
0.974976 0.347844 0.859603
0.974933 0.345525 0.859536
0.974891 0.343205 0.85947
0.974848 0.340885 0.859403
0.974806 0.338566 0.859336
0.974763 0.336246 0.859269
0.97472 0.333926 0.859203
0.974678 0.331606 0.859136
0.974635 0.329287 0.859069
0.974593 0.326967 0.859002
0.97455 0.324647 0.858935
0.974507 0.322328 0.858869
0.974465 0.320008 0.858802
0.974422 0.317688 0.858735
0.974379 0.315369 0.858668
0.974337 0.313049 0.858602
0.974294 0.310729 0.858535
0.974252 0.308409 0.858468
0.977216 0.306288 0.857817
0.977173 0.303963 0.85775
0.977131 0.301638 0.857683
0.977088 0.299313 0.857616
0.977045 0.296988 0.857549
0.977002 0.294664 0.857482
0.97696 0.292339 0.857415
0.976917 0.290014 0.857348
0.97988 0.287845 0.856695
0.979838 0.285515 0.856628
0.979795 0.283185 0.856561
0.979752 0.280854 0.856494
0.979709 0.278524 0.856427
0.979666 0.276194 0.85636
0.979624 0.273864 0.856293
0.979581 0.271534 0.856226
0.979538 0.269203 0.856159
0.979495 0.266873 0.856092
0.979452 0.264543 0.856025
0.97941 0.262213 0.855958
0.979367 0.259882 0.855891
0.979324 0.257552 0.855824
0.979281 0.255222 0.855757
0.979238 0.252892 0.855689
0.979196 0.250562 0.855622
0.979153 0.248231 0.855555
0.97911 0.245901 0.855488
0.979067 0.243571 0.855421
0.979024 0.241241 0.855354
0.978982 0.23891 0.855287
0.978939 0.23658 0.85522
0.978896 0.23425 0.855153
0.978853 0.23192 0.855086
0.97881 0.22959 0.855019
0.978768 0.227259 0.854952
0.978725 0.224929 0.854885
0.978682 0.222599 0.854818
0.978639 0.220269 0.854751
0.978596 0.217938 0.854683
0.978554 0.215608 0.854616
0.978511 0.213278 0.854549
0.978468 0.210948 0.854482
0.978425 0.208618 0.854415
0.981385 0.20626 0.853757
0.981342 0.203924 0.85369
0.981299 0.201589 0.853622
0.981256 0.199253 0.853555
0.981213 0.196918 0.853488
0.981171 0.194582 0.853421
0.98413 0.192188 0.852761
0.981085 0.189911 0.853286
0.981042 0.187576 0.853219
0.980999 0.18524 0.853152
0.980956 0.182905 0.853085
0.980913 0.180569 0.853018
0.98087 0.178234 0.85295
0.980827 0.175899 0.852883
0.980785 0.173563 0.852816
0.980742 0.171228 0.852749
0.980699 0.168892 0.852681
0.980656 0.166557 0.852614
0.980613 0.164221 0.852547
0.98057 0.161886 0.85248
0.980527 0.15955 0.852413
0.980484 0.157215 0.852345
0.980441 0.154879 0.852278
0.980398 0.152544 0.852211
0.980356 0.150208 0.852144
0.980313 0.147873 0.852077
0.98027 0.145537 0.852009
0.980227 0.143202 0.851942
0.980184 0.140866 0.851875
0.980141 0.138531 0.851808
0.980098 0.136195 0.85174
0.980055 0.13386 0.851673
0.980012 0.131524 0.851606
0.982969 0.128988 0.850943
0.982926 0.126647 0.850875
0.982883 0.124306 0.850808
0.98284 0.121965 0.85074
0.982797 0.119625 0.850673
0.985753 0.117057 0.850009
0.98571 0.114711 0.849941
0.977623 0.540458 0.863002
0.977581 0.538138 0.862935
0.977538 0.535818 0.862868
0.977495 0.533498 0.862801
0.977453 0.531179 0.862735
0.97741 0.528859 0.862668
0.977368 0.526539 0.862601
0.977325 0.52422 0.862534
0.977282 0.5219 0.862468
0.97724 0.51958 0.862401
0.977197 0.517261 0.862334
0.977155 0.514941 0.862267
0.977112 0.512621 0.8622
0.980083 0.510963 0.861557
0.98004 0.508638 0.86149
0.979997 0.506313 0.861424
0.979955 0.503988 0.861357
0.982925 0.502304 0.860713
0.982882 0.499974 0.860646
0.982839 0.497643 0.860579
0.982796 0.495313 0.860512
0.982754 0.492983 0.860445
0.982711 0.490653 0.860378
0.979656 0.487713 0.860888
0.979613 0.485388 0.860821
0.97957 0.483064 0.860754
0.979528 0.480739 0.860688
0.979485 0.478414 0.860621
0.979442 0.476089 0.860554
0.979399 0.473764 0.860487
0.979357 0.471439 0.86042
0.976302 0.468547 0.860932
0.97626 0.466227 0.860865
0.976217 0.463907 0.860799
0.976175 0.461588 0.860732
0.974125 0.458904 0.861051
0.974082 0.456588 0.860985
0.97404 0.454272 0.860918
0.973997 0.451955 0.860851
0.970944 0.449114 0.861365
0.970901 0.446803 0.861298
0.970859 0.444493 0.861232
0.970816 0.442182 0.861165
0.970774 0.439871 0.861099
0.970731 0.43756 0.861032
0.970689 0.435249 0.860966
0.970646 0.432938 0.860899
0.970604 0.430627 0.860833
0.970562 0.428316 0.860766
0.973529 0.426477 0.860118
0.973486 0.424161 0.860052
0.973444 0.421845 0.859985
0.973401 0.419529 0.859918
0.973359 0.417213 0.859852
0.975323 0.415194 0.859397
0.97528 0.412874 0.85933
0.975237 0.410554 0.859263
0.975195 0.408235 0.859196
0.975152 0.405915 0.85913
0.978118 0.404015 0.858479
0.978076 0.40169 0.858413
0.978033 0.399365 0.858346
0.980999 0.397444 0.857695
0.983965 0.395512 0.857044
0.983922 0.393177 0.856977
0.986887 0.391229 0.856325
0.986844 0.388889 0.856258
0.986801 0.386548 0.856191
0.986758 0.384207 0.856123
0.986715 0.381866 0.856056
0.986672 0.379526 0.855989
0.986629 0.377185 0.855921
0.986586 0.374844 0.855854
0.986543 0.372504 0.855787
0.9865 0.370163 0.855719
0.986457 0.367822 0.855652
0.983407 0.365151 0.85617
0.983364 0.362816 0.856103
0.983321 0.36048 0.856036
0.983278 0.358145 0.855969
0.983235 0.355809 0.855901
0.980186 0.35317 0.856421
0.980143 0.350839 0.856354
0.9801 0.348509 0.856287
0.980057 0.346179 0.85622
0.980014 0.343849 0.856153
0.979972 0.341519 0.856086
0.979929 0.339188 0.856018
0.979886 0.336858 0.855951
0.979843 0.334528 0.855884
0.9798 0.332198 0.855817
0.979758 0.329867 0.85575
0.979715 0.327537 0.855683
0.979672 0.325207 0.855616
0.979629 0.322877 0.855549
0.979586 0.320547 0.855482
0.979544 0.318216 0.855415
0.979501 0.315886 0.855348
0.979458 0.313556 0.855281
0.979415 0.311226 0.855214
0.979372 0.308895 0.855147
0.97933 0.306565 0.85508
0.979287 0.304235 0.855012
0.979244 0.301905 0.854945
0.979201 0.299575 0.854878
0.979158 0.297244 0.854811
0.979116 0.294914 0.854744
0.979073 0.292584 0.854677
0.982034 0.290416 0.854019
0.981991 0.28808 0.853952
0.981948 0.285745 0.853885
0.981906 0.283409 0.853818
0.981863 0.281074 0.853751
0.98182 0.278738 0.853683
0.981777 0.276403 0.853616
0.981734 0.274067 0.853549
0.981691 0.271732 0.853482
0.981648 0.269396 0.853415
0.981605 0.267061 0.853347
0.981562 0.264725 0.85328
0.981519 0.26239 0.853213
0.981477 0.260054 0.853146
0.981434 0.257719 0.853078
0.981391 0.255383 0.853011
0.981348 0.253048 0.852944
0.981305 0.250712 0.852877
0.981262 0.248377 0.85281
0.981219 0.246041 0.852742
0.981176 0.243706 0.852675
0.981133 0.241371 0.852608
0.981091 0.239035 0.852541
0.981048 0.2367 0.852474
0.981005 0.234364 0.852406
0.980962 0.232029 0.852339
0.980919 0.229693 0.852272
0.980876 0.227358 0.852205
0.980833 0.225022 0.852137
0.98079 0.222687 0.85207
0.980747 0.220351 0.852003
0.983706 0.218015 0.85134
0.983663 0.215674 0.851273
0.98362 0.213333 0.851206
0.983577 0.210992 0.851138
0.983534 0.208652 0.851071
0.983491 0.206311 0.851004
0.983448 0.20397 0.850936
0.983405 0.201629 0.850869
0.986362 0.199245 0.850205
0.986319 0.196899 0.850137
0.986276 0.194553 0.85007
0.986233 0.192207 0.850002
0.98619 0.189861 0.849935
0.986147 0.187515 0.849867
0.986104 0.185169 0.8498
0.980061 0.182983 0.850928
0.980018 0.180648 0.85086
0.979975 0.178313 0.850793
0.979932 0.175977 0.850726
0.979889 0.173642 0.850659
0.979847 0.171306 0.850592
0.979804 0.168971 0.850524
0.979761 0.166635 0.850457
0.979718 0.1643 0.85039
0.979675 0.161964 0.850323
0.979632 0.159629 0.850255
0.979589 0.157293 0.850188
0.979546 0.154958 0.850121
0.979503 0.152622 0.850054
0.97946 0.150287 0.849987
0.979418 0.147951 0.849919
0.979375 0.145616 0.849852
0.979332 0.14328 0.849785
0.979289 0.140945 0.849718
0.979246 0.138609 0.84965
0.979203 0.136274 0.849583
0.97916 0.133938 0.849516
0.979117 0.131603 0.849449
0.982072 0.129066 0.84878
0.982029 0.126726 0.848713
0.981986 0.124385 0.848646
0.981943 0.122044 0.848578
0.9819 0.119703 0.848511
0.984854 0.117135 0.847842
0.984811 0.114789 0.847774
0.976734 0.540536 0.860859
0.976692 0.538216 0.860792
0.976649 0.535896 0.860725
0.976606 0.533576 0.860659
0.976564 0.531257 0.860592
0.976521 0.528937 0.860525
0.976479 0.526617 0.860458
0.976436 0.524298 0.860392
0.976393 0.521978 0.860325
0.976351 0.519658 0.860258
0.976308 0.517339 0.860191
0.976266 0.515019 0.860125
0.976223 0.512699 0.860058
0.979192 0.511041 0.85941
0.979149 0.508716 0.859343
0.979106 0.506391 0.859276
0.979064 0.504066 0.859209
0.982032 0.502382 0.858561
0.981989 0.500052 0.858493
0.981946 0.497722 0.858426
0.981903 0.495392 0.858359
0.981861 0.493061 0.858292
0.981818 0.490731 0.858225
0.978765 0.487792 0.858741
0.978722 0.485467 0.858674
0.978679 0.483142 0.858607
0.978637 0.480817 0.85854
0.978594 0.478492 0.858473
0.978551 0.476167 0.858406
0.978508 0.473842 0.858339
0.978466 0.471517 0.858272
0.975413 0.468625 0.858789
0.975371 0.466305 0.858723
0.975328 0.463985 0.858656
0.975286 0.461666 0.858589
0.973237 0.458982 0.858912
0.973194 0.456666 0.858845
0.973152 0.45435 0.858779
0.973109 0.452033 0.858712
0.970058 0.449192 0.85923
0.970015 0.446881 0.859164
0.969973 0.44457 0.859097
0.969931 0.442259 0.859031
0.969888 0.439948 0.858964
0.969846 0.437637 0.858898
0.969803 0.435326 0.858831
0.969761 0.433016 0.858765
0.969718 0.430705 0.858698
0.969676 0.428394 0.858632
0.972641 0.426555 0.857979
0.972599 0.424239 0.857912
0.972556 0.421923 0.857845
0.972514 0.419607 0.857779
0.972471 0.41729 0.857712
0.974433 0.415272 0.857254
0.974391 0.412952 0.857187
0.974348 0.410632 0.85712
0.974306 0.408313 0.857054
0.974263 0.405993 0.856987
0.977227 0.404093 0.856332
0.977185 0.401768 0.856265
0.977142 0.399443 0.856198
0.980106 0.397522 0.855543
0.983069 0.395591 0.854887
0.983027 0.393255 0.85482
0.98599 0.391308 0.854163
0.985947 0.388967 0.854096
0.985904 0.386627 0.854029
0.985861 0.384286 0.853961
0.985818 0.381945 0.853894
0.985775 0.379604 0.853827
0.985732 0.377264 0.853759
0.985689 0.374923 0.853692
0.985646 0.372582 0.853625
0.985603 0.370241 0.853557
0.98556 0.367901 0.85349
0.982512 0.36523 0.854013
0.982469 0.362894 0.853946
0.982426 0.360559 0.853879
0.982383 0.358223 0.853811
0.98234 0.355888 0.853744
0.979293 0.353248 0.854268
0.97925 0.350918 0.854201
0.979207 0.348588 0.854134
0.979164 0.346257 0.854067
0.979121 0.343927 0.854
0.979079 0.341597 0.853933
0.979036 0.339267 0.853866
0.978993 0.336936 0.853799
0.97895 0.334606 0.853732
0.978907 0.332276 0.853665
0.978865 0.329946 0.853598
0.978822 0.327616 0.853531
0.978779 0.325285 0.853464
0.978736 0.322955 0.853397
0.978693 0.320625 0.85333
0.978651 0.318295 0.853263
0.978608 0.315964 0.853195
0.978565 0.313634 0.853128
0.978522 0.311304 0.853061
0.978479 0.308974 0.852994
0.978437 0.306644 0.852927
0.978394 0.304313 0.85286
0.978351 0.301983 0.852793
0.978308 0.299653 0.852726
0.978265 0.297323 0.852659
0.978223 0.294992 0.852592
0.97818 0.292662 0.852525
0.981139 0.290494 0.851862
0.981096 0.288159 0.851795
0.981053 0.285823 0.851728
0.98101 0.283488 0.851661
0.980968 0.281152 0.851593
0.980925 0.278817 0.851526
0.980882 0.276481 0.851459
0.980839 0.274146 0.851392
0.980796 0.27181 0.851325
0.980753 0.269475 0.851257
0.98071 0.267139 0.85119
0.980667 0.264804 0.851123
0.980624 0.262468 0.851056
0.980581 0.260133 0.850988
0.980539 0.257797 0.850921
0.980496 0.255462 0.850854
0.980453 0.253126 0.850787
0.98041 0.250791 0.85072
0.980367 0.248455 0.850652
0.980324 0.24612 0.850585
0.980281 0.243785 0.850518
0.980238 0.241449 0.850451
0.980195 0.239114 0.850384
0.980153 0.236778 0.850316
0.98011 0.234443 0.850249
0.980067 0.232107 0.850182
0.980024 0.229772 0.850115
0.979981 0.227436 0.850047
0.979938 0.225101 0.84998
0.979895 0.222765 0.849913
0.979852 0.22043 0.849846
0.982808 0.218093 0.849178
0.982765 0.215753 0.849111
0.982722 0.213412 0.849044
0.98268 0.211071 0.848976
0.982637 0.20873 0.848909
0.982594 0.20639 0.848842
0.982551 0.204049 0.848774
0.982508 0.201708 0.848707
0.985463 0.199324 0.848038
0.98542 0.196978 0.84797
0.985377 0.194632 0.847903
0.985334 0.192286 0.847835
0.985291 0.18994 0.847768
0.985247 0.187594 0.8477
0.985204 0.185248 0.847633
0.985161 0.182902 0.847565
0.985118 0.180556 0.847498
0.985075 0.17821 0.84743
0.985032 0.175864 0.847363
0.984989 0.173518 0.847295
0.984946 0.171172 0.847228
0.984903 0.168826 0.84716
0.987857 0.166364 0.846489
0.984817 0.164134 0.847025
0.984773 0.161788 0.846958
0.98473 0.159442 0.84689
0.984687 0.157096 0.846823
0.984644 0.15475 0.846755
0.984601 0.152404 0.846688
0.984558 0.150058 0.84662
0.984515 0.147712 0.846553
0.984472 0.145366 0.846485
0.984429 0.14302 0.846418
0.984386 0.140674 0.84635
0.984343 0.138328 0.846283
0.984299 0.135982 0.846215
0.984256 0.133636 0.846147
0.984213 0.13129 0.84608
0.987166 0.128743 0.845407
0.987122 0.126392 0.845339
0.987079 0.124041 0.845271
0.987036 0.12169 0.845204
0.986993 0.119338 0.845136
0.989945 0.11676 0.844461
0.989901 0.114403 0.844394
0.981866 0.542074 0.857548
0.981824 0.539744 0.857481
0.97877 0.536694 0.857999
0.978728 0.534369 0.857932
0.978685 0.532044 0.857865
0.978642 0.529719 0.857798
0.9786 0.527394 0.857731
0.978557 0.525069 0.857664
0.981524 0.523433 0.857012
0.981481 0.521102 0.856945
0.981438 0.518772 0.856878
0.981396 0.516442 0.856811
0.981353 0.514112 0.856744
0.98131 0.511781 0.856676
0.981267 0.509451 0.856609
0.981224 0.507121 0.856542
0.984191 0.505437 0.855889
0.984148 0.503101 0.855822
0.984105 0.500766 0.855754
0.984062 0.498431 0.855687
0.984019 0.496095 0.85562
0.983976 0.49376 0.855553
0.983933 0.491424 0.855486
0.98389 0.489089 0.855418
0.983847 0.486753 0.855351
0.983804 0.484418 0.855284
0.983762 0.482082 0.855217
0.980711 0.479158 0.855738
0.980668 0.476828 0.855671
0.980625 0.474498 0.855603
0.980582 0.472168 0.855536
0.98054 0.469837 0.855469
0.977489 0.466945 0.855991
0.977447 0.46462 0.855924
0.974397 0.461744 0.856447
0.974354 0.459424 0.85638
0.974311 0.457104 0.856313
0.972264 0.454427 0.856639
0.972222 0.452111 0.856573
0.972179 0.449795 0.856506
0.972136 0.447479 0.856439
0.972094 0.445163 0.856373
0.972051 0.442846 0.856306
0.972009 0.44053 0.856239
0.971966 0.438214 0.856173
0.971924 0.435898 0.856106
0.971881 0.433582 0.856039
0.971839 0.431265 0.855973
0.971796 0.428949 0.855906
0.971754 0.426633 0.855839
0.971711 0.424317 0.855773
0.971669 0.422001 0.855706
0.97363 0.419989 0.855245
0.973587 0.417669 0.855178
0.973544 0.41535 0.855111
0.973502 0.41303 0.855045
0.973459 0.41071 0.854978
0.976422 0.408821 0.854318
0.976379 0.406496 0.854251
0.979341 0.404591 0.853592
0.979298 0.402261 0.853524
0.979255 0.399931 0.853457
0.982217 0.398005 0.852797
0.985179 0.396068 0.852136
0.985136 0.393728 0.852069
0.988097 0.391775 0.851408
0.988054 0.389429 0.85134
0.988011 0.387083 0.851272
0.990972 0.38511 0.850611
0.990929 0.382759 0.850543
0.990885 0.380408 0.850475
0.990842 0.378056 0.850408
0.990799 0.375705 0.85034
0.990756 0.373354 0.850272
0.990713 0.371002 0.850205
0.990669 0.368651 0.850137
0.990626 0.3663 0.850069
0.990583 0.363949 0.850002
0.987537 0.361277 0.85053
0.987494 0.358931 0.850462
0.987451 0.356585 0.850395
0.987408 0.354239 0.850327
0.987365 0.351893 0.85026
0.987322 0.349547 0.850192
0.987278 0.347201 0.850125
0.987235 0.344855 0.850057
0.98419 0.342231 0.850587
0.984147 0.339891 0.850519
0.984104 0.33755 0.850452
0.984061 0.335209 0.850385
0.984018 0.332868 0.850317
0.983975 0.330528 0.85025
0.983932 0.328187 0.850183
0.983889 0.325846 0.850115
0.983846 0.323505 0.850048
0.980802 0.320934 0.850579
0.980759 0.318598 0.850512
0.980716 0.316263 0.850444
0.980673 0.313927 0.850377
0.98063 0.311592 0.85031
0.980587 0.309257 0.850243
0.983545 0.30712 0.849576
0.983502 0.304779 0.849509
0.983459 0.302439 0.849441
0.983416 0.300098 0.849374
0.983373 0.297757 0.849307
0.98333 0.295416 0.849239
0.983287 0.293076 0.849172
0.983244 0.290735 0.849105
0.983201 0.288394 0.849037
0.983158 0.286053 0.84897
0.983115 0.283713 0.848903
0.983072 0.281372 0.848835
0.983029 0.279031 0.848768
0.982986 0.276691 0.8487
0.982943 0.27435 0.848633
0.9829 0.272009 0.848566
0.982857 0.269668 0.848498
0.982814 0.267328 0.848431
0.982771 0.264987 0.848364
0.982728 0.262646 0.848296
0.982685 0.260305 0.848229
0.982642 0.257965 0.848162
0.982599 0.255624 0.848094
0.982556 0.253283 0.848027
0.982513 0.250942 0.847959
0.98247 0.248602 0.847892
0.982427 0.246261 0.847825
0.982384 0.24392 0.847757
0.982341 0.241579 0.84769
0.982298 0.239239 0.847623
0.982255 0.236898 0.847555
0.982212 0.234557 0.847488
0.982169 0.232216 0.847421
0.982126 0.229876 0.847353
0.982083 0.227535 0.847286
0.98204 0.225194 0.847218
0.981997 0.222853 0.847151
0.981954 0.220513 0.847084
0.984909 0.218171 0.846411
0.984865 0.215825 0.846344
0.984822 0.213479 0.846276
0.984779 0.211133 0.846209
0.984736 0.208787 0.846141
0.98769 0.206414 0.845468
0.987646 0.204063 0.8454
0.987603 0.201712 0.845332
0.98756 0.19936 0.845265
0.987517 0.197009 0.845197
0.987474 0.194658 0.845129
0.990427 0.192248 0.844455
0.990383 0.189891 0.844387
0.99034 0.187535 0.844319
0.990297 0.185178 0.844252
0.990253 0.182822 0.844184
0.99021 0.180465 0.844116
0.990167 0.178109 0.844048
0.990124 0.175752 0.84398
0.99008 0.173396 0.843913
0.990037 0.171039 0.843845
0.989994 0.168683 0.843777
0.98995 0.166326 0.843709
0.989907 0.16397 0.843641
0.989864 0.161613 0.843573
0.989821 0.159257 0.843506
0.989777 0.1569 0.843438
0.989734 0.154544 0.84337
0.989691 0.152187 0.843302
0.989647 0.149831 0.843234
0.989604 0.147474 0.843166
0.989561 0.145118 0.843099
0.989518 0.142761 0.843031
0.989474 0.140404 0.842963
0.989431 0.138048 0.842895
0.989388 0.135691 0.842827
0.989344 0.133335 0.84276
0.989301 0.130978 0.842692
0.992251 0.128421 0.842013
0.992208 0.126059 0.841945
0.992165 0.123698 0.841877
0.992121 0.121336 0.841809
0.992078 0.118974 0.841741
0.99403 0.116461 0.841265
0.993986 0.114096 0.841197
0.980973 0.542153 0.855396
0.98093 0.539822 0.855329
0.980888 0.537492 0.855262
0.980845 0.535162 0.855195
0.980802 0.532832 0.855128
0.980759 0.530502 0.855061
0.983724 0.52887 0.854404
0.983681 0.526535 0.854337
0.983639 0.524199 0.854269
0.983596 0.521864 0.854202
0.983553 0.519528 0.854135
0.98351 0.517193 0.854068
0.983467 0.514857 0.854
0.986431 0.513184 0.853342
0.986388 0.510843 0.853275
0.986345 0.508503 0.853208
0.986302 0.506162 0.85314
0.986259 0.503821 0.853073
0.986216 0.50148 0.853006
0.986173 0.49914 0.852938
0.989137 0.497424 0.852279
0.989094 0.495078 0.852211
0.989051 0.492732 0.852144
0.989008 0.490386 0.852076
0.985958 0.487436 0.852601
0.985915 0.485095 0.852534
0.985872 0.482754 0.852467
0.982824 0.479825 0.852992
0.982781 0.47749 0.852925
0.982738 0.475154 0.852858
0.982695 0.472819 0.852791
0.979646 0.469916 0.853317
0.979604 0.467586 0.85325
0.979561 0.465255 0.853183
0.976513 0.462373 0.85371
0.97647 0.460048 0.853643
0.976427 0.457723 0.853576
0.976385 0.455399 0.853509
0.976342 0.453074 0.853442
0.973294 0.450223 0.85397
0.973252 0.447903 0.853903
0.973209 0.445584 0.853837
0.973167 0.443264 0.85377
0.971121 0.440608 0.8541
0.971079 0.438292 0.854033
0.971036 0.435976 0.853967
0.970994 0.43366 0.8539
0.972954 0.431666 0.853436
0.972911 0.429346 0.853369
0.972868 0.427026 0.853303
0.972826 0.424706 0.853236
0.972783 0.422387 0.853169
0.975744 0.420524 0.852505
0.975701 0.418199 0.852439
0.975659 0.415874 0.852372
0.975616 0.413549 0.852305
0.975573 0.411224 0.852238
0.978534 0.40933 0.851573
0.978491 0.407 0.851506
0.978448 0.40467 0.851439
0.981408 0.402754 0.850774
0.981365 0.400419 0.850707
0.984325 0.398488 0.850041
0.987284 0.396546 0.849376
0.987241 0.3942 0.849308
0.987198 0.391854 0.849241
0.990157 0.389892 0.848574
0.990114 0.38754 0.848507
0.993073 0.385562 0.84784
0.993029 0.383205 0.847772
0.992986 0.380849 0.847704
0.992943 0.378492 0.847636
0.992899 0.376136 0.847568
0.995858 0.374126 0.846901
0.995814 0.371764 0.846833
0.995771 0.369402 0.846765
0.995728 0.367041 0.846697
0.995684 0.364679 0.846629
0.99264 0.361997 0.847161
0.992596 0.35964 0.847094
0.992553 0.357284 0.847026
0.99251 0.354927 0.846958
0.992467 0.352571 0.84689
0.992423 0.350214 0.846822
0.99238 0.347858 0.846755
0.992337 0.345501 0.846687
0.992294 0.343145 0.846619
0.99225 0.340788 0.846551
0.989207 0.338164 0.847086
0.989164 0.335813 0.847018
0.989121 0.333461 0.84695
0.989077 0.33111 0.846883
0.989034 0.328759 0.846815
0.988991 0.326408 0.846747
0.988948 0.324056 0.84668
0.985905 0.321474 0.847215
0.985862 0.319128 0.847148
0.985819 0.316782 0.84708
0.985776 0.314436 0.847013
0.985733 0.31209 0.846945
0.98569 0.309744 0.846877
0.985647 0.307398 0.84681
0.985604 0.305052 0.846742
0.985561 0.302706 0.846675
0.985518 0.30036 0.846607
0.985474 0.298014 0.84654
0.98843 0.295841 0.845867
0.98239 0.293154 0.84701
0.982347 0.290814 0.846943
0.982304 0.288473 0.846875
0.982261 0.286132 0.846808
0.982218 0.283791 0.846741
0.982175 0.281451 0.846673
0.982132 0.27911 0.846606
0.982089 0.276769 0.846538
0.982046 0.274428 0.846471
0.982003 0.272088 0.846404
0.98196 0.269747 0.846336
0.981917 0.267406 0.846269
0.981874 0.265066 0.846202
0.981831 0.262725 0.846134
0.981788 0.260384 0.846067
0.981745 0.258043 0.845999
0.981702 0.255703 0.845932
0.981659 0.253362 0.845865
0.981616 0.251021 0.845797
0.981573 0.24868 0.84573
0.98153 0.24634 0.845663
0.981487 0.243999 0.845595
0.981444 0.241658 0.845528
0.981401 0.239317 0.845461
0.981358 0.236977 0.845393
0.981315 0.234636 0.845326
0.981272 0.232295 0.845258
0.981229 0.229954 0.845191
0.981186 0.227614 0.845124
0.981143 0.225273 0.845056
0.9811 0.222932 0.844989
0.981057 0.220591 0.844922
0.984009 0.21825 0.844244
0.983966 0.215904 0.844177
0.983923 0.213558 0.844109
0.98388 0.211212 0.844042
0.983837 0.208866 0.843974
0.986788 0.206493 0.843296
0.986745 0.204142 0.843228
0.986702 0.201791 0.843161
0.986659 0.199439 0.843093
0.986616 0.197088 0.843025
0.986573 0.194737 0.842958
0.989523 0.192327 0.842278
0.98948 0.189971 0.842211
0.989437 0.187614 0.842143
0.989394 0.185258 0.842075
0.98935 0.182901 0.842007
0.989307 0.180545 0.841939
0.989264 0.178188 0.841872
0.98922 0.175832 0.841804
0.989177 0.173475 0.841736
0.989134 0.171118 0.841668
0.989091 0.168762 0.8416
0.989047 0.166405 0.841532
0.989004 0.164049 0.841465
0.988961 0.161692 0.841397
0.988917 0.159336 0.841329
0.988874 0.156979 0.841261
0.988831 0.154623 0.841193
0.988788 0.152266 0.841126
0.988744 0.14991 0.841058
0.988701 0.147553 0.84099
0.988658 0.145197 0.840922
0.988614 0.14284 0.840854
0.988571 0.140484 0.840786
0.988528 0.138127 0.840719
0.988485 0.135771 0.840651
0.988441 0.133414 0.840583
0.988398 0.131058 0.840515
0.991346 0.128501 0.839832
0.991303 0.126139 0.839764
0.991259 0.123777 0.839696
0.991216 0.121415 0.839628
0.991173 0.119053 0.83956
0.993123 0.116541 0.839081
0.98008 0.542231 0.853244
0.980037 0.539901 0.853177
0.979995 0.537571 0.85311
0.979952 0.53524 0.853042
0.979909 0.53291 0.852975
0.979866 0.53058 0.852908
0.982829 0.528949 0.852247
0.982786 0.526613 0.852179
0.982743 0.524278 0.852112
0.982701 0.521942 0.852045
0.982658 0.519607 0.851978
0.982615 0.517271 0.85191
0.982572 0.514936 0.851843
0.985534 0.513263 0.85118
0.985491 0.510922 0.851113
0.985448 0.508581 0.851046
0.985405 0.506241 0.850978
0.985362 0.5039 0.850911
0.985319 0.501559 0.850843
0.985276 0.499218 0.850776
0.988238 0.497503 0.850112
0.988195 0.495157 0.850044
0.988152 0.492811 0.849977
0.988109 0.490465 0.849909
0.985061 0.487515 0.850439
0.985018 0.485174 0.850372
0.984975 0.482833 0.850305
0.981928 0.479904 0.850835
0.981886 0.477568 0.850768
0.981843 0.475233 0.850701
0.9818 0.472897 0.850633
0.978753 0.469994 0.851165
0.978711 0.467664 0.851098
0.978668 0.465334 0.851031
0.975622 0.462452 0.851562
0.975579 0.460127 0.851495
0.975536 0.457802 0.851429
0.975494 0.455477 0.851362
0.975451 0.453152 0.851295
0.972405 0.450301 0.851827
0.972363 0.447981 0.851761
0.97232 0.445662 0.851694
0.972278 0.443342 0.851627
0.970233 0.440686 0.851961
0.970191 0.43837 0.851894
0.970148 0.436054 0.851827
0.970106 0.433737 0.851761
0.972065 0.431744 0.851293
0.972022 0.429424 0.851227
0.971979 0.427104 0.85116
0.971937 0.424784 0.851093
0.971894 0.422465 0.851026
0.974853 0.420602 0.850358
0.97481 0.418277 0.850291
0.974768 0.415952 0.850224
0.974725 0.413627 0.850157
0.974682 0.411302 0.85009
0.977641 0.409408 0.849421
0.977598 0.407078 0.849354
0.977555 0.404748 0.849287
0.980513 0.402833 0.848617
0.98047 0.400497 0.84855
0.983428 0.398566 0.847879
0.986385 0.396625 0.847209
0.986342 0.394279 0.847141
0.986299 0.391933 0.847074
0.989256 0.389971 0.846402
0.989213 0.387619 0.846335
0.992169 0.385641 0.845663
0.992126 0.383285 0.845595
0.992083 0.380928 0.845527
0.99204 0.378572 0.84546
0.991996 0.376215 0.845392
0.994953 0.374205 0.844719
0.994909 0.371844 0.844651
0.994866 0.369482 0.844583
0.994822 0.36712 0.844515
0.994779 0.364758 0.844447
0.991737 0.362076 0.844985
0.991693 0.359719 0.844917
0.99165 0.357363 0.844849
0.991607 0.355006 0.844781
0.991563 0.35265 0.844714
0.99152 0.350293 0.844646
0.991477 0.347937 0.844578
0.991434 0.34558 0.84451
0.99139 0.343224 0.844442
0.991347 0.340867 0.844374
0.988306 0.338243 0.844914
0.988263 0.335892 0.844846
0.988219 0.33354 0.844778
0.988176 0.331189 0.844711
0.988133 0.328838 0.844643
0.98809 0.326487 0.844575
0.988047 0.324135 0.844508
0.985006 0.321553 0.845048
0.984963 0.319207 0.844981
0.98492 0.316861 0.844913
0.984877 0.314515 0.844846
0.984834 0.312169 0.844778
0.984791 0.309823 0.844711
0.984748 0.307477 0.844643
0.984705 0.305131 0.844576
0.984661 0.302785 0.844508
0.984618 0.300439 0.844441
0.984575 0.298093 0.844373
0.987528 0.29592 0.843696
0.984489 0.293401 0.844238
0.984446 0.291055 0.84417
0.984403 0.288709 0.844103
0.98436 0.286363 0.844035
0.984317 0.284017 0.843968
0.984274 0.281671 0.8439
0.984231 0.279325 0.843833
0.984187 0.276979 0.843765
0.984144 0.274633 0.843698
0.984101 0.272287 0.84363
0.984058 0.269941 0.843563
0.984015 0.267595 0.843495
0.983972 0.265249 0.843428
0.983929 0.262903 0.84336
0.980891 0.260463 0.843905
0.980848 0.258122 0.843837
0.980805 0.255781 0.84377
0.980762 0.253441 0.843703
0.980719 0.2511 0.843635
0.980676 0.248759 0.843568
0.980633 0.246418 0.843501
0.983584 0.244135 0.84282
0.983541 0.241789 0.842753
0.983498 0.239443 0.842685
0.983455 0.237097 0.842618
0.983412 0.234751 0.84255
0.983369 0.232405 0.842483
0.983326 0.230059 0.842415
0.983283 0.227713 0.842347
0.98324 0.225367 0.84228
0.983196 0.223021 0.842212
0.983153 0.220675 0.842145
0.986103 0.218329 0.841463
0.98606 0.215977 0.841395
0.986017 0.213626 0.841327
0.985974 0.211275 0.84126
0.98593 0.208924 0.841192
0.985887 0.206572 0.841124
0.985844 0.204221 0.841057
0.988793 0.201832 0.840373
0.98875 0.199476 0.840305
0.988707 0.197119 0.840237
0.988664 0.194763 0.84017
0.991612 0.192348 0.839485
0.991569 0.189986 0.839417
0.991526 0.187625 0.839349
0.991482 0.185263 0.839281
0.991439 0.182901 0.839213
0.991395 0.180539 0.839145
0.991352 0.178177 0.839078
0.991309 0.175816 0.83901
0.993259 0.173387 0.83853
0.993216 0.171022 0.838462
0.993172 0.168656 0.838394
0.993129 0.166291 0.838326
0.993086 0.163926 0.838258
0.993042 0.161561 0.838189
0.992999 0.159195 0.838121
0.992955 0.15683 0.838053
0.992912 0.154465 0.837985
0.992868 0.152099 0.837917
0.992825 0.149734 0.837849
0.992781 0.147369 0.837781
0.992738 0.145003 0.837713
0.992695 0.142638 0.837645
0.992651 0.140273 0.837577
0.992608 0.137908 0.837509
0.992564 0.135542 0.837441
0.992521 0.133177 0.837373
0.992477 0.130812 0.837304
0.992434 0.128446 0.837236
0.99239 0.126081 0.837168
0.992347 0.123716 0.8371
0.995293 0.121135 0.836411
0.995249 0.118764 0.836343
0.995206 0.116393 0.836275
0.982192 0.54304 0.850493
0.982149 0.540705 0.850425
0.982106 0.538369 0.850358
0.982063 0.536034 0.850291
0.98202 0.533698 0.850224
0.981977 0.531363 0.850157
0.981934 0.529027 0.850089
0.981891 0.526692 0.850022
0.984852 0.525045 0.849355
0.984809 0.522704 0.849288
0.984766 0.520364 0.84922
0.987727 0.518696 0.848553
0.987684 0.51635 0.848485
0.98764 0.514004 0.848418
0.987597 0.511658 0.84835
0.987554 0.509312 0.848283
0.987511 0.506966 0.848215
0.990471 0.505262 0.847546
0.990428 0.50291 0.847479
0.990384 0.500559 0.847411
0.990341 0.498208 0.847343
0.990298 0.495856 0.847276
0.990255 0.493505 0.847208
0.990212 0.491154 0.84714
0.987166 0.488198 0.847675
0.987123 0.485852 0.847607
0.98708 0.483506 0.84754
0.984035 0.480571 0.848075
0.983992 0.47823 0.848008
0.983949 0.47589 0.84794
0.983906 0.473549 0.847873
0.980862 0.47064 0.848409
0.980819 0.468305 0.848342
0.980776 0.465969 0.848275
0.977732 0.463082 0.848811
0.977689 0.460752 0.848744
0.977646 0.458421 0.848677
0.974603 0.455555 0.849214
0.97456 0.45323 0.849147
0.974517 0.450905 0.84908
0.971474 0.448059 0.849618
0.971431 0.44574 0.849551
0.971389 0.44342 0.849485
0.971346 0.4411 0.849418
0.971303 0.438781 0.849351
0.971261 0.436461 0.849284
0.971218 0.434141 0.849218
0.971175 0.431822 0.849151
0.971133 0.429502 0.849084
0.97109 0.427182 0.849017
0.971048 0.424862 0.848951
0.971005 0.422543 0.848884
0.973962 0.42068 0.84821
0.973919 0.418355 0.848144
0.973877 0.416031 0.848077
0.976833 0.414147 0.847403
0.97679 0.411817 0.847336
0.976747 0.409487 0.847269
0.979704 0.407582 0.846594
0.979661 0.405247 0.846527
0.979618 0.402911 0.84646
0.979575 0.400576 0.846393
0.98253 0.398645 0.845717
0.985486 0.396704 0.845042
0.985443 0.394358 0.844974
0.988398 0.392401 0.844298
0.991353 0.390433 0.843622
0.99131 0.388077 0.843554
0.991266 0.38572 0.843486
0.994221 0.383732 0.84281
0.994177 0.38137 0.842742
0.996132 0.379247 0.842267
0.996089 0.376881 0.842199
0.996046 0.374516 0.842131
0.996002 0.372151 0.842063
0.995959 0.369785 0.841995
0.995915 0.36742 0.841927
0.995872 0.365055 0.841859
0.995828 0.36269 0.841791
0.995785 0.360324 0.841723
0.995741 0.357959 0.841655
0.995698 0.355594 0.841587
0.995655 0.353228 0.841519
0.995611 0.350863 0.841451
0.995568 0.348498 0.841382
0.995524 0.346133 0.841314
0.995481 0.343767 0.841246
0.995437 0.341402 0.841178
0.995394 0.339037 0.84111
0.993353 0.336496 0.84145
0.99331 0.334134 0.841382
0.993266 0.331773 0.841314
0.993223 0.329411 0.841246
0.99318 0.327049 0.841178
0.993136 0.324687 0.84111
0.990098 0.322094 0.841655
0.990054 0.319738 0.841587
0.990011 0.317381 0.84152
0.989968 0.315025 0.841452
0.989924 0.312668 0.841384
0.989881 0.310312 0.841316
0.989838 0.307955 0.841248
0.989795 0.305599 0.841181
0.986757 0.303053 0.841727
0.986714 0.300702 0.841659
0.98667 0.298351 0.841592
0.986627 0.295999 0.841524
0.986584 0.293648 0.841456
0.986541 0.291297 0.841389
0.986498 0.288945 0.841321
0.986454 0.286594 0.841253
0.986411 0.284243 0.841186
0.986368 0.281892 0.841118
0.983331 0.279404 0.841666
0.983288 0.277058 0.841598
0.983245 0.274712 0.841531
0.983202 0.272366 0.841463
0.983159 0.27002 0.841396
0.983116 0.267674 0.841328
0.983073 0.265328 0.841261
0.98303 0.262982 0.841193
0.982987 0.260636 0.841126
0.982944 0.25829 0.841058
0.982901 0.255944 0.840991
0.982857 0.253598 0.840923
0.982814 0.251252 0.840856
0.982771 0.248906 0.840788
0.982728 0.24656 0.840721
0.982685 0.244214 0.840653
0.982642 0.241868 0.840586
0.982599 0.239522 0.840518
0.982556 0.237176 0.840451
0.982513 0.23483 0.840383
0.98247 0.232484 0.840316
0.982427 0.230138 0.840248
0.982383 0.227792 0.840181
0.985332 0.225461 0.839494
0.985288 0.22311 0.839426
0.985245 0.220759 0.839359
0.988193 0.218407 0.838671
0.98815 0.216051 0.838603
0.988107 0.213694 0.838536
0.988063 0.211338 0.838468
0.98802 0.208981 0.8384
0.987977 0.206625 0.838332
0.987933 0.204268 0.838264
0.990881 0.201875 0.837576
0.990837 0.199513 0.837508
0.990794 0.197151 0.83744
0.99075 0.194789 0.837372
0.990707 0.192428 0.837304
0.990664 0.190066 0.837236
0.992614 0.187658 0.836754
0.99257 0.185293 0.836685
0.992527 0.182928 0.836617
0.992483 0.180562 0.836549
0.99244 0.178197 0.836481
0.992396 0.175832 0.836413
0.995342 0.173366 0.835723
0.995299 0.170996 0.835654
0.995255 0.168625 0.835586
0.995211 0.166255 0.835518
0.995168 0.163884 0.83545
0.995124 0.161514 0.835381
0.99807 0.159011 0.83469
0.998026 0.156635 0.834621
0.997982 0.15426 0.834553
0.997939 0.151884 0.834485
0.997895 0.149508 0.834416
0.997851 0.147132 0.834348
0.997808 0.144756 0.834279
0.997764 0.142381 0.834211
0.99772 0.140005 0.834143
0.997677 0.137629 0.834074
0.997633 0.135253 0.834006
0.99759 0.132877 0.833938
0.997546 0.130502 0.833869
0.997502 0.128126 0.833801
0.997459 0.12575 0.833732
0.997415 0.123374 0.833664
0.997371 0.120998 0.833596
0.997328 0.118623 0.833527
0.997284 0.116247 0.833459
0.981296 0.543119 0.848335
0.981254 0.540783 0.848268
0.981211 0.538448 0.848201
0.981168 0.536112 0.848134
0.981125 0.533777 0.848067
0.981082 0.531441 0.847999
0.984041 0.529805 0.847328
0.983998 0.527465 0.84726
0.983955 0.525124 0.847193
0.986914 0.523467 0.846521
0.986871 0.521121 0.846453
0.986827 0.518775 0.846386
0.986784 0.516429 0.846318
0.989742 0.514746 0.845645
0.989699 0.512394 0.845578
0.989656 0.510043 0.84551
0.989613 0.507692 0.845442
0.992571 0.505982 0.844769
0.992527 0.503626 0.844701
0.992484 0.501269 0.844633
0.992441 0.498913 0.844565
0.992397 0.496556 0.844497
0.992354 0.4942 0.84443
0.992311 0.491843 0.844362
0.989267 0.488882 0.844901
0.989224 0.48653 0.844833
0.989181 0.484179 0.844766
0.986138 0.481239 0.845306
0.986095 0.478893 0.845238
0.983052 0.475968 0.845778
0.983009 0.473628 0.845711
0.982966 0.471287 0.845644
0.979924 0.468383 0.846185
0.979881 0.466048 0.846117
0.979838 0.463712 0.84605
0.976796 0.46083 0.846592
0.976753 0.4585 0.846525
0.97671 0.456169 0.846458
0.976668 0.453839 0.846391
0.973626 0.450983 0.846933
0.973583 0.448658 0.846866
0.973541 0.446333 0.846799
0.970499 0.443498 0.847342
0.970457 0.441178 0.847275
0.970414 0.438859 0.847208
0.970372 0.436539 0.847142
0.970329 0.434219 0.847075
0.970286 0.4319 0.847008
0.970244 0.42958 0.846941
0.970201 0.42726 0.846875
0.970159 0.42494 0.846808
0.970116 0.422621 0.846741
0.973071 0.420759 0.846063
0.973028 0.418434 0.845996
0.975983 0.416556 0.845318
0.97594 0.414226 0.84525
0.975897 0.411895 0.845183
0.978851 0.409996 0.844504
0.978808 0.407661 0.844437
0.978766 0.405325 0.84437
0.978723 0.40299 0.844303
0.97868 0.400654 0.844235
0.981633 0.398724 0.843555
0.984587 0.396783 0.842875
0.984544 0.394437 0.842807
0.987497 0.39248 0.842127
0.99045 0.390513 0.841445
0.990406 0.388156 0.841378
0.990363 0.3858 0.84131
0.993316 0.383811 0.840628
0.993272 0.381449 0.84056
0.995226 0.379326 0.840083
0.995183 0.376961 0.840015
0.995139 0.374596 0.839947
0.995096 0.37223 0.839878
0.995052 0.369865 0.83981
0.995009 0.3675 0.839742
0.994965 0.365134 0.839674
0.994922 0.362769 0.839606
0.994878 0.360404 0.839538
0.994835 0.358039 0.83947
0.994792 0.355673 0.839402
0.994748 0.353308 0.839334
0.994705 0.350943 0.839266
0.994661 0.348577 0.839198
0.994618 0.346212 0.83913
0.994574 0.343847 0.839062
0.994531 0.341481 0.838994
0.994487 0.339116 0.838925
0.992448 0.336576 0.839269
0.992405 0.334214 0.839201
0.992361 0.331852 0.839133
0.992318 0.32949 0.839065
0.992275 0.327129 0.838997
0.992231 0.324767 0.838929
0.989194 0.322174 0.839479
0.989151 0.319817 0.839411
0.989108 0.317461 0.839343
0.989065 0.315104 0.839275
0.989021 0.312747 0.839207
0.988978 0.310391 0.83914
0.988935 0.308034 0.839072
0.988891 0.305678 0.839004
0.985856 0.303132 0.839555
0.985812 0.300781 0.839488
0.985769 0.29843 0.83942
0.985726 0.296078 0.839352
0.985683 0.293727 0.839285
0.98564 0.291376 0.839217
0.985597 0.289025 0.839149
0.985553 0.286673 0.839082
0.98551 0.284322 0.839014
0.985467 0.281971 0.838946
0.982432 0.279483 0.839499
0.982389 0.277137 0.839432
0.982346 0.274791 0.839364
0.982303 0.272445 0.839296
0.98226 0.270099 0.839229
0.982217 0.267753 0.839161
0.982174 0.265407 0.839094
0.982131 0.263061 0.839026
0.982088 0.260715 0.838959
0.982044 0.258369 0.838891
0.982001 0.256023 0.838824
0.981958 0.253677 0.838756
0.981915 0.251331 0.838689
0.981872 0.248985 0.838621
0.981829 0.246639 0.838554
0.981786 0.244293 0.838486
0.981743 0.241947 0.838419
0.9817 0.239601 0.838351
0.981657 0.237255 0.838284
0.981614 0.234909 0.838216
0.981571 0.232563 0.838149
0.981527 0.230217 0.838081
0.981484 0.227871 0.838014
0.98443 0.22554 0.837322
0.984387 0.223189 0.837254
0.984344 0.220838 0.837187
0.98729 0.218487 0.836495
0.987247 0.21613 0.836427
0.987203 0.213774 0.836359
0.98716 0.211417 0.836291
0.987117 0.209061 0.836223
0.987074 0.206704 0.836155
0.98703 0.204347 0.836088
0.989975 0.201954 0.835394
0.989932 0.199592 0.835326
0.989889 0.197231 0.835258
0.989845 0.194869 0.83519
0.989802 0.192507 0.835122
0.989759 0.190145 0.835054
0.991707 0.187738 0.834569
0.991664 0.185372 0.834501
0.99162 0.183007 0.834433
0.991577 0.180642 0.834365
0.991533 0.178277 0.834297
0.99149 0.175911 0.834228
0.994434 0.173446 0.833533
0.99439 0.171075 0.833465
0.994346 0.168705 0.833397
0.994303 0.166334 0.833328
0.994259 0.163964 0.83326
0.994216 0.161593 0.833192
0.997159 0.159091 0.832495
0.997115 0.156715 0.832427
0.997072 0.15434 0.832359
0.997028 0.151964 0.83229
0.996984 0.149588 0.832222
0.996941 0.147212 0.832153
0.996897 0.144836 0.832085
0.996854 0.14246 0.832017
0.99681 0.140085 0.831948
0.996766 0.137709 0.83188
0.996723 0.135333 0.831812
0.996679 0.132957 0.831743
0.996635 0.130581 0.831675
0.996592 0.128206 0.831606
0.996548 0.12583 0.831538
0.996504 0.123454 0.83147
0.996461 0.121078 0.831401
0.996417 0.118702 0.831333
0.996373 0.116327 0.831265
0.980401 0.543197 0.846178
0.980358 0.540862 0.846111
0.980316 0.538526 0.846044
0.980273 0.536191 0.845977
0.98023 0.533855 0.845909
0.980187 0.53152 0.845842
0.983144 0.529884 0.845166
0.983101 0.527543 0.845098
0.983058 0.525203 0.845031
0.986015 0.523546 0.844354
0.985971 0.5212 0.844286
0.985928 0.518854 0.844219
0.985885 0.516508 0.844151
0.988841 0.514825 0.843474
0.988798 0.512473 0.843406
0.988755 0.510122 0.843338
0.988712 0.507771 0.843271
0.991667 0.506061 0.842592
0.991624 0.503705 0.842524
0.991581 0.501348 0.842456
0.991538 0.498992 0.842389
0.991494 0.496635 0.842321
0.991451 0.494279 0.842253
0.991408 0.491922 0.842185
0.988366 0.488961 0.842729
0.988323 0.48661 0.842662
0.98828 0.484258 0.842594
0.985239 0.481318 0.843139
0.985196 0.478972 0.843071
0.982155 0.476047 0.843616
0.982112 0.473706 0.843549
0.982069 0.471366 0.843482
0.979029 0.468462 0.844027
0.978986 0.466126 0.84396
0.978943 0.463791 0.843893
0.975903 0.460908 0.844439
0.97586 0.458578 0.844372
0.975817 0.456248 0.844305
0.972778 0.453386 0.844852
0.972735 0.451061 0.844785
0.972692 0.448736 0.844719
0.97265 0.446411 0.844652
0.96961 0.443576 0.845199
0.969568 0.441256 0.845133
0.969525 0.438937 0.845066
0.969483 0.436617 0.844999
0.96944 0.434297 0.844932
0.969397 0.431978 0.844866
0.969355 0.429658 0.844799
0.969312 0.427338 0.844732
0.96927 0.425018 0.844665
0.969227 0.422699 0.844599
0.97218 0.420837 0.843916
0.972137 0.418512 0.843849
0.97509 0.416634 0.843165
0.975047 0.414304 0.843098
0.975004 0.411974 0.843031
0.977956 0.410075 0.842347
0.977913 0.407739 0.84228
0.97787 0.405404 0.842213
0.977828 0.403068 0.842145
0.977785 0.400733 0.842078
0.980736 0.398803 0.841393
0.983688 0.396862 0.840708
0.983645 0.394516 0.840641
0.98959 0.392948 0.839337
0.989547 0.390592 0.839269
0.989503 0.388235 0.839201
0.992454 0.386252 0.838515
0.994406 0.384136 0.838034
0.994363 0.381771 0.837966
0.997313 0.379763 0.837279
0.99727 0.377393 0.837211
0.997226 0.375022 0.837142
1.00018 0.372994 0.836455
1.00013 0.370618 0.836386
1.00009 0.368242 0.836318
1.00004 0.365866 0.83625
1 0.363491 0.836181
0.999958 0.361115 0.836113
0.999914 0.358739 0.836044
0.99987 0.356363 0.835976
0.999827 0.353987 0.835908
0.999783 0.351612 0.835839
0.999739 0.349236 0.835771
0.999696 0.34686 0.835703
0.999652 0.344484 0.835634
0.999608 0.342108 0.835566
0.999565 0.339732 0.835497
