ply
format ascii 1.0
comment Created by Open3D
element vertex 1796
property double x
property double y
property double z
end_header
0.989392 0.436897 0.72082
0.989347 0.434462 0.72075
0.989303 0.432026 0.72068
0.989258 0.429591 0.72061
0.989213 0.427155 0.720539
0.989168 0.42472 0.720469
0.989124 0.422285 0.720399
0.989079 0.419849 0.720329
0.989034 0.417414 0.720259
0.988989 0.414978 0.720189
0.988945 0.412543 0.720119
0.9889 0.410107 0.720049
0.988855 0.407672 0.719979
0.988811 0.405237 0.719909
0.988766 0.402801 0.719839
0.988721 0.400366 0.719768
0.988676 0.39793 0.719698
0.988632 0.395495 0.719628
0.988587 0.393059 0.719558
0.988542 0.390624 0.719488
0.988497 0.388189 0.719418
0.988453 0.385753 0.719348
0.988408 0.383318 0.719278
0.988363 0.380882 0.719208
0.988318 0.378447 0.719138
0.988274 0.376012 0.719068
0.988229 0.373576 0.718997
0.988184 0.371141 0.718927
0.98814 0.368705 0.718857
0.988095 0.36627 0.718787
0.98805 0.363834 0.718717
0.990899 0.361708 0.717788
0.990854 0.359267 0.717718
0.990809 0.356826 0.717648
0.990765 0.354386 0.717578
0.99072 0.351945 0.717507
0.990675 0.349504 0.717437
0.99063 0.347063 0.717367
0.990585 0.344623 0.717297
0.993433 0.342449 0.716366
0.993388 0.340003 0.716296
0.993344 0.337557 0.716225
0.993299 0.335111 0.716155
0.993254 0.332665 0.716085
0.993209 0.330219 0.716014
0.996056 0.328008 0.715083
0.996011 0.325557 0.715012
0.995966 0.323106 0.714942
0.995921 0.320654 0.714871
0.995876 0.318203 0.714801
0.995831 0.315752 0.71473
0.995786 0.313301 0.71466
0.995741 0.31085 0.714589
0.995696 0.308398 0.714519
0.995651 0.305947 0.714448
0.995606 0.303496 0.714378
0.995561 0.301045 0.714307
0.992625 0.298422 0.715099
0.99258 0.295976 0.715029
0.992535 0.29353 0.714958
0.99249 0.291084 0.714888
0.992445 0.288638 0.714818
0.9924 0.286192 0.714747
0.992355 0.283746 0.714677
0.99231 0.2813 0.714606
0.992265 0.278854 0.714536
0.99222 0.276408 0.714466
0.992175 0.273962 0.714395
0.992131 0.271516 0.714325
0.992086 0.26907 0.714254
0.992041 0.266624 0.714184
0.991996 0.264178 0.714114
0.991951 0.261733 0.714043
0.991906 0.259287 0.713973
0.991861 0.256841 0.713902
0.994706 0.254472 0.712967
0.994661 0.252021 0.712896
0.994616 0.249569 0.712826
0.994571 0.247118 0.712755
0.994526 0.244667 0.712684
0.998332 0.242284 0.711459
0.998287 0.239825 0.711388
0.998242 0.237367 0.711317
0.998197 0.234909 0.711247
0.998152 0.232451 0.711176
0.998107 0.229993 0.711105
0.998062 0.227534 0.711034
0.998016 0.225076 0.710964
0.997971 0.222618 0.710893
0.997926 0.22016 0.710822
0.99403 0.217704 0.711908
0.993985 0.215253 0.711838
0.99394 0.212801 0.711767
0.991007 0.210368 0.712565
0.990962 0.207922 0.712495
0.990918 0.205476 0.712424
0.990873 0.20303 0.712354
0.990828 0.200584 0.712283
0.990783 0.198138 0.712213
0.990738 0.195692 0.712143
0.990693 0.193246 0.712072
0.990648 0.1908 0.712002
0.99349 0.188289 0.711062
0.993445 0.185838 0.710991
0.9934 0.183387 0.710921
0.993355 0.180936 0.71085
0.99331 0.178485 0.71078
0.997113 0.175912 0.709549
0.997068 0.173454 0.709478
0.997023 0.170995 0.709407
0.996978 0.168537 0.709337
0.996933 0.166079 0.709266
0.996888 0.163621 0.709195
0.999728 0.16104 0.708253
0.999683 0.158576 0.708182
0.999638 0.156113 0.708111
0.999593 0.153649 0.70804
0.999547 0.151186 0.707969
1.00239 0.148573 0.707027
1.00234 0.146105 0.706956
1.0023 0.143636 0.706884
1.00225 0.141167 0.706813
1.00221 0.138698 0.706742
0.999276 0.136405 0.707544
0.999231 0.133942 0.707473
0.999185 0.131478 0.707402
0.99914 0.129015 0.707331
0.999095 0.126551 0.70726
0.99905 0.124088 0.70719
0.99612 0.121831 0.707992
0.996075 0.119373 0.707922
0.99603 0.116915 0.707851
0.995985 0.114456 0.70778
0.995939 0.111998 0.707709
0.967147 0.586109 0.730134
0.967103 0.583717 0.730065
0.967059 0.581325 0.729996
0.967015 0.578934 0.729927
0.966971 0.576542 0.729858
0.966927 0.574151 0.729789
0.966884 0.571759 0.729721
0.96684 0.569367 0.729652
0.969696 0.567742 0.728732
0.969652 0.565345 0.728663
0.969608 0.562949 0.728595
0.969564 0.560552 0.728526
0.96952 0.558155 0.728457
0.972375 0.556498 0.727536
0.972331 0.554096 0.727467
0.972287 0.551694 0.727398
0.972243 0.549292 0.727329
0.972199 0.54689 0.72726
0.972155 0.544488 0.727191
0.972111 0.542086 0.727121
0.972067 0.539683 0.727052
0.972022 0.537281 0.726983
0.971978 0.534879 0.726914
0.971934 0.532477 0.726845
0.975755 0.530985 0.725639
0.975711 0.528576 0.725569
0.975666 0.526166 0.7255
0.97852 0.524424 0.724577
0.978476 0.522009 0.724508
0.978432 0.519595 0.724438
0.978387 0.517181 0.724369
0.978343 0.514766 0.724299
0.978299 0.512352 0.72423
0.981152 0.510572 0.723306
0.981108 0.508153 0.723236
0.981063 0.505733 0.723167
0.981019 0.503313 0.723097
0.980974 0.500894 0.723027
0.983827 0.499083 0.722103
0.983783 0.496658 0.722033
0.983738 0.494233 0.721963
0.983694 0.491808 0.721893
0.983649 0.489383 0.721824
0.983604 0.486958 0.721754
0.986457 0.48511 0.720828
0.986412 0.48268 0.720758
0.986367 0.48025 0.720688
0.986323 0.47782 0.720618
0.986278 0.47539 0.720548
0.986233 0.47296 0.720478
0.989085 0.471075 0.719552
0.98904 0.468639 0.719482
0.988995 0.466204 0.719411
0.988951 0.463769 0.719341
0.988906 0.461333 0.719271
0.988861 0.458898 0.719201
0.988816 0.456462 0.719131
0.988772 0.454027 0.719061
0.988727 0.451592 0.718991
0.988682 0.449156 0.718921
0.988638 0.446721 0.718851
0.988593 0.444285 0.718781
0.988548 0.44185 0.718711
0.988503 0.439414 0.71864
0.988459 0.436979 0.71857
0.988414 0.434544 0.7185
0.988369 0.432108 0.71843
0.988324 0.429673 0.71836
0.98828 0.427237 0.71829
0.988235 0.424802 0.71822
0.98819 0.422366 0.71815
0.988146 0.419931 0.71808
0.988101 0.417496 0.71801
0.988056 0.41506 0.71794
0.988011 0.412625 0.717869
0.987967 0.410189 0.717799
0.987922 0.407754 0.717729
0.987877 0.405318 0.717659
0.987832 0.402883 0.717589
0.987788 0.400448 0.717519
0.987743 0.398012 0.717449
0.987698 0.395577 0.717379
0.987653 0.393141 0.717309
0.987609 0.390706 0.717239
0.987564 0.388271 0.717169
0.987519 0.385835 0.717098
0.987475 0.3834 0.717028
0.98743 0.380964 0.716958
0.987385 0.378529 0.716888
0.98734 0.376093 0.716818
0.987296 0.373658 0.716748
0.987251 0.371223 0.716678
0.987206 0.368787 0.716608
0.990053 0.366671 0.715674
0.990008 0.36423 0.715604
0.989964 0.36179 0.715534
0.989919 0.359349 0.715464
0.989874 0.356908 0.715393
0.989829 0.354468 0.715323
0.989784 0.352027 0.715253
0.989739 0.349586 0.715183
0.992586 0.347423 0.714248
0.992541 0.344977 0.714177
0.992496 0.342531 0.714107
0.992451 0.340085 0.714037
0.992406 0.337639 0.713966
0.992361 0.335193 0.713896
0.995207 0.332993 0.71296
0.995162 0.330542 0.712889
0.995117 0.32809 0.712819
0.995072 0.325639 0.712748
0.99888 0.323487 0.711523
0.998835 0.321029 0.711452
0.99879 0.318571 0.711382
0.998745 0.316113 0.711311
0.9987 0.313655 0.71124
0.994802 0.310932 0.712325
0.994757 0.308481 0.712255
0.994712 0.30603 0.712184
0.994667 0.303578 0.712113
0.994622 0.301127 0.712043
0.991687 0.298504 0.71284
0.991642 0.296058 0.71277
0.991597 0.293612 0.712699
0.991553 0.291166 0.712629
0.991508 0.28872 0.712558
0.991463 0.286274 0.712488
0.991418 0.283828 0.712418
0.991373 0.281382 0.712347
0.991328 0.278936 0.712277
0.991283 0.27649 0.712206
0.991238 0.274044 0.712136
0.991193 0.271599 0.712066
0.991148 0.269153 0.711995
0.991103 0.266707 0.711925
0.991058 0.264261 0.711854
0.991013 0.261815 0.711784
0.990968 0.259369 0.711714
0.990924 0.256923 0.711643
0.993766 0.254554 0.710703
0.993721 0.252103 0.710632
0.993676 0.249652 0.710561
0.993631 0.247201 0.710491
0.993586 0.244749 0.71042
0.99739 0.242366 0.709188
0.997345 0.239908 0.709118
0.9973 0.23745 0.709047
0.997255 0.234992 0.708976
0.99721 0.232533 0.708905
0.997165 0.230075 0.708835
0.997119 0.227617 0.708764
0.997074 0.225159 0.708693
0.997029 0.222701 0.708622
0.996984 0.220242 0.708552
0.993091 0.217786 0.709644
0.993046 0.215335 0.709574
0.993001 0.212884 0.709503
0.99007 0.21045 0.710306
0.990025 0.208004 0.710235
0.98998 0.205558 0.710165
0.989935 0.203112 0.710095
0.98989 0.200666 0.710024
0.989845 0.19822 0.709954
0.9898 0.195774 0.709883
0.989755 0.193328 0.709813
0.989711 0.190882 0.709743
0.992551 0.188372 0.708798
0.992506 0.185921 0.708727
0.99246 0.183469 0.708657
0.992415 0.181018 0.708586
0.99237 0.178567 0.708516
0.996171 0.175994 0.707278
0.996126 0.173536 0.707207
0.996081 0.171078 0.707137
0.996036 0.16862 0.707066
0.995991 0.166162 0.706995
0.995946 0.163703 0.706924
0.998784 0.161123 0.705978
0.998739 0.158659 0.705907
0.998694 0.156196 0.705836
0.998648 0.153732 0.705765
0.998603 0.151269 0.705694
0.998558 0.148805 0.705623
0.998513 0.146342 0.705552
0.998467 0.143878 0.705481
0.998422 0.141415 0.70541
0.998377 0.138951 0.70534
0.998332 0.136488 0.705269
0.998286 0.134024 0.705198
0.998241 0.131561 0.705127
0.998196 0.129097 0.705056
0.998151 0.126634 0.704985
0.995223 0.124372 0.705793
0.995178 0.121914 0.705722
0.995133 0.119455 0.705651
0.995088 0.116997 0.70558
0.995042 0.114539 0.70551
0.994997 0.112081 0.705439
0.96623 0.586189 0.727925
0.966187 0.583797 0.727856
0.966143 0.581406 0.727787
0.966099 0.579014 0.727718
0.966055 0.576623 0.727649
0.966011 0.574231 0.72758
0.965967 0.57184 0.727512
0.965923 0.569448 0.727443
0.965879 0.567056 0.727374
0.968733 0.565426 0.72645
0.968689 0.563029 0.726381
0.968645 0.560632 0.726312
0.968601 0.558236 0.726243
0.968557 0.555839 0.726174
0.971411 0.554177 0.725248
0.971367 0.551775 0.725179
0.971322 0.549373 0.72511
0.971278 0.546971 0.725041
0.971234 0.544568 0.724972
0.97119 0.542166 0.724903
0.971146 0.539764 0.724834
0.971102 0.537362 0.724765
0.971058 0.53496 0.724695
0.971014 0.532558 0.724626
0.970969 0.530156 0.724557
0.970925 0.527754 0.724488
0.970881 0.525352 0.724419
0.970837 0.522949 0.72435
0.970793 0.520547 0.724281
0.970749 0.518145 0.724211
0.974566 0.516611 0.722997
0.974522 0.514202 0.722928
0.974477 0.511793 0.722859
0.977329 0.510019 0.72193
0.977285 0.507604 0.721861
0.97724 0.50519 0.721791
0.977196 0.502776 0.721722
0.977152 0.500361 0.721652
0.977107 0.497947 0.721583
0.979958 0.496136 0.720653
0.979914 0.493716 0.720584
0.979869 0.491297 0.720514
0.979825 0.488877 0.720444
0.982675 0.48704 0.719514
0.982631 0.484615 0.719444
0.982586 0.48219 0.719375
0.982541 0.479765 0.719305
0.985391 0.477902 0.718374
0.985347 0.475471 0.718304
0.985302 0.473041 0.718234
0.985257 0.470611 0.718164
0.985213 0.468181 0.718094
0.985168 0.465751 0.718024
0.985123 0.463321 0.717954
0.985079 0.46089 0.717884
0.987928 0.45898 0.716952
0.987883 0.456544 0.716882
0.987838 0.454109 0.716811
0.987794 0.451673 0.716741
0.987749 0.449238 0.716671
0.987704 0.446803 0.716601
0.984766 0.443879 0.717394
0.984722 0.441449 0.717325
0.984677 0.439019 0.717255
0.984632 0.436589 0.717185
0.984588 0.434159 0.717115
0.984543 0.431729 0.717045
0.984499 0.429298 0.716975
0.984454 0.426868 0.716905
0.984409 0.424438 0.716835
0.984365 0.422008 0.716765
0.98432 0.419578 0.716695
0.984275 0.417148 0.716625
0.984231 0.414717 0.716555
0.984186 0.412287 0.716485
0.984142 0.409857 0.716415
0.984097 0.407427 0.716345
0.986944 0.4054 0.71541
0.986899 0.402965 0.71534
0.986854 0.40053 0.715269
0.98681 0.398094 0.715199
0.983874 0.395276 0.715996
0.983829 0.392846 0.715926
0.983784 0.390416 0.715856
0.986631 0.388352 0.714919
0.986586 0.385917 0.714849
0.986541 0.383482 0.714779
0.986496 0.381046 0.714709
0.986452 0.378611 0.714639
0.986407 0.376175 0.714569
0.986362 0.37374 0.714498
0.986317 0.371304 0.714428
0.986273 0.368869 0.714358
0.989118 0.366753 0.71342
0.989073 0.364312 0.71335
0.989028 0.361872 0.71328
0.988983 0.359431 0.713209
0.988939 0.35699 0.713139
0.988894 0.35455 0.713069
0.988849 0.352109 0.712999
0.988804 0.349668 0.712928
0.991648 0.347505 0.711989
0.991603 0.345059 0.711918
0.991559 0.342613 0.711848
0.991514 0.340167 0.711777
0.991469 0.337721 0.711707
0.991424 0.335275 0.711637
0.994267 0.333075 0.710696
0.994222 0.330624 0.710625
0.994177 0.328173 0.710555
0.994132 0.325722 0.710484
0.997938 0.32357 0.709252
0.997893 0.321112 0.709182
0.997848 0.318654 0.709111
0.997803 0.316195 0.70904
0.997758 0.313737 0.708969
0.993862 0.311014 0.710061
0.993817 0.308563 0.70999
0.993772 0.306112 0.70992
0.993727 0.303661 0.709849
0.993682 0.30121 0.709779
0.99075 0.298586 0.710581
0.990705 0.29614 0.71051
0.99066 0.293694 0.71044
0.990615 0.291248 0.71037
0.99057 0.288802 0.710299
0.990525 0.286356 0.710229
0.99048 0.28391 0.710158
0.990435 0.281465 0.710088
0.99039 0.279019 0.710018
0.990346 0.276573 0.709947
0.990301 0.274127 0.709877
0.990256 0.271681 0.709806
0.990211 0.269235 0.709736
0.990166 0.266789 0.709666
0.990121 0.264343 0.709595
0.990076 0.261897 0.709525
0.990031 0.259451 0.709454
0.989986 0.257005 0.709384
0.992827 0.254637 0.708438
0.992782 0.252185 0.708368
0.992737 0.249734 0.708297
0.992692 0.247283 0.708227
0.992647 0.244832 0.708156
0.996448 0.242449 0.706918
0.996403 0.239991 0.706847
0.996358 0.237532 0.706776
0.996313 0.235074 0.706706
0.996268 0.232616 0.706635
0.996222 0.230158 0.706564
0.996177 0.2277 0.706493
0.996132 0.225241 0.706423
0.996087 0.222783 0.706352
0.996042 0.220325 0.706281
0.995997 0.217867 0.70621
0.992106 0.215417 0.70731
0.992061 0.212966 0.707239
0.992016 0.210515 0.707169
0.991971 0.208064 0.707098
0.991926 0.205613 0.707028
0.991881 0.203161 0.706957
0.991836 0.20071 0.706886
0.988908 0.198302 0.707695
0.988863 0.195857 0.707624
0.991701 0.193357 0.706675
0.991656 0.190905 0.706604
0.991611 0.188454 0.706534
0.991566 0.186003 0.706463
0.991521 0.183552 0.706393
0.991476 0.181101 0.706322
0.991431 0.178649 0.706252
0.991386 0.176198 0.706181
0.995184 0.173619 0.704937
0.995139 0.171161 0.704866
0.995094 0.168702 0.704795
0.995049 0.166244 0.704725
0.995003 0.163786 0.704654
0.994958 0.161328 0.704583
0.994913 0.15887 0.704512
0.994868 0.156411 0.704442
0.997704 0.153815 0.70349
0.997659 0.151351 0.703419
0.997614 0.148888 0.703348
0.997569 0.146425 0.703277
0.997523 0.143961 0.703206
0.997478 0.141498 0.703135
0.997433 0.139034 0.703064
0.994507 0.136746 0.703876
0.994462 0.134287 0.703805
0.994416 0.131829 0.703734
0.994371 0.129371 0.703663
0.994326 0.126913 0.703593
0.994281 0.124455 0.703522
0.994236 0.121996 0.703451
0.994191 0.119538 0.70338
0.994145 0.11708 0.70331
0.9941 0.114622 0.703239
0.994055 0.112163 0.703168
0.965314 0.586269 0.725716
0.96527 0.583878 0.725647
0.965226 0.581486 0.725578
0.965182 0.579095 0.725509
0.965138 0.576703 0.72544
0.965094 0.574312 0.725371
0.96505 0.57192 0.725303
0.965006 0.569528 0.725234
0.964962 0.567137 0.725165
0.964919 0.564745 0.725096
0.964875 0.562354 0.725027
0.967727 0.560713 0.724098
0.967682 0.558316 0.724029
0.967638 0.555919 0.72396
0.97049 0.554258 0.72303
0.970446 0.551856 0.722961
0.970402 0.549453 0.722891
0.970358 0.547051 0.722822
0.970314 0.544649 0.722753
0.970269 0.542247 0.722684
0.970225 0.539845 0.722615
0.970181 0.537443 0.722546
0.970137 0.535041 0.722477
0.970093 0.532639 0.722408
0.970049 0.530237 0.722338
0.970005 0.527834 0.722269
0.969961 0.525432 0.7222
0.969916 0.52303 0.722131
0.969872 0.520628 0.722062
0.969828 0.518226 0.721993
0.969784 0.515824 0.721924
0.96974 0.513422 0.721854
0.969696 0.51102 0.721785
0.969652 0.508618 0.721716
0.969608 0.506215 0.721647
0.973421 0.504646 0.720426
0.973377 0.502237 0.720356
0.973333 0.499828 0.720287
0.976182 0.498028 0.719353
0.976138 0.495614 0.719283
0.976093 0.493199 0.719214
0.976049 0.490785 0.719144
0.976005 0.48837 0.719075
0.978853 0.486539 0.71814
0.981701 0.484696 0.717204
0.981657 0.482272 0.717135
0.981612 0.479847 0.717065
0.981568 0.477422 0.716995
0.981523 0.474997 0.716925
0.984371 0.473123 0.715989
0.984326 0.470693 0.715919
0.984281 0.468263 0.715849
0.984237 0.465833 0.715779
0.984192 0.463402 0.715709
0.984147 0.460972 0.715639
0.984103 0.458542 0.715569
0.984058 0.456112 0.7155
0.984014 0.453682 0.71543
0.983969 0.451252 0.71536
0.983924 0.448821 0.71529
0.98388 0.446391 0.71522
0.983835 0.443961 0.71515
0.98379 0.441531 0.71508
0.983746 0.439101 0.71501
0.983701 0.436671 0.71494
0.983656 0.43424 0.71487
0.983612 0.43181 0.7148
0.983567 0.42938 0.71473
0.983523 0.42695 0.71466
0.983478 0.42452 0.71459
0.983433 0.42209 0.71452
0.983389 0.419659 0.71445
0.983344 0.417229 0.714381
0.983299 0.414799 0.714311
0.983255 0.412369 0.714241
0.98321 0.409939 0.714171
0.983165 0.407509 0.714101
0.983121 0.405078 0.714031
0.983076 0.402648 0.713961
0.983032 0.400218 0.713891
0.982987 0.397788 0.713821
0.982942 0.395358 0.713751
0.982898 0.392928 0.713681
0.982853 0.390497 0.713611
0.985697 0.388434 0.71267
0.985652 0.385999 0.712599
0.985608 0.383563 0.712529
0.985563 0.381128 0.712459
0.985518 0.378693 0.712389
0.985474 0.376257 0.712319
0.988317 0.374157 0.711376
0.988272 0.371716 0.711306
0.988227 0.369276 0.711236
0.988182 0.366835 0.711166
0.988138 0.364394 0.711095
0.988093 0.361954 0.711025
0.988048 0.359513 0.710955
0.988003 0.357072 0.710885
0.987958 0.354632 0.710814
0.987913 0.352191 0.710744
0.987869 0.34975 0.710674
0.990711 0.347587 0.709729
0.990666 0.345141 0.709659
0.990621 0.342695 0.709589
0.990576 0.340249 0.709518
0.990531 0.337803 0.709448
0.990486 0.335358 0.709377
0.993328 0.333158 0.708432
0.993283 0.330706 0.708361
0.993238 0.328255 0.708291
0.993193 0.325804 0.70822
0.996996 0.323653 0.706982
0.996951 0.321195 0.706911
0.996906 0.318736 0.70684
0.996861 0.316278 0.70677
0.996815 0.31382 0.706699
0.992923 0.311097 0.707797
0.992878 0.308646 0.707726
0.992833 0.306194 0.707656
0.992788 0.303743 0.707585
0.992743 0.301292 0.707515
0.989812 0.298668 0.708322
0.989767 0.296222 0.708251
0.989723 0.293776 0.708181
0.989678 0.291331 0.70811
0.989633 0.288885 0.70804
0.989588 0.286439 0.70797
0.989543 0.283993 0.707899
0.989498 0.281547 0.707829
0.989453 0.279101 0.707758
0.989408 0.276655 0.707688
0.989363 0.274209 0.707618
0.989318 0.271763 0.707547
0.989273 0.269317 0.707477
0.989228 0.266871 0.707406
0.989183 0.264425 0.707336
0.989139 0.261979 0.707266
0.989094 0.259533 0.707195
0.989049 0.257087 0.707125
0.991887 0.254719 0.706174
0.991842 0.252268 0.706104
0.991797 0.249817 0.706033
0.991752 0.247365 0.705963
0.991707 0.244914 0.705892
0.995506 0.242532 0.704647
0.995461 0.240073 0.704577
0.995416 0.237615 0.704506
0.995371 0.235157 0.704435
0.995325 0.232699 0.704364
0.99528 0.23024 0.704294
0.995235 0.227782 0.704223
0.99519 0.225324 0.704152
0.995145 0.222866 0.704081
0.9951 0.220408 0.704011
0.995055 0.217949 0.70394
0.995009 0.215491 0.703869
0.994964 0.213033 0.703798
0.991077 0.210597 0.704905
0.991032 0.208146 0.704834
0.990987 0.205695 0.704763
0.990942 0.203244 0.704693
0.990897 0.200793 0.704622
0.990852 0.198341 0.704552
0.990807 0.19589 0.704481
0.990762 0.193439 0.704411
0.990717 0.190988 0.70434
0.990672 0.188537 0.70427
0.990627 0.186085 0.704199
0.990582 0.183634 0.704129
0.990537 0.181183 0.704058
0.990492 0.178732 0.703987
0.990447 0.176281 0.703917
0.994242 0.173702 0.702666
0.994197 0.171243 0.702596
0.994152 0.168785 0.702525
0.994106 0.166327 0.702454
0.994061 0.163869 0.702383
0.994016 0.16141 0.702313
0.993971 0.158952 0.702242
0.993926 0.156494 0.702171
0.99676 0.153898 0.701214
0.996715 0.151434 0.701143
0.99667 0.148971 0.701072
0.996624 0.146507 0.701001
0.996579 0.144044 0.700931
0.996534 0.14158 0.70086
0.996489 0.139117 0.700789
0.993565 0.136828 0.701605
0.993519 0.13437 0.701534
0.993474 0.131912 0.701464
0.993429 0.129454 0.701393
0.993384 0.126995 0.701322
0.993339 0.124537 0.701251
0.993294 0.122079 0.701181
0.993248 0.119621 0.70111
0.993203 0.117163 0.701039
0.993158 0.114704 0.700968
0.993113 0.112246 0.700898
0.964397 0.58635 0.723507
0.964353 0.583958 0.723438
0.964309 0.581567 0.723369
0.964265 0.579175 0.7233
0.964222 0.576784 0.723231
0.964178 0.574392 0.723162
0.964134 0.572 0.723094
0.96409 0.569609 0.723025
0.964046 0.567217 0.722956
0.964002 0.564826 0.722887
0.963958 0.562434 0.722818
0.966808 0.560794 0.721884
0.966764 0.558397 0.721815
0.96672 0.556 0.721746
0.969569 0.554338 0.720811
0.969525 0.551936 0.720742
0.969481 0.549534 0.720673
0.969437 0.547132 0.720604
0.969393 0.54473 0.720534
0.969349 0.542328 0.720465
0.969305 0.539926 0.720396
0.969261 0.537524 0.720327
0.969216 0.535122 0.720258
0.969172 0.532719 0.720189
0.969128 0.530317 0.72012
0.969084 0.527915 0.720051
0.96904 0.525513 0.719981
0.968996 0.523111 0.719912
0.968952 0.520709 0.719843
0.968908 0.518307 0.719774
0.968863 0.515905 0.719705
0.968819 0.513503 0.719636
0.968775 0.5111 0.719567
0.968731 0.508698 0.719497
0.968687 0.506296 0.719428
0.972498 0.504727 0.7182
0.972454 0.502318 0.718131
0.97241 0.499909 0.718062
0.975257 0.498109 0.717123
0.975212 0.495695 0.717053
0.975168 0.49328 0.716984
0.975124 0.490866 0.716914
0.975079 0.488452 0.716845
0.977926 0.48662 0.715905
0.980772 0.484778 0.714965
0.980727 0.482353 0.714895
0.980683 0.479928 0.714825
0.980638 0.477503 0.714755
0.980594 0.475078 0.714686
0.983439 0.473205 0.713744
0.983395 0.470775 0.713675
0.98335 0.468344 0.713605
0.983305 0.465914 0.713535
0.983261 0.463484 0.713465
0.983216 0.461054 0.713395
0.983171 0.458624 0.713325
0.983127 0.456194 0.713255
0.983082 0.453763 0.713185
0.983038 0.451333 0.713115
0.982993 0.448903 0.713045
0.982948 0.446473 0.712975
0.982904 0.444043 0.712905
0.982859 0.441613 0.712835
0.982814 0.439182 0.712765
0.98277 0.436752 0.712695
0.982725 0.434322 0.712625
0.98268 0.431892 0.712556
0.982636 0.429462 0.712486
0.982591 0.427032 0.712416
0.982547 0.424601 0.712346
0.982502 0.422171 0.712276
0.982457 0.419741 0.712206
0.982413 0.417311 0.712136
0.982368 0.414881 0.712066
0.982323 0.412451 0.711996
0.982279 0.41002 0.711926
0.982234 0.40759 0.711856
0.982189 0.40516 0.711786
0.982145 0.40273 0.711716
0.9821 0.4003 0.711646
0.982056 0.39787 0.711576
0.982011 0.395439 0.711506
0.981966 0.393009 0.711436
0.981922 0.390579 0.711367
0.984764 0.388516 0.71042
0.984719 0.386081 0.71035
0.984674 0.383645 0.71028
0.987516 0.381561 0.709333
0.987471 0.379121 0.709262
0.987426 0.37668 0.709192
0.987381 0.374239 0.709122
0.987337 0.371799 0.709052
0.987292 0.369358 0.708982
0.987247 0.366917 0.708911
0.987202 0.364476 0.708841
0.987157 0.362036 0.708771
0.987112 0.359595 0.708701
0.987068 0.357154 0.70863
0.987023 0.354714 0.70856
0.986978 0.352273 0.70849
0.986933 0.349832 0.70842
0.989773 0.347669 0.70747
0.989729 0.345224 0.7074
0.989684 0.342778 0.707329
0.989639 0.340332 0.707259
0.989594 0.337886 0.707189
0.989549 0.33544 0.707118
0.989504 0.332994 0.707048
0.989459 0.330548 0.706977
0.989414 0.328102 0.706907
0.989369 0.325656 0.706837
0.992208 0.323435 0.705886
0.992163 0.320984 0.705815
0.992118 0.318533 0.705744
0.992073 0.316082 0.705674
0.992028 0.31363 0.705603
0.9891 0.31098 0.706414
0.989055 0.308534 0.706344
0.98901 0.306088 0.706273
0.988965 0.303642 0.706203
0.98892 0.301197 0.706133
0.988875 0.298751 0.706062
0.98883 0.296305 0.705992
0.988785 0.293859 0.705922
0.98874 0.291413 0.705851
0.988695 0.288967 0.705781
0.98865 0.286521 0.70571
0.985723 0.283934 0.706523
0.985678 0.281493 0.706453
0.985633 0.279053 0.706383
0.988471 0.276737 0.705429
0.988426 0.274291 0.705358
0.988381 0.271845 0.705288
0.988336 0.269399 0.705218
0.988291 0.266953 0.705147
0.988246 0.264507 0.705077
0.988201 0.262061 0.705006
0.988156 0.259616 0.704936
0.988111 0.25717 0.704866
0.990948 0.254801 0.70391
0.990903 0.25235 0.70384
0.990858 0.249899 0.703769
0.990813 0.247448 0.703699
0.990768 0.244997 0.703628
0.994564 0.242614 0.702377
0.994519 0.240156 0.702306
0.994474 0.237698 0.702235
0.994428 0.23524 0.702164
0.994383 0.232781 0.702094
0.994338 0.230323 0.702023
0.994293 0.227865 0.701952
0.994248 0.225407 0.701881
0.994203 0.222948 0.701811
0.994158 0.22049 0.70174
0.994112 0.218032 0.701669
0.994067 0.215574 0.701598
0.994022 0.213116 0.701528
0.990137 0.21068 0.70264
0.990092 0.208229 0.70257
0.990047 0.205777 0.702499
0.990002 0.203326 0.702429
0.989957 0.200875 0.702358
0.989912 0.198424 0.702288
0.989867 0.195973 0.702217
0.989822 0.193521 0.702147
0.989777 0.19107 0.702076
0.989732 0.188619 0.702006
0.989687 0.186168 0.701935
0.989642 0.183717 0.701864
0.989597 0.181265 0.701794
0.989552 0.178814 0.701723
0.989507 0.176363 0.701653
0.9933 0.173784 0.700396
0.993255 0.171326 0.700325
0.993209 0.168868 0.700254
0.993164 0.16641 0.700184
0.993119 0.163951 0.700113
0.993074 0.161493 0.700042
0.993029 0.159035 0.699971
0.992984 0.156577 0.699901
0.992938 0.154118 0.69983
0.992893 0.15166 0.699759
0.995725 0.149054 0.698797
0.99568 0.14659 0.698726
0.995635 0.144127 0.698655
0.99559 0.141663 0.698584
0.992668 0.139369 0.699405
0.992622 0.136911 0.699335
0.992577 0.134453 0.699264
0.992532 0.131994 0.699193
0.992487 0.129536 0.699122
0.992442 0.127078 0.699052
0.992397 0.12462 0.698981
0.992352 0.122162 0.69891
0.992306 0.119703 0.698839
0.992261 0.117245 0.698769
0.992216 0.114787 0.698698
0.988336 0.112632 0.699819
0.960588 0.585621 0.722166
0.960544 0.583235 0.722098
0.9605 0.580848 0.722029
0.960456 0.578462 0.72196
0.960412 0.576076 0.721892
0.960369 0.573689 0.721823
0.963217 0.572081 0.720885
0.963173 0.569689 0.720816
0.963129 0.567298 0.720747
0.963085 0.564906 0.720678
0.963041 0.562514 0.720609
0.962997 0.560123 0.72054
0.962954 0.557731 0.720472
0.965801 0.55608 0.719532
0.965757 0.553684 0.719463
0.965713 0.551287 0.719394
0.965669 0.54889 0.719325
0.965625 0.546493 0.719256
0.965581 0.544096 0.719187
0.965537 0.541699 0.719118
0.965493 0.539302 0.719049
0.965449 0.536906 0.71898
0.965405 0.534509 0.718911
0.965361 0.532112 0.718842
0.965317 0.529715 0.718773
0.965273 0.527318 0.718704
0.965229 0.524921 0.718635
0.965185 0.522525 0.718566
0.965141 0.520128 0.718497
0.965097 0.517731 0.718428
0.965053 0.515334 0.718359
0.965009 0.512937 0.71829
0.964965 0.51054 0.718221
0.96781 0.508779 0.717279
0.967766 0.506377 0.71721
0.967722 0.503975 0.71714
0.967678 0.501573 0.717071
0.967634 0.499171 0.717002
0.971442 0.497581 0.715767
0.971398 0.495172 0.715698
0.971354 0.492763 0.715628
0.974198 0.490947 0.714684
0.974154 0.488533 0.714615
0.97411 0.486118 0.714545
0.979842 0.484859 0.712725
0.979798 0.482435 0.712655
0.979753 0.48001 0.712585
0.979709 0.477585 0.712516
0.979664 0.47516 0.712446
0.982508 0.473286 0.7115
0.982463 0.470856 0.71143
0.982419 0.468426 0.71136
0.982374 0.465996 0.71129
0.982329 0.463566 0.71122
0.982285 0.461136 0.71115
0.98224 0.458705 0.71108
0.982195 0.456275 0.71101
0.982151 0.453845 0.71094
0.982106 0.451415 0.71087
0.982062 0.448985 0.7108
0.982017 0.446555 0.710731
0.979085 0.443636 0.711539
0.979041 0.441211 0.711469
0.978996 0.438786 0.711399
0.978952 0.436361 0.711329
0.978907 0.433937 0.711259
0.978863 0.431512 0.71119
0.978818 0.429087 0.71112
0.978773 0.426662 0.71105
0.978729 0.424237 0.71098
0.978684 0.421812 0.71091
0.97864 0.419387 0.710841
0.978595 0.416962 0.710771
0.978551 0.414537 0.710701
0.978506 0.412112 0.710631
0.978462 0.409687 0.710562
0.981303 0.407672 0.709611
0.981258 0.405242 0.709542
0.981213 0.402812 0.709472
0.981169 0.400382 0.709402
0.981124 0.397951 0.709332
0.98108 0.395521 0.709262
0.981035 0.393091 0.709192
0.98099 0.390661 0.709122
0.98383 0.388598 0.708171
0.983786 0.386163 0.7081
0.983741 0.383727 0.70803
0.986581 0.381643 0.707078
0.986536 0.379203 0.707008
0.986491 0.376762 0.706938
0.986446 0.374321 0.706868
0.986401 0.371881 0.706797
0.986356 0.36944 0.706727
0.986312 0.366999 0.706657
0.986267 0.364559 0.706587
0.986222 0.362118 0.706516
0.986177 0.359677 0.706446
0.986132 0.357237 0.706376
0.986087 0.354796 0.706306
0.986043 0.352355 0.706235
0.985998 0.349914 0.706165
0.985953 0.347474 0.706095
0.985908 0.345033 0.706025
0.985863 0.342592 0.705955
0.985818 0.340152 0.705884
0.985774 0.337711 0.705814
0.985729 0.33527 0.705744
0.988566 0.333076 0.704789
0.988522 0.33063 0.704718
0.988477 0.328184 0.704648
0.988432 0.325738 0.704577
0.988387 0.323292 0.704507
0.988342 0.320846 0.704437
0.988297 0.3184 0.704366
0.988252 0.315954 0.704296
0.988207 0.313509 0.704225
0.988162 0.311063 0.704155
0.988117 0.308617 0.704085
0.988072 0.306171 0.704014
0.988027 0.303725 0.703944
0.987982 0.301279 0.703873
0.987938 0.298833 0.703803
0.987893 0.296387 0.703733
0.987848 0.293941 0.703662
0.984922 0.291338 0.704479
0.984877 0.288897 0.704409
0.984832 0.286457 0.704339
0.984787 0.284016 0.704269
0.984743 0.281575 0.704198
0.984698 0.279135 0.704128
0.987533 0.276819 0.70317
0.987488 0.274373 0.703099
0.987443 0.271927 0.703029
0.987398 0.269482 0.702958
0.987354 0.267036 0.702888
0.987309 0.26459 0.702818
0.987264 0.262144 0.702747
0.987219 0.259698 0.702677
0.987174 0.257252 0.702606
0.990008 0.254884 0.701646
0.989963 0.252433 0.701576
0.989918 0.249981 0.701505
0.993712 0.247613 0.700248
0.993667 0.245155 0.700177
0.993622 0.242697 0.700106
0.993577 0.240239 0.700035
0.993531 0.23778 0.699965
0.993486 0.235322 0.699894
0.993441 0.232864 0.699823
0.993396 0.230406 0.699752
0.993351 0.227948 0.699682
0.993306 0.225489 0.699611
0.993261 0.223031 0.69954
0.993215 0.220573 0.699469
0.99317 0.218115 0.699399
0.993125 0.215656 0.699328
0.99308 0.213198 0.699257
0.993035 0.21074 0.699186
0.99299 0.208282 0.699116
0.992945 0.205824 0.699045
0.989063 0.203409 0.700165
0.989018 0.200957 0.700094
0.988973 0.198506 0.700024
0.988928 0.196055 0.699953
0.988883 0.193604 0.699883
0.988838 0.191153 0.699812
0.988793 0.188701 0.699742
0.988748 0.18625 0.699671
0.988703 0.183799 0.6996
0.988658 0.181348 0.69953
0.988613 0.178897 0.699459
0.988568 0.176445 0.699389
0.988523 0.173994 0.699318
0.988478 0.171543 0.699248
0.992267 0.16895 0.697984
0.992222 0.166492 0.697913
0.992177 0.164034 0.697842
0.992132 0.161576 0.697772
0.992087 0.159118 0.697701
0.992041 0.156659 0.69763
0.991996 0.154201 0.697559
0.991951 0.151743 0.697489
0.991906 0.149285 0.697418
0.991861 0.146826 0.697347
0.991816 0.144368 0.697276
0.991771 0.14191 0.697206
0.991725 0.139452 0.697135
0.99168 0.136994 0.697064
0.991635 0.134535 0.696993
0.99159 0.132077 0.696923
0.991545 0.129619 0.696852
0.9915 0.127161 0.696781
0.991455 0.124702 0.69671
0.991409 0.122244 0.69664
0.991364 0.119786 0.696569
0.987487 0.117617 0.697696
0.987442 0.115165 0.697625
0.987397 0.112714 0.697555
0.956782 0.584892 0.720836
0.956739 0.582511 0.720767
0.956695 0.58013 0.720699
0.959542 0.578542 0.719756
0.959498 0.576156 0.719687
0.959454 0.57377 0.719619
0.95941 0.571383 0.71955
0.959366 0.568997 0.719481
0.962213 0.567378 0.718538
0.962169 0.564986 0.718469
0.962125 0.562595 0.7184
0.962081 0.560203 0.718331
0.962037 0.557812 0.718263
0.964883 0.556161 0.717318
0.964839 0.553764 0.717249
0.964795 0.551367 0.71718
0.964751 0.54897 0.717111
0.964706 0.546574 0.717042
0.964662 0.544177 0.716973
0.961729 0.54107 0.717781
0.961685 0.538679 0.717712
0.961642 0.536287 0.717643
0.961598 0.533896 0.717574
0.961554 0.531504 0.717505
0.96151 0.529113 0.717437
0.961466 0.526721 0.717368
0.961422 0.524329 0.717299
0.961378 0.521938 0.71723
0.961334 0.519546 0.717161
0.96129 0.517155 0.717093
0.961246 0.514763 0.717024
0.961202 0.512371 0.716955
0.961158 0.50998 0.716886
0.964002 0.508224 0.715939
0.963958 0.505827 0.71587
0.963914 0.50343 0.715801
0.966757 0.501654 0.714853
0.966713 0.499251 0.714783
0.966669 0.496849 0.714714
0.970474 0.495253 0.713473
0.97043 0.492844 0.713403
0.973273 0.491028 0.712454
0.973229 0.488614 0.712385
0.973184 0.4862 0.712315
0.978913 0.484941 0.710485
0.978868 0.482516 0.710415
0.978824 0.480091 0.710346
0.978779 0.477666 0.710276
0.978735 0.475241 0.710206
0.981576 0.473368 0.709255
0.981532 0.470938 0.709185
0.981487 0.468508 0.709115
0.984328 0.466613 0.708164
0.981398 0.463647 0.708975
0.981353 0.461217 0.708906
0.981309 0.458787 0.708836
0.981264 0.456357 0.708766
0.981219 0.453927 0.708696
0.981175 0.451497 0.708626
0.98113 0.449066 0.708556
0.981085 0.446636 0.708486
0.978156 0.443718 0.709299
0.978111 0.441293 0.709229
0.978067 0.438868 0.709159
0.978022 0.436443 0.709089
0.977978 0.434018 0.70902
0.977933 0.431593 0.70895
0.977889 0.429168 0.70888
0.977844 0.426743 0.70881
0.9778 0.424318 0.70874
0.977755 0.421894 0.708671
0.97771 0.419469 0.708601
0.977666 0.417044 0.708531
0.977621 0.414619 0.708461
0.977577 0.412194 0.708392
0.977532 0.409769 0.708322
0.980371 0.407754 0.707367
0.980327 0.405324 0.707297
0.980282 0.402893 0.707227
0.980237 0.400463 0.707157
0.980193 0.398033 0.707087
0.980148 0.395603 0.707017
0.980103 0.393173 0.706947
0.980059 0.390743 0.706877
0.982897 0.38868 0.705921
0.985735 0.386607 0.704965
0.98569 0.384166 0.704894
0.985645 0.381725 0.704824
0.9856 0.379285 0.704754
0.985555 0.376844 0.704684
0.985511 0.374403 0.704613
0.985466 0.371963 0.704543
0.985421 0.369522 0.704473
0.988258 0.367401 0.703515
0.988213 0.364956 0.703445
0.988168 0.36251 0.703374
0.988123 0.360064 0.703304
0.985197 0.357319 0.704122
0.985152 0.354878 0.704051
0.985107 0.352437 0.703981
0.985062 0.349997 0.703911
0.985018 0.347556 0.703841
0.984973 0.345115 0.70377
0.984928 0.342674 0.7037
0.984883 0.340234 0.70363
0.984838 0.337793 0.70356
0.984793 0.335352 0.703489
0.987629 0.333158 0.702529
0.987584 0.330712 0.702459
0.987539 0.328266 0.702389
0.987494 0.32582 0.702318
0.987449 0.323375 0.702248
0.987404 0.320929 0.702177
0.98736 0.318483 0.702107
0.987315 0.316037 0.702037
0.98727 0.313591 0.701966
0.987225 0.311145 0.701896
0.98718 0.308699 0.701825
0.987135 0.306253 0.701755
0.98709 0.303807 0.701685
0.987045 0.301361 0.701614
0.987 0.298915 0.701544
0.986955 0.296469 0.701473
0.98691 0.294023 0.701403
0.983986 0.29142 0.702225
0.983942 0.288979 0.702155
0.983897 0.286539 0.702085
0.983852 0.284098 0.702014
0.983807 0.281657 0.701944
0.983762 0.279217 0.701874
0.986596 0.276902 0.70091
0.986551 0.274456 0.70084
0.986506 0.27201 0.70077
0.986461 0.269564 0.700699
0.986416 0.267118 0.700629
0.986371 0.264672 0.700558
0.986326 0.262226 0.700488
0.986281 0.25978 0.700418
0.986236 0.257334 0.700347
0.989069 0.254966 0.699382
0.989024 0.252515 0.699312
0.988979 0.250064 0.699241
0.99277 0.247696 0.697977
0.992725 0.245238 0.697906
0.99268 0.24278 0.697836
0.992634 0.240321 0.697765
0.992589 0.237863 0.697694
0.992544 0.235405 0.697623
0.992499 0.232947 0.697553
0.992454 0.230488 0.697482
0.992409 0.22803 0.697411
0.992364 0.225572 0.69734
0.992318 0.223114 0.69727
0.992273 0.220656 0.697199
0.992228 0.218197 0.697128
0.992183 0.215739 0.697057
0.992138 0.213281 0.696987
0.992093 0.210823 0.696916
0.992048 0.208364 0.696845
0.992002 0.205906 0.696774
0.991957 0.203448 0.696704
0.991912 0.20099 0.696633
0.988033 0.198589 0.69776
0.987988 0.196137 0.697689
0.987943 0.193686 0.697619
0.987898 0.191235 0.697548
0.987853 0.188784 0.697477
0.987808 0.186333 0.697407
0.987763 0.183881 0.697336
0.987718 0.18143 0.697266
0.987673 0.178979 0.697195
0.987628 0.176528 0.697125
0.987583 0.174077 0.697054
0.987538 0.171625 0.696984
0.991325 0.169033 0.695713
0.99128 0.166575 0.695642
0.991235 0.164117 0.695572
0.99119 0.161658 0.695501
0.991144 0.1592 0.69543
0.991099 0.156742 0.695359
0.991054 0.154284 0.695289
0.991009 0.151826 0.695218
0.990964 0.149367 0.695147
0.990919 0.146909 0.695076
0.990874 0.144451 0.695006
0.990828 0.141993 0.694935
0.990783 0.139534 0.694864
0.990738 0.137076 0.694793
0.990693 0.134618 0.694723
0.990648 0.13216 0.694652
0.990603 0.129702 0.694581
0.990558 0.127243 0.69451
0.990512 0.124785 0.69444
0.990467 0.122327 0.694369
0.990422 0.119869 0.694298
0.986548 0.117699 0.695432
0.986503 0.115248 0.695361
0.986458 0.112797 0.695291
0.955826 0.582591 0.718568
0.955782 0.58021 0.718499
0.958627 0.578623 0.717552
0.958583 0.576236 0.717483
0.958539 0.57385 0.717415
0.958496 0.571464 0.717346
0.958452 0.569077 0.717277
0.961296 0.567458 0.716329
0.961252 0.565067 0.71626
0.961208 0.562675 0.716191
0.961164 0.560284 0.716122
0.96112 0.557892 0.716054
0.963964 0.556242 0.715104
0.96392 0.553845 0.715035
0.963876 0.551448 0.714966
0.963832 0.549051 0.714897
0.963788 0.546654 0.714828
0.963744 0.544257 0.714759
0.960813 0.541151 0.715572
0.960769 0.538759 0.715503
0.960725 0.536368 0.715434
0.960681 0.533976 0.715365
0.960637 0.531585 0.715296
0.960593 0.529193 0.715228
0.960549 0.526801 0.715159
0.960505 0.52441 0.71509
0.960461 0.522018 0.715021
0.960417 0.519627 0.714952
0.960374 0.517235 0.714883
0.96033 0.514843 0.714815
0.960286 0.512452 0.714746
0.960242 0.51006 0.714677
0.963083 0.508305 0.713725
0.963039 0.505908 0.713656
0.962995 0.503511 0.713587
0.965837 0.501734 0.712634
0.965793 0.499332 0.712565
0.965749 0.49693 0.712496
0.969551 0.495334 0.711247
0.969507 0.492925 0.711178
0.972348 0.491109 0.710224
0.972303 0.488695 0.710155
0.972259 0.486281 0.710085
0.977984 0.485023 0.708245
0.977939 0.482598 0.708176
0.977895 0.480173 0.708106
0.97785 0.477748 0.708036
0.977806 0.475323 0.707966
0.980645 0.47345 0.707011
0.983484 0.471566 0.706055
0.98344 0.469131 0.705985
0.983395 0.466695 0.705914
0.98335 0.46426 0.705844
0.983306 0.461825 0.705774
0.983261 0.459389 0.705704
0.983216 0.456954 0.705634
0.980288 0.454009 0.706451
0.980243 0.451578 0.706381
0.980199 0.449148 0.706311
0.980154 0.446718 0.706241
0.977226 0.443799 0.707059
0.977182 0.441374 0.706989
0.977137 0.438949 0.706919
0.977093 0.436524 0.70685
0.977048 0.4341 0.70678
0.977004 0.431675 0.70671
0.976959 0.42925 0.70664
0.976915 0.426825 0.70657
0.97687 0.4244 0.706501
0.976826 0.421975 0.706431
0.976781 0.41955 0.706361
0.976737 0.417125 0.706291
0.976692 0.4147 0.706222
0.976647 0.412275 0.706152
0.976603 0.409851 0.706082
0.976558 0.407426 0.706012
0.979395 0.405405 0.705052
0.979351 0.402975 0.704982
0.979306 0.400545 0.704912
0.979261 0.398115 0.704842
0.979217 0.395685 0.704772
0.979172 0.393254 0.704703
0.979127 0.390824 0.704633
0.981964 0.388762 0.703672
0.984799 0.386689 0.70271
0.984755 0.384248 0.70264
0.98471 0.381807 0.70257
0.984665 0.379367 0.702499
0.98462 0.376926 0.702429
0.984575 0.374485 0.702359
0.98453 0.372045 0.702289
0.984486 0.369604 0.702218
0.987321 0.367484 0.701256
0.987276 0.365038 0.701185
0.987231 0.362592 0.701115
0.987186 0.360146 0.701045
0.984261 0.357401 0.701867
0.984217 0.35496 0.701797
0.984172 0.352519 0.701727
0.984127 0.350079 0.701657
0.984082 0.347638 0.701586
0.984037 0.345197 0.701516
0.983992 0.342757 0.701446
0.983948 0.340316 0.701376
0.983903 0.337875 0.701305
0.983858 0.335434 0.701235
0.983813 0.332994 0.701165
0.983768 0.330553 0.701095
0.983723 0.328112 0.701024
0.983679 0.325672 0.700954
0.983634 0.323231 0.700884
0.986467 0.321011 0.699918
0.983544 0.31835 0.700743
0.983499 0.315909 0.700673
0.983454 0.313468 0.700603
0.98341 0.311028 0.700533
0.983365 0.308587 0.700462
0.98332 0.306146 0.700392
0.983275 0.303706 0.700322
0.98323 0.301265 0.700252
0.983186 0.298824 0.700181
0.983141 0.296384 0.700111
0.983096 0.293943 0.700041
0.983051 0.291502 0.699971
0.983006 0.289062 0.6999
0.982961 0.286621 0.69983
0.982917 0.28418 0.69976
0.982872 0.281739 0.69969
0.982827 0.279299 0.699619
0.982782 0.276858 0.699549
0.985613 0.274538 0.698581
0.985568 0.272092 0.69851
0.985524 0.269646 0.69844
0.985479 0.2672 0.69837
0.985434 0.264754 0.698299
0.985389 0.262308 0.698229
0.985344 0.259862 0.698158
0.985299 0.257416 0.698088
0.988129 0.255049 0.697118
0.988084 0.252598 0.697048
0.988039 0.250146 0.696977
0.991828 0.247779 0.695707
0.991783 0.24532 0.695636
0.991737 0.242862 0.695565
0.991692 0.240404 0.695494
0.991647 0.237946 0.695424
0.991602 0.235488 0.695353
0.991557 0.233029 0.695282
0.991512 0.230571 0.695211
0.991467 0.228113 0.695141
0.991421 0.225655 0.69507
0.991376 0.223196 0.694999
0.991331 0.220738 0.694928
0.991286 0.21828 0.694858
0.991241 0.215822 0.694787
0.991196 0.213364 0.694716
0.991151 0.210905 0.694645
0.991105 0.208447 0.694575
0.99106 0.205989 0.694504
0.987184 0.203573 0.695637
0.987139 0.201122 0.695566
0.987094 0.198671 0.695496
0.987049 0.19622 0.695425
0.987004 0.193769 0.695354
0.986959 0.191317 0.695284
0.986914 0.188866 0.695213
0.986869 0.186415 0.695143
0.986824 0.183964 0.695072
0.986779 0.181513 0.695002
0.986734 0.179061 0.694931
0.986689 0.17661 0.694861
0.986644 0.174159 0.69479
0.986599 0.171708 0.69472
0.986554 0.169257 0.694649
0.986509 0.166805 0.694578
0.986464 0.164354 0.694508
0.990247 0.161741 0.69323
0.990202 0.159283 0.69316
0.990157 0.156825 0.693089
0.990112 0.154366 0.693018
0.990067 0.151908 0.692947
0.990022 0.14945 0.692877
0.989977 0.146992 0.692806
0.989931 0.144534 0.692735
0.989886 0.142075 0.692664
0.989841 0.139617 0.692594
0.989796 0.137159 0.692523
0.989751 0.134701 0.692452
0.989706 0.132242 0.692381
0.985833 0.130037 0.69352
0.985788 0.127586 0.69345
0.985743 0.125135 0.693379
0.985698 0.122684 0.693309
0.985653 0.120233 0.693238
0.985608 0.117781 0.693168
0.985563 0.11533 0.693097
0.982648 0.113106 0.693935
0.954914 0.582671 0.716369
0.95487 0.58029 0.7163
0.954826 0.577909 0.716232
0.954782 0.575528 0.716163
0.957625 0.57393 0.71521
0.957581 0.571544 0.715142
0.957537 0.569157 0.715073
0.960379 0.567539 0.71412
0.960335 0.565147 0.714051
0.960292 0.562756 0.713982
0.960248 0.560364 0.713913
0.960204 0.557972 0.713845
0.96016 0.555581 0.713776
0.960116 0.553189 0.713707
0.960072 0.550798 0.713638
0.960028 0.548406 0.713569
0.959984 0.546015 0.7135
0.95994 0.543623 0.713432
0.959896 0.541231 0.713363
0.959852 0.53884 0.713294
0.959808 0.536448 0.713225
0.959764 0.534057 0.713156
0.959721 0.531665 0.713087
0.959677 0.529273 0.713019
0.959633 0.526882 0.71295
0.959589 0.52449 0.712881
0.956661 0.521431 0.7137
0.956617 0.519045 0.713631
0.956573 0.516658 0.713562
0.956529 0.514272 0.713494
0.956485 0.511886 0.713425
0.959325 0.510141 0.712468
0.959281 0.507749 0.712399
0.959237 0.505357 0.71233
0.962077 0.503592 0.711373
0.962033 0.501195 0.711304
0.961989 0.498798 0.711235
0.961945 0.496401 0.711166
0.964784 0.494609 0.710208
0.96474 0.492207 0.710139
0.968539 0.490597 0.708884
0.968495 0.488187 0.708814
0.971333 0.486362 0.707855
0.974172 0.484526 0.706896
0.974127 0.482106 0.706826
0.976965 0.480254 0.705866
0.976921 0.477829 0.705796
0.976876 0.475404 0.705726
0.979714 0.473532 0.704766
0.982551 0.471648 0.703805
0.982506 0.469213 0.703735
0.982462 0.466777 0.703665
0.982417 0.464342 0.703595
0.982372 0.461906 0.703525
0.982327 0.459471 0.703455
0.982283 0.457036 0.703385
0.979357 0.45409 0.704206
0.979312 0.45166 0.704136
0.979267 0.44923 0.704067
0.976342 0.446306 0.704889
0.976297 0.443881 0.704819
0.976253 0.441456 0.704749
0.976208 0.439031 0.70468
0.976164 0.436606 0.70461
0.976119 0.434181 0.70454
0.976074 0.431756 0.70447
0.97603 0.429331 0.7044
0.975985 0.426906 0.704331
0.975941 0.424481 0.704261
0.973016 0.421615 0.705085
0.972972 0.419195 0.705015
0.972927 0.416776 0.704946
0.972883 0.414356 0.704876
0.972838 0.411936 0.704806
0.972794 0.409517 0.704737
0.975629 0.407507 0.703772
0.978464 0.405487 0.702808
0.978419 0.403057 0.702738
0.978375 0.400627 0.702668
0.97833 0.398196 0.702598
0.978285 0.395766 0.702528
0.978241 0.393336 0.702458
0.978196 0.390906 0.702388
0.98103 0.388844 0.701422
0.983864 0.386771 0.700456
0.983819 0.38433 0.700386
0.983774 0.38189 0.700315
0.983729 0.379449 0.700245
0.983685 0.377008 0.700175
0.986518 0.374904 0.699208
0.986473 0.372458 0.699137
0.986428 0.370012 0.699067
0.986383 0.367566 0.698996
0.986338 0.36512 0.698926
0.986293 0.362674 0.698856
0.986248 0.360228 0.698785
0.983326 0.357483 0.699613
0.983281 0.355042 0.699543
0.983236 0.352601 0.699472
0.983191 0.350161 0.699402
0.983147 0.34772 0.699332
0.983102 0.345279 0.699262
0.98018 0.342571 0.70009
0.980136 0.340135 0.70002
0.980091 0.3377 0.69995
0.980046 0.335264 0.69988
0.980001 0.332829 0.69981
0.979957 0.330394 0.69974
0.979912 0.327958 0.69967
0.979867 0.325523 0.6996
0.979822 0.323087 0.69953
0.979778 0.320652 0.699459
0.979733 0.318216 0.699389
0.979688 0.315781 0.699319
0.979643 0.313346 0.699249
0.979599 0.31091 0.699179
0.979554 0.308475 0.699109
0.979509 0.306039 0.699039
0.979465 0.303604 0.698969
0.97942 0.301168 0.698899
0.979375 0.298733 0.698829
0.97933 0.296298 0.698759
0.979286 0.293862 0.698688
0.979241 0.291427 0.698618
0.979196 0.288991 0.698548
0.982026 0.286703 0.697576
0.981981 0.284262 0.697506
0.981936 0.281822 0.697435
0.981891 0.279381 0.697365
0.981847 0.27694 0.697295
0.984676 0.27462 0.696322
0.984631 0.272174 0.696251
0.984586 0.269728 0.696181
0.984541 0.267282 0.69611
0.984496 0.264836 0.69604
0.984451 0.26239 0.69597
0.984406 0.259944 0.695899
0.984361 0.257499 0.695829
0.98719 0.255131 0.694854
0.987145 0.25268 0.694783
0.990931 0.250319 0.693507
0.990886 0.247861 0.693436
0.99084 0.245403 0.693365
0.990795 0.242945 0.693295
0.99075 0.240487 0.693224
0.990705 0.238028 0.693153
0.993533 0.235607 0.692177
0.993487 0.233143 0.692106
0.993442 0.23068 0.692035
0.993397 0.228216 0.691964
0.993352 0.225753 0.691893
0.993306 0.223289 0.691822
0.993261 0.220826 0.691751
0.990344 0.218363 0.692587
0.990299 0.215904 0.692516
0.990254 0.213446 0.692446
0.990208 0.210988 0.692375
0.990163 0.20853 0.692304
0.990118 0.206072 0.692233
0.986245 0.203656 0.693373
0.986199 0.201205 0.693302
0.986154 0.198753 0.693231
0.986109 0.196302 0.693161
0.986064 0.193851 0.69309
0.986019 0.1914 0.69302
0.985974 0.188949 0.692949
0.985929 0.186497 0.692879
0.985884 0.184046 0.692808
0.985839 0.181595 0.692738
0.985794 0.179144 0.692667
0.985749 0.176693 0.692597
0.985704 0.174241 0.692526
0.985659 0.17179 0.692455
0.985614 0.169339 0.692385
0.985569 0.166888 0.692314
0.985524 0.164437 0.692244
0.989305 0.161824 0.69096
0.98926 0.159365 0.690889
0.989215 0.156907 0.690818
0.98917 0.154449 0.690748
0.989125 0.151991 0.690677
0.98908 0.149533 0.690606
0.989034 0.147074 0.690535
0.988989 0.144616 0.690465
0.988944 0.142158 0.690394
0.988899 0.1397 0.690323
0.988854 0.137242 0.690252
0.988809 0.134783 0.690182
0.988764 0.132325 0.690111
0.984894 0.13012 0.691256
0.984849 0.127669 0.691186
0.984804 0.125217 0.691115
0.984759 0.122766 0.691045
0.984714 0.120315 0.690974
0.984669 0.117864 0.690903
0.984624 0.115413 0.690833
0.981711 0.113188 0.691676
0.954001 0.582751 0.714169
0.953957 0.58037 0.714101
0.953914 0.577989 0.714032
0.95387 0.575608 0.713964
0.95671 0.57401 0.713006
0.956666 0.571624 0.712938
0.956623 0.569238 0.712869
0.959463 0.567619 0.711911
0.959419 0.565228 0.711842
0.959375 0.562836 0.711773
0.959331 0.560444 0.711704
0.959287 0.558053 0.711636
0.959243 0.555661 0.711567
0.959199 0.55327 0.711498
0.959155 0.550878 0.711429
0.959111 0.548486 0.71136
0.959067 0.546095 0.711291
0.959024 0.543703 0.711223
0.95898 0.541312 0.711154
0.958936 0.53892 0.711085
0.958892 0.536529 0.711016
0.958848 0.534137 0.710947
0.958804 0.531745 0.710878
0.95876 0.529354 0.71081
0.958716 0.526962 0.710741
0.958672 0.524571 0.710672
0.955746 0.521511 0.711495
0.955702 0.519125 0.711427
0.955658 0.516738 0.711358
0.955614 0.514352 0.711289
0.955571 0.511966 0.711221
0.958409 0.510221 0.710259
0.958365 0.507829 0.71019
0.958321 0.505438 0.710121
0.961158 0.503672 0.709159
0.961114 0.501275 0.70909
0.96107 0.498878 0.709021
0.961026 0.496482 0.708952
0.963863 0.494689 0.707989
0.963819 0.492287 0.70792
0.967616 0.490678 0.706658
0.967572 0.488268 0.706589
0.970408 0.486443 0.705625
0.973244 0.484607 0.704661
0.9732 0.482187 0.704591
0.976036 0.480336 0.703626
0.975991 0.477911 0.703556
0.975947 0.475486 0.703487
0.978782 0.473613 0.702521
0.981618 0.47173 0.701556
0.981573 0.469295 0.701486
0.981528 0.466859 0.701415
0.981483 0.464424 0.701345
0.981439 0.461988 0.701275
0.981394 0.459553 0.701205
0.981349 0.457117 0.701135
0.981305 0.454682 0.701065
0.98126 0.452247 0.700995
0.978336 0.449312 0.701822
0.975412 0.446387 0.702649
0.975368 0.443962 0.702579
0.975323 0.441537 0.70251
0.975279 0.439112 0.70244
0.975234 0.436688 0.70237
0.97519 0.434263 0.7023
0.975145 0.431838 0.70223
0.975101 0.429413 0.702161
0.975056 0.426988 0.702091
0.975011 0.424563 0.702021
0.972089 0.421696 0.70285
0.972044 0.419277 0.70278
0.972 0.416857 0.702711
0.971956 0.414437 0.702641
0.971911 0.412018 0.702572
0.971867 0.409598 0.702502
0.9747 0.407589 0.701533
0.977533 0.405569 0.700563
0.977488 0.403139 0.700493
0.977443 0.400708 0.700423
0.977399 0.398278 0.700353
