ply
format ascii 1.0
comment Created by Open3D
element vertex 1793
property double x
property double y
property double z
end_header
0.865123 0.423729 0.712081
0.865071 0.421526 0.712088
0.865018 0.419323 0.712095
0.864965 0.41712 0.712102
0.862062 0.414483 0.713085
0.86201 0.412285 0.713091
0.861957 0.410088 0.713098
0.861905 0.40789 0.713105
0.861852 0.405693 0.713112
0.861799 0.403495 0.713119
0.861747 0.401297 0.713125
0.861694 0.3991 0.713132
0.861642 0.396902 0.713139
0.861589 0.394705 0.713146
0.861537 0.392507 0.713153
0.861484 0.390309 0.71316
0.861432 0.388112 0.713166
0.861379 0.385914 0.713173
0.859427 0.383476 0.71383
0.859375 0.381282 0.713837
0.859322 0.379088 0.713844
0.85927 0.376894 0.713851
0.859218 0.3747 0.713858
0.856317 0.372171 0.71484
0.856265 0.369983 0.714847
0.856212 0.367794 0.714854
0.854261 0.365393 0.715511
0.854209 0.363207 0.715517
0.854157 0.361022 0.715524
0.854105 0.358837 0.715531
0.854052 0.356651 0.715538
0.851153 0.354174 0.71652
0.851101 0.351994 0.716527
0.851049 0.349814 0.716534
0.850997 0.347634 0.71654
0.849047 0.345273 0.717197
0.848995 0.343096 0.717204
0.848943 0.34092 0.717211
0.848891 0.338743 0.717218
0.845992 0.336316 0.7182
0.845941 0.334145 0.718206
0.845889 0.331974 0.718213
0.845837 0.329803 0.71822
0.845785 0.327631 0.718227
0.845733 0.32546 0.718233
0.845681 0.323289 0.71824
0.845629 0.321117 0.718247
0.845577 0.318946 0.718253
0.845525 0.316775 0.71826
0.845473 0.314603 0.718267
0.845421 0.312432 0.718274
0.843473 0.310136 0.71893
0.843421 0.307968 0.718937
0.843369 0.305801 0.718944
0.843317 0.303633 0.718951
0.843266 0.301465 0.718957
0.843214 0.299297 0.718964
0.843162 0.297129 0.718971
0.840267 0.294812 0.719952
0.840215 0.292649 0.719959
0.840163 0.290487 0.719966
0.840111 0.288324 0.719973
0.838164 0.286075 0.720629
0.838113 0.283916 0.720636
0.838061 0.281757 0.720643
0.838009 0.279598 0.720649
0.837958 0.277439 0.720656
0.837906 0.27528 0.720663
0.837854 0.273121 0.720669
0.837803 0.270962 0.720676
0.837751 0.268803 0.720683
0.8377 0.266644 0.72069
0.837648 0.264485 0.720696
0.837596 0.262326 0.720703
0.837545 0.260167 0.72071
0.837493 0.258008 0.720716
0.837441 0.255849 0.720723
0.83739 0.25369 0.72073
0.837338 0.251531 0.720736
0.837287 0.249372 0.720743
0.837235 0.247213 0.72075
0.837183 0.245054 0.720756
0.839026 0.242911 0.720113
0.838974 0.240748 0.72012
0.838922 0.238586 0.720127
0.83887 0.236423 0.720133
0.838819 0.234261 0.72014
0.838767 0.232098 0.720147
0.838715 0.229936 0.720154
0.838664 0.227773 0.72016
0.838612 0.225611 0.720167
0.83856 0.223448 0.720174
0.838508 0.221286 0.72018
0.838457 0.219123 0.720187
0.838405 0.216961 0.720194
0.838353 0.214798 0.7202
0.838302 0.212635 0.720207
0.83825 0.210473 0.720214
0.838198 0.20831 0.720221
0.838146 0.206148 0.720227
0.840933 0.203914 0.71926
0.840881 0.201747 0.719266
0.840829 0.199579 0.719273
0.84267 0.197353 0.71863
0.845456 0.19509 0.717663
0.845404 0.192914 0.71767
0.847243 0.190669 0.717027
0.847191 0.188489 0.717034
0.849977 0.186196 0.716066
0.874204 0.440802 0.706706
0.872251 0.438257 0.707367
0.872198 0.43604 0.707374
0.872145 0.433823 0.70738
0.869243 0.431135 0.708368
0.86919 0.428923 0.708375
0.867237 0.426405 0.709036
0.867185 0.424197 0.709043
0.867132 0.421988 0.70905
0.86423 0.419335 0.710037
0.864178 0.417133 0.710044
0.861276 0.414495 0.711032
0.861224 0.412298 0.711039
0.861171 0.4101 0.711045
0.861119 0.407903 0.711052
0.863914 0.406118 0.710078
0.863862 0.403915 0.710085
0.863809 0.401712 0.710092
0.863756 0.39951 0.710099
0.863704 0.397307 0.710106
0.863651 0.395104 0.710112
0.863598 0.392901 0.710119
0.860698 0.390322 0.711107
0.860646 0.388124 0.711113
0.860593 0.385927 0.71112
0.858643 0.383489 0.711781
0.85859 0.381294 0.711788
0.858538 0.3791 0.711794
0.858485 0.376906 0.711801
0.858433 0.374712 0.711808
0.85838 0.372518 0.711815
0.855482 0.369995 0.712802
0.855429 0.367806 0.712809
0.855377 0.365617 0.712816
0.853428 0.36322 0.713476
0.853375 0.361034 0.713483
0.853323 0.358849 0.71349
0.853271 0.356664 0.713496
0.850373 0.354186 0.714483
0.850321 0.352006 0.71449
0.850269 0.349826 0.714497
0.850217 0.347646 0.714504
0.848268 0.345285 0.715164
0.848216 0.343109 0.715171
0.848164 0.340932 0.715178
0.848112 0.338755 0.715184
0.84806 0.336579 0.715191
0.845164 0.334157 0.716178
0.845112 0.331986 0.716185
0.84506 0.329815 0.716191
0.845008 0.327644 0.716198
0.844956 0.325472 0.716205
0.844905 0.323301 0.716212
0.844853 0.32113 0.716218
0.844801 0.318958 0.716225
0.844749 0.316787 0.716232
0.844697 0.314616 0.716239
0.844645 0.312444 0.716245
0.844593 0.310273 0.716252
0.844541 0.308102 0.716259
0.842594 0.305813 0.716919
0.842542 0.303645 0.716926
0.84249 0.301477 0.716932
0.842439 0.29931 0.716939
0.842387 0.297142 0.716946
0.842335 0.294974 0.716952
0.842283 0.292806 0.716959
0.842231 0.290638 0.716966
0.839338 0.288336 0.717952
0.839286 0.286174 0.717959
0.839235 0.284011 0.717966
0.839183 0.281849 0.717973
0.839131 0.279686 0.717979
0.837186 0.277452 0.718639
0.837134 0.275293 0.718646
0.837082 0.273134 0.718653
0.837031 0.270975 0.718659
0.836979 0.268815 0.718666
0.838821 0.266711 0.718019
0.838769 0.264548 0.718026
0.838718 0.262386 0.718033
0.838666 0.260223 0.71804
0.838614 0.258061 0.718046
0.838562 0.255898 0.718053
0.838511 0.253736 0.71806
0.838459 0.251573 0.718066
0.838407 0.249411 0.718073
0.838356 0.247248 0.71808
0.841143 0.245115 0.717107
0.841091 0.242947 0.717114
0.8382 0.240761 0.7181
0.838149 0.238598 0.718107
0.838097 0.236436 0.718113
0.838045 0.234273 0.71812
0.837994 0.23211 0.718127
0.837942 0.229948 0.718133
0.83789 0.227785 0.71814
0.837839 0.225623 0.718147
0.837787 0.22346 0.718154
0.837735 0.221298 0.71816
0.837683 0.219135 0.718167
0.837632 0.216973 0.718174
0.83758 0.21481 0.71818
0.837528 0.212648 0.718187
0.837477 0.210485 0.718194
0.837425 0.208323 0.7182
0.837373 0.20616 0.718207
0.840158 0.203927 0.717235
0.840106 0.201759 0.717241
0.840054 0.199591 0.717248
0.841893 0.197366 0.716602
0.844677 0.195102 0.71563
0.844625 0.192926 0.715636
0.846464 0.190681 0.71499
0.846412 0.188501 0.714997
0.849195 0.186208 0.714025
0.87341 0.440814 0.704632
0.871459 0.438269 0.705296
0.871406 0.436052 0.705303
0.871353 0.433835 0.705309
0.868452 0.431147 0.706302
0.868399 0.428936 0.706309
0.866448 0.426417 0.706973
0.866395 0.424209 0.70698
0.866342 0.422001 0.706987
0.863443 0.419348 0.707979
0.86339 0.417145 0.707986
0.86049 0.414508 0.708979
0.860438 0.41231 0.708986
0.860385 0.410113 0.708992
0.860333 0.407915 0.708999
0.863126 0.406131 0.70802
0.863074 0.403928 0.708027
0.863021 0.401725 0.708034
0.862968 0.399522 0.708041
0.862916 0.397319 0.708048
0.860017 0.394729 0.70904
0.859965 0.392532 0.709047
0.859912 0.390334 0.709054
0.85986 0.388137 0.709061
0.859807 0.385939 0.709067
0.857858 0.383501 0.709731
0.857806 0.381307 0.709738
0.857753 0.379113 0.709745
0.857701 0.376919 0.709752
0.857648 0.374725 0.709758
0.857596 0.37253 0.709765
0.854699 0.370007 0.710757
0.854647 0.367818 0.710764
0.854594 0.36563 0.710771
0.852646 0.363232 0.711435
0.852594 0.361047 0.711441
0.852542 0.358861 0.711448
0.852489 0.356676 0.711455
0.849594 0.354198 0.712447
0.849542 0.352018 0.712454
0.84949 0.349838 0.71246
0.847542 0.347474 0.713124
0.84749 0.345297 0.713131
0.847438 0.343121 0.713138
0.847386 0.340944 0.713144
0.847334 0.338768 0.713151
0.847282 0.336591 0.713158
0.844388 0.33417 0.71415
0.844336 0.331998 0.714156
0.844284 0.329827 0.714163
0.844232 0.327656 0.71417
0.84418 0.325485 0.714177
0.844128 0.323313 0.714183
0.844076 0.321142 0.71419
0.844024 0.318971 0.714197
0.843972 0.316799 0.714203
0.84392 0.314628 0.71421
0.843868 0.312457 0.714217
0.843817 0.310285 0.714224
0.843765 0.308114 0.71423
0.841819 0.305825 0.714894
0.841767 0.303657 0.714901
0.841715 0.30149 0.714907
0.841663 0.299322 0.714914
0.841612 0.297154 0.714921
0.84156 0.294986 0.714927
0.841508 0.292818 0.714934
0.841456 0.290651 0.714941
0.838565 0.288348 0.715932
0.838513 0.286186 0.715939
0.838461 0.284023 0.715946
0.83841 0.281861 0.715952
0.838358 0.279698 0.715959
0.836413 0.277464 0.716622
0.836362 0.275305 0.716629
0.83631 0.273146 0.716636
0.836259 0.270987 0.716642
0.836207 0.268828 0.716649
0.838048 0.266723 0.715999
0.837996 0.264561 0.716006
0.837944 0.262398 0.716013
0.837892 0.260236 0.716019
0.837841 0.258073 0.716026
0.837789 0.255911 0.716033
0.837737 0.253748 0.71604
0.837686 0.251585 0.716046
0.837634 0.249423 0.716053
0.837582 0.24726 0.71606
0.840368 0.245127 0.715082
0.840316 0.242959 0.715089
0.840264 0.240791 0.715095
0.840212 0.238624 0.715102
0.84016 0.236456 0.715109
0.840108 0.234288 0.715116
0.840057 0.23212 0.715122
0.840005 0.229952 0.715129
0.839953 0.227785 0.715136
0.839901 0.225617 0.715142
0.839849 0.223449 0.715149
0.839797 0.221281 0.715156
0.839746 0.219114 0.715163
0.839694 0.216946 0.715169
0.839642 0.214778 0.715176
0.83959 0.21261 0.715183
0.839538 0.210442 0.715189
0.839486 0.208275 0.715196
0.839435 0.206107 0.715203
0.841273 0.203892 0.714553
0.844055 0.201644 0.713576
0.844003 0.199468 0.713583
0.843951 0.197291 0.71359
0.845788 0.195053 0.71294
0.845736 0.192873 0.712947
0.848518 0.190591 0.71197
0.848466 0.188406 0.711976
0.850303 0.186145 0.711327
0.872616 0.440827 0.702557
0.872563 0.438606 0.702564
0.87251 0.436386 0.702571
0.87056 0.433848 0.703239
0.867661 0.43116 0.704236
0.867608 0.428948 0.704243
0.867555 0.426737 0.70425
0.865605 0.424221 0.704917
0.865553 0.422013 0.704924
0.862655 0.41936 0.705922
0.862602 0.417157 0.705928
0.862549 0.414955 0.705935
0.862497 0.412752 0.705942
0.862444 0.410549 0.705949
0.862391 0.408346 0.705956
0.862339 0.406143 0.705963
0.862286 0.40394 0.705969
0.862233 0.401737 0.705976
0.862181 0.399535 0.705983
0.862128 0.397332 0.70599
0.859232 0.394742 0.706987
0.859179 0.392544 0.706994
0.859126 0.390347 0.707001
0.859074 0.388149 0.707008
0.859021 0.385951 0.707014
0.858969 0.383754 0.707021
0.857021 0.381319 0.707688
0.856969 0.379125 0.707695
0.856916 0.376931 0.707702
0.856864 0.374737 0.707709
0.856811 0.372543 0.707715
0.853916 0.37002 0.708713
0.853864 0.367831 0.708719
0.853812 0.365642 0.708726
0.853759 0.363453 0.708733
0.853707 0.361264 0.70874
0.85176 0.358874 0.709407
0.851708 0.356688 0.709413
0.851656 0.354503 0.70942
0.848762 0.352031 0.710417
0.84871 0.349851 0.710424
0.846764 0.347486 0.711091
0.846712 0.34531 0.711098
0.84666 0.343133 0.711104
0.846608 0.340957 0.711111
0.846556 0.33878 0.711118
0.846504 0.336603 0.711124
0.846451 0.334427 0.711131
0.846399 0.33225 0.711138
0.843507 0.329839 0.712135
0.843455 0.327668 0.712141
0.843403 0.325497 0.712148
0.843352 0.323325 0.712155
0.8433 0.321154 0.712162
0.843248 0.318983 0.712168
0.843196 0.316812 0.712175
0.843144 0.31464 0.712182
0.843092 0.312469 0.712189
0.84304 0.310298 0.712195
0.842988 0.308126 0.712202
0.841044 0.305837 0.712869
0.840992 0.30367 0.712875
0.84094 0.301502 0.712882
0.840888 0.299334 0.712889
0.840836 0.297166 0.712896
0.840784 0.294998 0.712902
0.840733 0.292831 0.712909
0.840681 0.290663 0.712916
0.840629 0.288495 0.712922
0.840577 0.286327 0.712929
0.840525 0.28416 0.712936
0.837636 0.281873 0.713932
0.837585 0.279711 0.713939
0.837533 0.277548 0.713946
0.837481 0.275386 0.713952
0.837429 0.273223 0.713959
0.837378 0.27106 0.713966
0.837326 0.268898 0.713972
0.837274 0.266735 0.713979
0.837223 0.264573 0.713986
0.840007 0.262482 0.713003
0.839955 0.260314 0.71301
0.839903 0.258146 0.713017
0.839851 0.255978 0.713023
0.8398 0.25381 0.71303
0.841638 0.251673 0.712377
0.841586 0.249501 0.712384
0.841534 0.24733 0.71239
0.841482 0.245159 0.712397
0.841431 0.242987 0.712404
0.841379 0.240816 0.712411
0.841327 0.238645 0.712417
0.841275 0.236474 0.712424
0.841223 0.234302 0.712431
0.841171 0.232131 0.712438
0.841119 0.22996 0.712444
0.841067 0.227788 0.712451
0.841015 0.225617 0.712458
0.840963 0.223446 0.712465
0.840911 0.221274 0.712471
0.840859 0.219103 0.712478
0.840808 0.216932 0.712485
0.840756 0.214761 0.712491
0.840704 0.212589 0.712498
0.840652 0.210418 0.712505
0.843433 0.208186 0.711523
0.843381 0.20601 0.711529
0.843329 0.203833 0.711536
0.845165 0.201606 0.710883
0.845113 0.199426 0.71089
0.845061 0.197246 0.710897
0.847841 0.194974 0.709915
0.847789 0.192789 0.709921
0.849625 0.190535 0.709269
0.849572 0.188346 0.709276
0.852352 0.186044 0.708294
0.874667 0.441332 0.699487
0.871769 0.438619 0.70049
0.871716 0.436399 0.700497
0.869767 0.433861 0.701168
0.869714 0.431644 0.701174
0.869661 0.429427 0.701181
0.866764 0.426749 0.702184
0.864816 0.424234 0.702854
0.864763 0.422026 0.702861
0.861867 0.419373 0.703864
0.861814 0.41717 0.703871
0.861762 0.414967 0.703877
0.861709 0.412764 0.703884
0.861656 0.410561 0.703891
0.861604 0.408358 0.703898
0.861551 0.406156 0.703905
0.861498 0.403953 0.703912
0.861446 0.40175 0.703918
0.861393 0.399547 0.703925
0.86134 0.397344 0.703932
0.861288 0.395141 0.703939
0.861235 0.392938 0.703946
0.858341 0.390359 0.704948
0.858288 0.388161 0.704955
0.858235 0.385964 0.704961
0.858183 0.383766 0.704968
0.85813 0.381569 0.704975
0.858078 0.379371 0.704982
0.856131 0.376943 0.705652
0.856079 0.374749 0.705659
0.856027 0.372555 0.705666
0.853134 0.370032 0.706668
0.853081 0.367843 0.706675
0.853029 0.365654 0.706681
0.852977 0.363466 0.706688
0.852924 0.361277 0.706695
0.850979 0.358886 0.707365
0.850926 0.356701 0.707372
0.850874 0.354515 0.707379
0.850822 0.35233 0.707386
0.85077 0.350145 0.707392
0.847878 0.347683 0.708394
0.847826 0.345503 0.708401
0.847774 0.343323 0.708408
0.845829 0.340969 0.709078
0.845777 0.338792 0.709084
0.845725 0.336616 0.709091
0.845673 0.334439 0.709098
0.845621 0.332263 0.709105
0.842731 0.329852 0.710106
0.842679 0.32768 0.710113
0.842627 0.325509 0.71012
0.842575 0.323338 0.710127
0.842523 0.321166 0.710133
0.842471 0.318995 0.71014
0.842419 0.316824 0.710147
0.842367 0.314653 0.710154
0.842315 0.312481 0.71016
0.842264 0.31031 0.710167
0.842212 0.308139 0.710174
0.840268 0.30585 0.710844
0.840217 0.303682 0.71085
0.840165 0.301514 0.710857
0.840113 0.299346 0.710864
0.840061 0.297179 0.710871
0.840009 0.295011 0.710877
0.839957 0.292843 0.710884
0.839906 0.290675 0.710891
0.839854 0.288507 0.710897
0.839802 0.28634 0.710904
0.83975 0.284172 0.710911
0.836863 0.281885 0.711912
0.836811 0.279723 0.711919
0.836759 0.27756 0.711925
0.836708 0.275398 0.711932
0.836656 0.273235 0.711939
0.836604 0.271073 0.711946
0.836553 0.26891 0.711952
0.836501 0.266748 0.711959
0.836449 0.264585 0.711966
0.839232 0.262494 0.710978
0.83918 0.260326 0.710985
0.839128 0.258158 0.710991
0.839076 0.25599 0.710998
0.839024 0.253823 0.711005
0.840862 0.251685 0.710349
0.84081 0.249514 0.710355
0.840758 0.247342 0.710362
0.840706 0.245171 0.710369
0.840654 0.243 0.710376
0.840602 0.240828 0.710382
0.84055 0.238657 0.710389
0.840498 0.236486 0.710396
0.840446 0.234315 0.710403
0.840394 0.232143 0.710409
0.840343 0.229972 0.710416
0.840291 0.227801 0.710423
0.840239 0.225629 0.710429
0.840187 0.223458 0.710436
0.840135 0.221287 0.710443
0.840083 0.219115 0.71045
0.840031 0.216944 0.710456
0.839979 0.214773 0.710463
0.839927 0.212602 0.71047
0.839875 0.21043 0.710477
0.842655 0.208199 0.709489
0.842603 0.206022 0.709496
0.84255 0.203846 0.709503
0.844386 0.201618 0.708847
0.844333 0.199438 0.708854
0.844281 0.197258 0.70886
0.84706 0.194986 0.707873
0.847007 0.192801 0.70788
0.848842 0.190547 0.707224
0.84879 0.188359 0.707231
0.851567 0.186057 0.706244
0.873871 0.441344 0.697408
0.870975 0.438632 0.698416
0.870922 0.436411 0.698423
0.868974 0.433873 0.699097
0.868921 0.431656 0.699104
0.868868 0.429439 0.69911
0.865973 0.426762 0.700118
0.864026 0.424246 0.700792
0.863973 0.422038 0.700799
0.861079 0.419385 0.701806
0.861027 0.417182 0.701813
0.860974 0.41498 0.70182
0.860921 0.412777 0.701826
0.860868 0.410574 0.701833
0.860816 0.408371 0.70184
0.860763 0.406168 0.701847
0.86071 0.403965 0.701854
0.860658 0.401762 0.70186
0.860605 0.399559 0.701867
0.860552 0.397357 0.701874
0.8605 0.395154 0.701881
0.860447 0.392951 0.701888
0.857555 0.390371 0.702895
0.857502 0.388174 0.702902
0.85745 0.385976 0.702909
0.857397 0.383779 0.702915
0.857345 0.381581 0.702922
0.857292 0.379383 0.702929
0.855347 0.376956 0.703603
0.855294 0.374762 0.703609
0.855242 0.372568 0.703616
0.852351 0.370044 0.704623
0.852298 0.367856 0.70463
0.852246 0.365667 0.704637
0.852194 0.363478 0.704643
0.852141 0.361289 0.70465
0.850197 0.358898 0.705324
0.850145 0.356713 0.705331
0.850093 0.354528 0.705337
0.85004 0.352342 0.705344
0.849988 0.350157 0.705351
0.847099 0.347695 0.706358
0.847046 0.345515 0.706364
0.846994 0.343335 0.706371
0.845051 0.340981 0.707044
0.844999 0.338805 0.707051
0.844947 0.336628 0.707058
0.844895 0.334451 0.707065
0.844843 0.332275 0.707071
0.844791 0.330098 0.707078
0.844739 0.327922 0.707085
0.844687 0.325745 0.707092
0.841799 0.32335 0.708098
0.841747 0.321179 0.708105
0.841695 0.319007 0.708112
0.841643 0.316836 0.708118
0.841591 0.314665 0.708125
0.841539 0.312494 0.708132
0.841487 0.310322 0.708139
0.841435 0.308151 0.708145
0.841383 0.30598 0.708152
0.841331 0.303808 0.708159
0.841279 0.301637 0.708166
0.841227 0.299466 0.708172
0.841176 0.297294 0.708179
0.841124 0.295123 0.708186
0.839182 0.292855 0.708859
0.83913 0.290687 0.708866
0.839078 0.28852 0.708872
0.839027 0.286352 0.708879
0.838975 0.284184 0.708886
0.838923 0.282016 0.708892
0.838871 0.279848 0.708899
0.838819 0.277681 0.708906
0.838767 0.275513 0.708913
0.838716 0.273345 0.708919
0.838664 0.271177 0.708926
0.838612 0.26901 0.708933
0.83856 0.266842 0.70894
0.838508 0.264674 0.708946
0.840345 0.262554 0.708287
0.840293 0.260382 0.708293
0.840241 0.258211 0.7083
0.840189 0.25604 0.708307
0.840137 0.253868 0.708314
0.840085 0.251697 0.70832
0.842865 0.249566 0.707328
0.842813 0.247389 0.707335
0.842761 0.245213 0.707341
0.842709 0.243036 0.707348
0.842657 0.240859 0.707355
0.842605 0.238683 0.707362
0.84444 0.236512 0.706702
0.844388 0.234332 0.706709
0.844336 0.232152 0.706716
0.844284 0.229972 0.706722
0.844232 0.227791 0.706729
0.844179 0.225611 0.706736
0.844127 0.223431 0.706743
0.844075 0.221251 0.70675
0.844023 0.219071 0.706756
0.843971 0.216891 0.706763
0.843919 0.214711 0.70677
0.843867 0.212531 0.706777
0.843815 0.210351 0.706783
0.843762 0.208171 0.70679
0.84371 0.205991 0.706797
0.846487 0.20374 0.705805
0.846435 0.201555 0.705811
0.846383 0.199369 0.705818
0.84633 0.197184 0.705825
0.848164 0.194937 0.705166
0.848111 0.192749 0.705173
0.850887 0.190457 0.704181
0.850835 0.188263 0.704187
0.852668 0.185994 0.703528
0.855443 0.183678 0.702536
0.873075 0.441357 0.695329
0.870181 0.438644 0.696342
0.870128 0.436424 0.696348
0.868181 0.433886 0.697026
0.868128 0.431669 0.697033
0.868075 0.429452 0.697039
0.865183 0.426774 0.698052
0.86513 0.424563 0.698059
0.865077 0.422351 0.698065
0.863131 0.419843 0.698743
0.863078 0.417635 0.69875
0.860186 0.414992 0.699762
0.860133 0.412789 0.699769
0.860081 0.410586 0.699775
0.860028 0.408383 0.699782
0.862814 0.406594 0.698784
0.862761 0.404386 0.698791
0.85987 0.401775 0.699803
0.859817 0.399572 0.699809
0.859765 0.397369 0.699816
0.859712 0.395166 0.699823
0.859659 0.392963 0.69983
0.859607 0.39076 0.699837
0.856716 0.388186 0.700849
0.856664 0.385989 0.700856
0.856611 0.383791 0.700862
0.856559 0.381593 0.700869
0.856506 0.379396 0.700876
0.856454 0.377198 0.700883
0.856401 0.375001 0.70089
0.854457 0.37258 0.701567
0.854405 0.370386 0.701573
0.854352 0.368192 0.70158
0.851463 0.365679 0.702592
0.851411 0.36349 0.702599
0.851359 0.361301 0.702606
0.851306 0.359113 0.702612
0.851254 0.356924 0.702619
0.849311 0.35454 0.703296
0.849259 0.352355 0.703303
0.849207 0.350169 0.703309
0.849154 0.347984 0.703316
0.846267 0.345527 0.704328
0.846215 0.343347 0.704335
0.846163 0.341167 0.704341
0.84611 0.338987 0.704348
0.844168 0.33664 0.705025
0.844116 0.334464 0.705031
0.844064 0.332287 0.705038
0.844012 0.330111 0.705045
0.84396 0.327934 0.705052
0.843908 0.325758 0.705058
0.843856 0.323581 0.705065
0.843804 0.321404 0.705072
0.843752 0.319228 0.705079
0.8437 0.317051 0.705085
0.843648 0.314875 0.705092
0.843596 0.312698 0.705099
0.840711 0.310335 0.70611
0.840659 0.308163 0.706117
0.840607 0.305992 0.706124
0.840555 0.303821 0.70613
0.840503 0.301649 0.706137
0.840451 0.299478 0.706144
0.840399 0.297307 0.706151
0.840347 0.295135 0.706157
0.840295 0.292964 0.706164
0.840243 0.290793 0.706171
0.840191 0.288622 0.706178
0.840139 0.28645 0.706184
0.840088 0.284279 0.706191
0.840036 0.282108 0.706198
0.839984 0.279936 0.706205
0.839932 0.277765 0.706211
0.83988 0.275594 0.706218
0.839828 0.273422 0.706225
0.839776 0.271251 0.706231
0.839724 0.26908 0.706238
0.842503 0.26699 0.705241
0.842451 0.264814 0.705247
0.842399 0.262637 0.705254
0.842347 0.260461 0.705261
0.842295 0.258284 0.705268
0.842243 0.256108 0.705274
0.842191 0.253931 0.705281
0.842139 0.251755 0.705288
0.843973 0.249604 0.704625
0.843921 0.247424 0.704632
0.843869 0.245244 0.704639
0.843817 0.243064 0.704645
0.843765 0.240884 0.704652
0.843713 0.238704 0.704659
0.84366 0.236524 0.704666
0.843608 0.234344 0.704672
0.843556 0.232164 0.704679
0.843504 0.229984 0.704686
0.84628 0.227791 0.703689
0.846228 0.225606 0.703695
0.846176 0.22342 0.703702
0.846124 0.221235 0.703709
0.846071 0.21905 0.703716
0.846019 0.216864 0.703723
0.845967 0.214679 0.703729
0.845915 0.212494 0.703736
0.845862 0.210308 0.703743
0.847695 0.208083 0.70308
0.847643 0.205894 0.703087
0.84759 0.203705 0.703094
0.847538 0.201516 0.703101
0.847486 0.199328 0.703108
0.847433 0.197139 0.703114
0.850208 0.194858 0.702117
0.850155 0.192664 0.702124
0.851987 0.190402 0.701462
0.851934 0.188204 0.701469
0.854708 0.185894 0.700472
0.857481 0.183573 0.699475
0.872226 0.439144 0.693257
0.872172 0.436918 0.693264
0.869281 0.434216 0.694281
0.867336 0.431681 0.694962
0.867283 0.429464 0.694969
0.86723 0.427247 0.694975
0.864339 0.424575 0.695993
0.864286 0.422363 0.695999
0.862341 0.419855 0.69668
0.862288 0.417647 0.696687
0.859398 0.415004 0.697704
0.859346 0.412802 0.697711
0.859293 0.410599 0.697718
0.85924 0.408396 0.697724
0.862024 0.406606 0.696721
0.861972 0.404398 0.696728
0.859082 0.401787 0.697745
0.85903 0.399584 0.697752
0.858977 0.397382 0.697758
0.858924 0.395179 0.697765
0.858872 0.392976 0.697772
0.858819 0.390773 0.697779
0.85593 0.388199 0.698796
0.855878 0.386001 0.698803
0.855825 0.383804 0.69881
0.855773 0.381606 0.698816
0.85572 0.379408 0.698823
0.855668 0.377211 0.69883
0.855615 0.375013 0.698837
0.853673 0.372593 0.699517
0.85362 0.370398 0.699524
0.853568 0.368204 0.69953
0.850681 0.365692 0.700547
0.850628 0.363503 0.700554
0.850576 0.361314 0.700561
0.850524 0.359125 0.700568
0.850471 0.356936 0.700574
0.84853 0.354552 0.701254
0.848477 0.352367 0.701261
0.848425 0.350182 0.701268
0.848373 0.347996 0.701275
0.845487 0.34554 0.702291
0.845435 0.34336 0.702298
0.845383 0.34118 0.702305
0.845331 0.339 0.702312
0.84339 0.336653 0.702991
0.843338 0.334476 0.702998
0.843286 0.3323 0.703005
0.843234 0.330123 0.703012
0.843182 0.327946 0.703018
0.84313 0.32577 0.703025
0.843078 0.323593 0.703032
0.843026 0.321417 0.703039
0.842974 0.31924 0.703045
0.842922 0.317064 0.703052
0.84287 0.314887 0.703059
0.842818 0.312711 0.703066
0.839934 0.310347 0.704082
0.839882 0.308176 0.704089
0.83983 0.306004 0.704095
0.839778 0.303833 0.704102
0.839726 0.301662 0.704109
0.839674 0.29949 0.704116
0.839623 0.297319 0.704122
0.839571 0.295148 0.704129
0.839519 0.292976 0.704136
0.839467 0.290805 0.704143
0.839415 0.288634 0.704149
0.839363 0.286463 0.704156
0.839311 0.284291 0.704163
0.839259 0.28212 0.704169
0.839207 0.279949 0.704176
0.839155 0.277777 0.704183
0.839103 0.275606 0.70419
0.839051 0.273435 0.704196
0.839 0.271263 0.704203
0.838948 0.269092 0.70421
0.841725 0.267003 0.703207
0.841673 0.264826 0.703214
0.841621 0.26265 0.703221
0.841569 0.260473 0.703228
0.841516 0.258297 0.703234
0.841464 0.25612 0.703241
0.841412 0.253943 0.703248
0.84136 0.251767 0.703255
0.843194 0.249617 0.702589
0.843141 0.247437 0.702595
0.843089 0.245257 0.702602
0.843037 0.243077 0.702609
0.842985 0.240897 0.702616
0.842933 0.238716 0.702622
0.842881 0.236536 0.702629
0.842829 0.234356 0.702636
0.842777 0.232176 0.702643
0.842724 0.229996 0.702649
0.845499 0.227803 0.701647
0.845447 0.225618 0.701654
0.845394 0.223433 0.701661
0.845342 0.221247 0.701668
0.84529 0.219062 0.701674
0.845238 0.216877 0.701681
0.845185 0.214691 0.701688
0.845133 0.212506 0.701695
0.845081 0.210321 0.701701
0.846912 0.208095 0.701036
0.84686 0.205906 0.701042
0.846808 0.203718 0.701049
0.846755 0.201529 0.701056
0.846703 0.19934 0.701063
0.846651 0.197151 0.70107
0.849423 0.19487 0.700068
0.849371 0.192676 0.700075
0.851201 0.190414 0.699409
0.851149 0.188217 0.699416
0.85392 0.185906 0.698414
0.856692 0.183585 0.697412
0.868593 0.438669 0.692193
0.86854 0.436449 0.6922
0.868487 0.434228 0.692207
0.866543 0.431694 0.692891
0.86649 0.429477 0.692898
0.866437 0.42726 0.692904
0.863548 0.424588 0.693927
0.863495 0.422376 0.693933
0.861551 0.419868 0.694617
0.861499 0.41766 0.694624
0.861446 0.415451 0.694631
0.858558 0.412814 0.695653
0.858505 0.410611 0.69566
0.858452 0.408408 0.695667
0.861235 0.406619 0.694658
0.861182 0.404411 0.694665
0.861129 0.402203 0.694672
0.861076 0.399994 0.694679
0.858189 0.397394 0.695701
0.858136 0.395191 0.695707
0.858084 0.392988 0.695714
0.858031 0.390785 0.695721
0.857978 0.388583 0.695728
0.857926 0.38638 0.695735
0.855039 0.383816 0.696757
0.854987 0.381618 0.696763
0.854934 0.379421 0.69677
0.854882 0.377223 0.696777
0.854829 0.375026 0.696784
0.854777 0.372828 0.696791
0.854724 0.37063 0.696797
0.854672 0.368433 0.696804
0.852731 0.366023 0.697488
0.852678 0.363829 0.697494
0.852626 0.361634 0.697501
0.849741 0.359137 0.698523
0.849688 0.356949 0.69853
0.849636 0.35476 0.698536
0.847696 0.352379 0.69922
0.847644 0.350194 0.699226
0.847591 0.348009 0.699233
0.847539 0.345823 0.69924
0.847487 0.343638 0.699247
0.847435 0.341453 0.699254
0.847382 0.339268 0.69926
0.844499 0.336832 0.700282
0.844447 0.334652 0.700289
0.844395 0.332472 0.700295
0.842456 0.330135 0.700978
0.842403 0.327959 0.700985
0.842351 0.325782 0.700992
0.842299 0.323606 0.700999
0.842247 0.321429 0.701005
0.842195 0.319252 0.701012
0.842143 0.317076 0.701019
0.842091 0.314899 0.701026
0.842039 0.312723 0.701032
0.841987 0.310546 0.701039
0.841935 0.30837 0.701046
0.841883 0.306193 0.701053
0.841831 0.304017 0.701059
0.841779 0.30184 0.701066
0.841727 0.299663 0.701073
0.841675 0.297487 0.70108
0.841623 0.29531 0.701086
0.841571 0.293134 0.701093
0.841519 0.290957 0.7011
0.841467 0.288781 0.701107
0.841415 0.286604 0.701113
0.841363 0.284428 0.70112
0.841311 0.282251 0.701127
0.841259 0.280074 0.701134
0.841206 0.277898 0.70114
0.841154 0.275721 0.701147
0.841102 0.273545 0.701154
0.84105 0.271368 0.701161
0.842883 0.26925 0.700491
0.842831 0.26707 0.700498
0.842779 0.26489 0.700505
0.842727 0.26271 0.700512
0.842675 0.260529 0.700518
0.842622 0.258349 0.700525
0.84257 0.256169 0.700532
0.845344 0.25404 0.699525
0.845292 0.251854 0.699531
0.84524 0.249669 0.699538
0.845188 0.247484 0.699545
0.845135 0.245298 0.699552
0.845083 0.243113 0.699558
0.845031 0.240928 0.699565
0.844979 0.238742 0.699572
0.844926 0.236557 0.699579
0.844874 0.234372 0.699585
0.846705 0.232185 0.698916
0.846653 0.229996 0.698923
0.846601 0.227807 0.69893
0.846548 0.225618 0.698937
0.846496 0.223429 0.698943
0.846444 0.221241 0.69895
0.846391 0.219052 0.698957
0.846339 0.216863 0.698964
0.846287 0.214674 0.698971
0.846234 0.212485 0.698977
0.846182 0.210296 0.698984
0.84613 0.208108 0.698991
0.846077 0.205919 0.698998
0.848848 0.203659 0.697991
0.848796 0.201465 0.697998
0.848743 0.199271 0.698004
0.848691 0.197077 0.698011
0.85052 0.194822 0.697342
0.850468 0.192624 0.697349
0.850415 0.190427 0.697356
0.850363 0.188229 0.697363
0.853133 0.185919 0.696356
0.857784 0.183519 0.694674
0.867799 0.438682 0.690119
0.867746 0.436461 0.690126
0.867693 0.434241 0.690133
0.86575 0.431706 0.69082
0.865697 0.429489 0.690827
0.865644 0.427273 0.690833
0.862757 0.4246 0.691861
0.862704 0.422388 0.691867
0.862651 0.420177 0.691874
0.862598 0.417965 0.691881
0.860656 0.415464 0.692568
0.860603 0.413256 0.692575
0.860551 0.411048 0.692582
0.860498 0.408839 0.692589
0.860445 0.406631 0.692595
0.860392 0.404423 0.692602
0.860339 0.402215 0.692609
0.860287 0.400007 0.692616
0.860234 0.397799 0.692623
0.860181 0.395591 0.69263
0.860128 0.393383 0.692637
0.860075 0.391174 0.692643
0.860023 0.388966 0.69265
0.85997 0.386758 0.692657
0.857085 0.384189 0.693684
0.857033 0.381986 0.693691
0.85698 0.379783 0.693697
0.854096 0.377236 0.694724
0.854043 0.375038 0.694731
0.853991 0.37284 0.694738
0.853938 0.370643 0.694745
0.853886 0.368445 0.694751
0.853833 0.366248 0.694758
0.851893 0.363841 0.695445
0.851841 0.361647 0.695452
0.851789 0.359453 0.695458
0.851736 0.357259 0.695465
0.848853 0.354772 0.696492
0.848801 0.352583 0.696498
0.848749 0.350394 0.696505
0.84681 0.348021 0.697192
0.846758 0.345836 0.697199
0.846705 0.343651 0.697205
0.846653 0.341465 0.697212
0.846601 0.33928 0.697219
0.846549 0.337095 0.697226
0.846496 0.334909 0.697232
0.846444 0.332724 0.697239
0.843563 0.330304 0.698266
0.843511 0.328124 0.698272
0.843459 0.325944 0.698279
0.843407 0.323764 0.698286
0.841469 0.321441 0.698972
0.841417 0.319265 0.698979
0.841365 0.317088 0.698986
0.841313 0.314912 0.698992
0.841261 0.312735 0.698999
0.841209 0.310559 0.699006
0.841157 0.308382 0.699013
0.841105 0.306205 0.699019
0.841053 0.304029 0.699026
0.841001 0.301852 0.699033
0.840949 0.299676 0.69904
0.840897 0.297499 0.699046
0.840844 0.295323 0.699053
0.840792 0.293146 0.69906
0.842625 0.291063 0.698387
0.842573 0.288883 0.698394
0.84252 0.286703 0.698401
0.842468 0.284523 0.698407
0.842416 0.282342 0.698414
0.842364 0.280162 0.698421
0.842312 0.277982 0.698428
0.84226 0.275802 0.698434
0.845033 0.27372 0.697422
0.844981 0.271535 0.697429
0.844929 0.269349 0.697436
0.844876 0.267164 0.697442
0.844824 0.264979 0.697449
0.844772 0.262793 0.697456
0.84472 0.260608 0.697463
0.844667 0.258423 0.69747
0.846498 0.256274 0.696797
0.846446 0.254086 0.696804
0.846394 0.251897 0.696811
0.846341 0.249708 0.696817
0.846289 0.247519 0.696824
0.846237 0.24533 0.696831
0.846184 0.243141 0.696838
0.846132 0.240953 0.696844
0.848903 0.238777 0.695832
0.848851 0.236583 0.695839
0.848798 0.234389 0.695846
0.848746 0.232195 0.695853
0.848693 0.230001 0.69586
0.848641 0.227807 0.695866
0.848588 0.225613 0.695873
0.848536 0.223419 0.69588
0.848483 0.221224 0.695887
0.848431 0.21903 0.695894
0.848378 0.216836 0.6959
0.848326 0.214642 0.695907
0.848273 0.212448 0.695914
0.848221 0.210254 0.695921
0.848169 0.20806 0.695928
0.848116 0.205866 0.695934
0.849945 0.203625 0.695262
0.849892 0.201427 0.695269
0.847959 0.199284 0.695955
0.847906 0.197089 0.695962
0.849734 0.194834 0.695289
0.849682 0.192637 0.695296
0.849629 0.190439 0.695303
0.849577 0.188241 0.69531
0.852345 0.185931 0.694298
0.856993 0.183532 0.692608
0.867005 0.438694 0.688045
0.866952 0.436474 0.688052
0.866899 0.434254 0.688058
0.864957 0.431719 0.688749
0.864904 0.429502 0.688756
0.864851 0.427285 0.688763
0.861966 0.424613 0.689795
0.861913 0.422401 0.689801
0.86186 0.420189 0.689808
0.861807 0.417978 0.689815
0.859867 0.415476 0.690505
0.859814 0.413268 0.690512
0.859761 0.41106 0.690519
0.859708 0.408852 0.690526
0.859655 0.406644 0.690533
0.859603 0.404436 0.69054
0.85955 0.402228 0.690546
0.859497 0.400019 0.690553
0.859444 0.397811 0.69056
0.859391 0.395603 0.690567
0.859339 0.393395 0.690574
0.859286 0.391187 0.690581
0.859233 0.388979 0.690587
0.85918 0.386771 0.690594
0.856298 0.384202 0.691626
0.856245 0.381999 0.691633
0.856192 0.379796 0.69164
0.85331 0.377248 0.692671
0.853257 0.37505 0.692678
0.853205 0.372853 0.692685
0.853152 0.370655 0.692692
0.8531 0.368458 0.692698
0.853047 0.36626 0.692705
0.851109 0.363853 0.693395
0.851056 0.361659 0.693402
0.851004 0.359465 0.693409
0.850951 0.357271 0.693416
0.848071 0.354784 0.694447
0.848018 0.352596 0.694454
0.847966 0.350407 0.694461
0.846028 0.348034 0.69515
0.845976 0.345848 0.695157
0.845924 0.343663 0.695164
0.845872 0.341478 0.695171
0.845819 0.339292 0.695177
0.845767 0.337107 0.695184
0.845715 0.334922 0.695191
0.845663 0.332736 0.695198
0.842783 0.330316 0.696229
0.842731 0.328136 0.696236
0.842679 0.325956 0.696242
0.842627 0.323776 0.696249
0.840691 0.321454 0.696939
0.840639 0.319277 0.696946
0.840587 0.317101 0.696952
0.840534 0.314924 0.696959
0.840482 0.312747 0.696966
0.84043 0.310571 0.696973
0.840378 0.308394 0.696979
0.840326 0.306218 0.696986
0.840274 0.304041 0.696993
0.840222 0.301865 0.697
0.84017 0.299688 0.697006
0.840118 0.297512 0.697013
0.840066 0.295335 0.69702
0.840014 0.293158 0.697027
0.841845 0.291075 0.696351
0.841793 0.288895 0.696357
0.841741 0.286715 0.696364
0.841689 0.284535 0.696371
0.841637 0.282355 0.696378
0.841584 0.280175 0.696384
0.841532 0.277995 0.696391
0.84148 0.275815 0.696398
0.844252 0.273732 0.695381
0.844199 0.271547 0.695387
0.844147 0.269362 0.695394
0.844095 0.267176 0.695401
0.844043 0.264991 0.695408
0.84399 0.262806 0.695415
0.843938 0.26062 0.695421
0.843886 0.258435 0.695428
0.845715 0.256287 0.694752
0.845663 0.254098 0.694759
0.845611 0.251909 0.694766
0.845558 0.24972 0.694773
0.845506 0.247531 0.694779
0.845454 0.245343 0.694786
0.845401 0.243154 0.694793
0.845349 0.240965 0.6948
0.848118 0.23879 0.693783
0.848066 0.236596 0.69379
0.848013 0.234401 0.693796
0.847961 0.232207 0.693803
0.847909 0.230013 0.69381
0.847856 0.227819 0.693817
0.847804 0.225625 0.693824
0.847751 0.223431 0.69383
0.847699 0.221237 0.693837
0.847646 0.219043 0.693844
0.847594 0.216849 0.693851
0.847541 0.214655 0.693858
0.847489 0.212461 0.693864
0.847436 0.210266 0.693871
0.847384 0.208072 0.693878
0.847331 0.205878 0.693885
0.849159 0.203637 0.693209
0.849106 0.201439 0.693216
0.849054 0.199242 0.693223
0.849001 0.197044 0.69323
0.848949 0.194847 0.693237
0.848896 0.192649 0.693243
0.851662 0.190349 0.692227
0.85161 0.188146 0.692234
0.854376 0.185831 0.691217
0.856202 0.183544 0.690542
0.869042 0.439194 0.68494
0.868989 0.436968 0.684947
0.866105 0.434266 0.685984
0.866052 0.432046 0.685991
0.865998 0.429825 0.685998
0.864058 0.427298 0.686692
0.864005 0.425081 0.686698
0.863952 0.422864 0.686705
0.861069 0.420202 0.687742
0.861016 0.41799 0.687749
0.859077 0.415489 0.688443
0.859024 0.413281 0.688449
0.858971 0.411073 0.688456
0.858918 0.408864 0.688463
0.858866 0.406656 0.68847
0.858813 0.404448 0.688477
0.85876 0.40224 0.688484
0.858707 0.400032 0.68849
0.858654 0.397824 0.688497
0.858602 0.395616 0.688504
0.858549 0.393408 0.688511
0.858496 0.391199 0.688518
0.858443 0.388991 0.688525
0.858391 0.386783 0.688532
0.858338 0.384575 0.688538
0.855457 0.382011 0.689575
0.855404 0.379808 0.689582
0.855352 0.377606 0.689589
0.855299 0.375403 0.689595
0.855246 0.3732 0.689602
0.855194 0.370997 0.689609
0.855141 0.368794 0.689616
0.852261 0.366272 0.690652
0.852209 0.364075 0.690659
0.852156 0.361877 0.690666
0.850219 0.359478 0.691359
0.850167 0.357283 0.691366
0.850114 0.355089 0.691373
0.850062 0.352895 0.69138
0.850009 0.350701 0.691386
0.847131 0.34823 0.692423
0.847079 0.346042 0.692429
0.847026 0.343853 0.692436
0.84509 0.34149 0.693129
0.845038 0.339305 0.693136
0.844986 0.337119 0.693143
0.844933 0.334934 0.69315
0.844881 0.332749 0.693156
0.844829 0.330563 0.693163
0.844777 0.328378 0.69317
0.844724 0.326193 0.693177
0.841847 0.323788 0.694213
0.841795 0.321608 0.694219
0.841743 0.319428 0.694226
0.841691 0.317248 0.694233
0.841639 0.315068 0.69424
0.841587 0.312888 0.694246
0.839652 0.310583 0.694939
0.8396 0.308407 0.694946
0.839548 0.30623 0.694953
0.839496 0.304054 0.69496
0.839444 0.301877 0.694966
0.839392 0.2997 0.694973
0.841222 0.297628 0.694294
0.84117 0.295448 0.694301
0.841118 0.293267 0.694307
0.841065 0.291087 0.694314
0.841013 0.288907 0.694321
0.840961 0.286727 0.694328
0.843731 0.284671 0.693305
0.843679 0.282486 0.693312
0.843627 0.280301 0.693319
0.843575 0.278115 0.693326
0.843522 0.27593 0.693332
0.84347 0.273745 0.693339
0.843418 0.271559 0.693346
0.845247 0.269432 0.692667
0.845194 0.267243 0.692674
0.845142 0.265055 0.69268
0.84509 0.262866 0.692687
0.847858 0.260743 0.691665
0.847806 0.258549 0.691672
0.847753 0.256355 0.691679
0.847701 0.254161 0.691686
0.847649 0.251967 0.691692
0.847596 0.249773 0.691699
0.847544 0.247579 0.691706
0.847491 0.245384 0.691713
0.849319 0.243206 0.691034
0.849266 0.241009 0.691041
0.849214 0.238811 0.691047
0.849161 0.236614 0.691054
0.849108 0.234416 0.691061
0.849056 0.232218 0.691068
0.849003 0.230021 0.691075
0.848951 0.227823 0.691081
0.848898 0.225626 0.691088
0.848846 0.223428 0.691095
0.846914 0.221249 0.691788
0.846862 0.219055 0.691794
0.846809 0.216861 0.691801
0.848636 0.214638 0.691122
0.848583 0.21244 0.691129
0.84853 0.210242 0.691136
0.848478 0.208045 0.691143
0.848425 0.205847 0.69115
0.851191 0.203579 0.690128
0.851138 0.201376 0.690135
0.851085 0.199173 0.690142
0.851033 0.19697 0.690148
0.85098 0.194767 0.690155
0.850927 0.192565 0.690162
0.853691 0.19026 0.689141
0.855517 0.18798 0.688462
0.855464 0.185768 0.688469
0.855411 0.183557 0.688476
0.868246 0.439207 0.682861
0.868193 0.436981 0.682868
0.86814 0.434755 0.682875
0.865257 0.432058 0.683917
0.865204 0.429838 0.683924
0.863266 0.42731 0.684621
0.863213 0.425093 0.684628
0.86316 0.422876 0.684634
0.863107 0.420659 0.684641
0.863054 0.418443 0.684648
0.860173 0.415791 0.68569
0.858234 0.413293 0.686387
0.858182 0.411085 0.686394
0.858129 0.408877 0.6864
0.859961 0.406945 0.685717
0.859908 0.404733 0.685724
0.859855 0.402521 0.685731
0.859802 0.40031 0.685738
0.85975 0.398098 0.685745
0.859697 0.395886 0.685752
0.859644 0.393675 0.685758
0.857706 0.391212 0.686455
0.857654 0.389004 0.686462
0.857601 0.386796 0.686469
0.857548 0.384588 0.686476
0.857495 0.382379 0.686482
0.857442 0.380171 0.686489
0.854564 0.377618 0.687531
0.854511 0.375415 0.687538
0.854459 0.373212 0.687544
0.854406 0.371009 0.687551
0.854353 0.368807 0.687558
0.854301 0.366604 0.687565
0.854248 0.364401 0.687572
0.854195 0.362198 0.687579
0.851318 0.359692 0.68862
0.851265 0.357494 0.688627
0.851213 0.355297 0.688633
0.849277 0.352908 0.68933
0.849225 0.350714 0.689337
0.849172 0.348519 0.689343
0.846296 0.346054 0.690385
0.846243 0.343865 0.690391
0.846191 0.341676 0.690398
0.846139 0.339487 0.690405
0.846086 0.337299 0.690412
0.844152 0.334946 0.691108
0.8441 0.332761 0.691115
0.844047 0.330576 0.691122
0.843995 0.32839 0.691128
0.843943 0.326205 0.691135
0.843891 0.32402 0.691142
0.843838 0.321834 0.691149
0.843786 0.319649 0.691155
0.843734 0.317464 0.691162
0.843682 0.315278 0.691169
0.840807 0.3129 0.69221
0.840755 0.31072 0.692217
0.840703 0.30854 0.692223
0.840651 0.30636 0.69223
0.840599 0.30418 0.692237
0.840546 0.302 0.692244
0.840494 0.29982 0.69225
0.840442 0.29764 0.692257
0.84039 0.29546 0.692264
0.840338 0.29328 0.692271
0.843107 0.29124 0.691244
0.843054 0.289054 0.69125
0.843002 0.286869 0.691257
0.84295 0.284684 0.691264
0.842898 0.282498 0.691271
0.842845 0.280313 0.691277
0.842793 0.278128 0.691284
0.842741 0.275942 0.691291
0.842689 0.273757 0.691298
0.842636 0.271572 0.691305
0.844464 0.269445 0.690622
0.844412 0.267256 0.690629
0.844359 0.265067 0.690636
0.844307 0.262878 0.690642
0.847074 0.260756 0.689615
0.847021 0.258561 0.689622
0.846969 0.256367 0.689629
0.846916 0.254173 0.689636
0.846864 0.251979 0.689643
0.846811 0.249785 0.689649
0.846759 0.247591 0.689656
0.846707 0.245397 0.689663
0.848533 0.243219 0.688981
0.84848 0.241021 0.688988
0.848428 0.238824 0.688994
0.848375 0.236626 0.689001
0.848323 0.234428 0.689008
0.84827 0.232231 0.689015
0.848217 0.230033 0.689022
0.848165 0.227836 0.689029
0.848112 0.225638 0.689035
0.84806 0.22344 0.689042
0.846129 0.221262 0.689738
0.846077 0.219068 0.689745
0.846024 0.216874 0.689751
0.84785 0.21465 0.689069
0.847797 0.212452 0.689076
0.847745 0.210255 0.689083
0.847692 0.208057 0.68909
0.847639 0.20586 0.689097
0.850403 0.203591 0.68807
0.85035 0.201389 0.688077
0.850297 0.199186 0.688084
0.850245 0.196983 0.688091
0.850192 0.19478 0.688097
0.850139 0.192577 0.688104
0.852902 0.190272 0.687078
0.854726 0.187992 0.686396
0.854673 0.185781 0.686403
0.85462 0.183569 0.68641
0.867397 0.436994 0.680789
0.867344 0.434768 0.680796
0.864463 0.432071 0.681843
0.86441 0.42985 0.68185
0.862473 0.427323 0.68255
0.86242 0.425106 0.682557
0.862367 0.422889 0.682563
0.862314 0.420672 0.68257
0.862261 0.418455 0.682577
0.859382 0.415804 0.683624
0.857445 0.413306 0.684324
0.857392 0.411098 0.684331
0.857339 0.408889 0.684338
0.85917 0.406957 0.683651
0.859117 0.404745 0.683658
0.859064 0.402534 0.683665
0.859012 0.400322 0.683672
0.858959 0.39811 0.683679
0.858906 0.395899 0.683686
0.858853 0.393687 0.683692
0.856917 0.391224 0.684392
0.856864 0.389016 0.684399
0.856811 0.386808 0.684406
0.856758 0.3846 0.684413
0.856706 0.382392 0.68442
0.856653 0.380184 0.684427
0.853776 0.37763 0.685473
0.853723 0.375428 0.68548
0.853671 0.373225 0.685487
0.853618 0.371022 0.685493
0.853565 0.368819 0.6855
0.853513 0.366616 0.685507
0.85346 0.364413 0.685514
0.853407 0.36221 0.685521
0.850532 0.359704 0.686567
0.850479 0.357507 0.686574
0.850427 0.355309 0.686581
0.848493 0.35292 0.68728
0.84844 0.350726 0.687287
0.848388 0.348532 0.687294
0.845513 0.346066 0.68834
0.845461 0.343877 0.688347
0.845408 0.341689 0.688353
0.845356 0.3395 0.68836
0.845304 0.337311 0.688367
0.84337 0.334959 0.689067
0.843318 0.332773 0.689073
0.843266 0.330588 0.68908
0.843214 0.328403 0.689087
0.843161 0.326217 0.689094
0.843109 0.324032 0.6891
0.843057 0.321847 0.689107
0.843005 0.319661 0.689114
0.842952 0.317476 0.689121
0.8429 0.315291 0.689128
0.840027 0.312913 0.690173
0.839975 0.310733 0.69018
0.839923 0.308553 0.690187
0.839871 0.306373 0.690194
0.839819 0.304192 0.6902
0.839767 0.302012 0.690207
0.839715 0.299832 0.690214
0.839663 0.297652 0.690221
0.83961 0.295472 0.690227
0.839558 0.293292 0.690234
0.842325 0.291252 0.689202
0.842273 0.289067 0.689209
0.842221 0.286881 0.689216
0.844048 0.284779 0.68853
0.843995 0.28259 0.688537
0.843943 0.280401 0.688543
0.843891 0.278212 0.68855
0.843838 0.276023 0.688557
0.843786 0.273835 0.688564
0.843734 0.271646 0.688571
0.846499 0.269544 0.687539
0.846446 0.26735 0.687545
0.846394 0.265156 0.687552
0.846342 0.262962 0.687559
0.848167 0.260812 0.686873
0.848115 0.258615 0.68688
0.848062 0.256417 0.686887
0.84801 0.254219 0.686894
0.847957 0.252022 0.686901
0.847905 0.249824 0.686907
0.847852 0.247626 0.686914
0.847799 0.245429 0.686921
0.850563 0.243255 0.685889
0.85051 0.241053 0.685896
0.847642 0.238836 0.686942
0.847589 0.236638 0.686948
0.847537 0.234441 0.686955
0.847484 0.232243 0.686962
0.847432 0.230046 0.686969
0.847379 0.227848 0.686976
0.850142 0.225633 0.685944
0.850089 0.22343 0.685951
0.850036 0.221227 0.685958
0.849984 0.219024 0.685964
0.849931 0.216821 0.685971
0.849878 0.214618 0.685978
0.849826 0.212415 0.685985
0.849773 0.210212 0.685992
0.84972 0.20801 0.685999
0.849668 0.205807 0.686005
0.849615 0.203604 0.686012
0.849562 0.201401 0.686019
0.84951 0.199198 0.686026
0.852271 0.196909 0.684995
0.852218 0.194701 0.685001
0.852165 0.192493 0.685008
0.853988 0.190217 0.684323
0.853935 0.188005 0.68433
0.853882 0.185793 0.684337
0.856642 0.183464 0.683306
0.866601 0.437006 0.67871
0.866548 0.43478 0.678717
0.863669 0.432083 0.679768
0.863616 0.429863 0.679775
0.863563 0.427643 0.679782
0.861627 0.425118 0.680486
0.861574 0.422901 0.680492
0.861521 0.420685 0.680499
0.861468 0.418468 0.680506
0.861415 0.416251 0.680513
0.858538 0.413604 0.681565
0.858485 0.411393 0.681572
0.858432 0.409181 0.681578
0.858379 0.40697 0.681585
0.858326 0.404758 0.681592
0.858273 0.402546 0.681599
0.858221 0.400335 0.681606
0.860991 0.398516 0.680568
0.858115 0.395911 0.68162
0.858062 0.3937 0.681626
0.858009 0.391488 0.681633
0.857956 0.389276 0.68164
0.857903 0.387065 0.681647
0.85785 0.384853 0.681654
0.857798 0.382642 0.681661
0.857745 0.38043 0.681667
0.85581 0.377988 0.682371
0.855758 0.37578 0.682378
0.855705 0.373572 0.682384
0.855652 0.371364 0.682391
0.855599 0.369156 0.682398
0.852725 0.366629 0.683449
0.852672 0.364426 0.683456
0.85262 0.362223 0.683463
0.852567 0.36002 0.68347
0.852514 0.357817 0.683477
0.849641 0.355322 0.684528
0.849588 0.353124 0.684534
0.849536 0.350926 0.684541
0.847603 0.348544 0.685244
0.847551 0.34635 0.685251
0.847498 0.344156 0.685258
0.847446 0.341962 0.685265
0.844573 0.339512 0.686316
0.844521 0.337323 0.686322
0.844469 0.335134 0.686329
0.844416 0.332946 0.686336
0.844364 0.330757 0.686343
0.842432 0.328415 0.687045
0.84238 0.32623 0.687052
0.842328 0.324044 0.687059
0.842275 0.321859 0.687066
0.842223 0.319674 0.687073
0.842171 0.317488 0.687079
0.842119 0.315303 0.687086
0.842066 0.313118 0.687093
0.842014 0.310932 0.6871
0.841962 0.308747 0.687106
0.841909 0.306562 0.687113
0.841857 0.304376 0.68712
0.841805 0.302191 0.687127
0.841753 0.300006 0.687134
0.8417 0.29782 0.68714
0.841648 0.295635 0.687147
0.841596 0.29345 0.687154
0.841544 0.291264 0.687161
0.841491 0.289079 0.687167
0.843317 0.28698 0.686478
0.843265 0.284791 0.686485
0.843212 0.282602 0.686492
0.845977 0.280527 0.685455
0.845924 0.278333 0.685462
0.845872 0.276139 0.685469
0.847697 0.27401 0.68478
0.847644 0.271813 0.684786
0.847592 0.269615 0.684793
0.847539 0.267417 0.6848
0.847486 0.26522 0.684807
0.847434 0.263022 0.684814
0.850197 0.260891 0.683777
0.850144 0.258688 0.683784
0.850091 0.256485 0.683791
0.850039 0.254282 0.683797
0.849986 0.252079 0.683804
0.849933 0.249877 0.683811
0.849881 0.247674 0.683818
0.849828 0.245471 0.683825
0.849775 0.243268 0.683832
0.849723 0.241065 0.683838
0.84967 0.238862 0.683845
0.852431 0.236668 0.682809
0.852378 0.23446 0.682816
0.852326 0.232252 0.682822
0.852273 0.230043 0.682829
0.85222 0.227835 0.682836
0.852167 0.225627 0.682843
0.849301 0.223442 0.683893
0.849249 0.221239 0.6839
0.849196 0.219036 0.683907
0.849143 0.216834 0.683913
0.849091 0.214631 0.68392
0.849038 0.212428 0.683927
0.848985 0.210225 0.683934
0.848933 0.208022 0.683941
0.84888 0.205819 0.683948
0.851639 0.203546 0.682911
0.851586 0.201338 0.682918
0.851534 0.19913 0.682925
0.853355 0.196864 0.682236
0.853303 0.194652 0.682243
0.85325 0.192441 0.68225
0.853197 0.190229 0.682257
0.853144 0.188017 0.682264
0.853091 0.185806 0.682271
0.855849 0.183476 0.681235
0.855796 0.181259 0.681241
0.868628 0.437501 0.675581
0.868575 0.43527 0.675588
0.862875 0.432096 0.677694
0.862822 0.429875 0.677701
0.862769 0.427655 0.677708
0.862716 0.425435 0.677715
0.862663 0.423214 0.677722
0.86261 0.420994 0.677729
0.862557 0.418773 0.677736
0.860622 0.416263 0.678442
0.860569 0.414046 0.678449
0.860516 0.411829 0.678456
0.860463 0.409613 0.678463
0.86041 0.407396 0.67847
0.860357 0.405179 0.678477
0.860304 0.402962 0.678483
0.860251 0.400745 0.67849
0.860198 0.398528 0.678497
0.860145 0.396311 0.678504
0.860092 0.394094 0.678511
0.860039 0.391877 0.678518
0.859986 0.38966 0.678525
0.859933 0.387444 0.678531
0.85988 0.385227 0.678538
0.857007 0.382654 0.679595
0.856954 0.380442 0.679601
0.855021 0.378001 0.680308
0.854968 0.375792 0.680315
0.854915 0.373584 0.680322
0.854862 0.371376 0.680328
0.854809 0.369168 0.680335
0.851937 0.366641 0.681391
0.851885 0.364438 0.681398
0.851832 0.362235 0.681405
0.851779 0.360032 0.681412
0.851727 0.35783 0.681419
0.848855 0.355334 0.682475
0.848802 0.353136 0.682481
0.84875 0.350939 0.682488
0.846818 0.348557 0.683195
0.846766 0.346363 0.683201
0.846713 0.344169 0.683208
0.846661 0.341974 0.683215
0.84379 0.339525 0.684271
0.843738 0.337336 0.684278
0.843686 0.335147 0.684284
0.843633 0.332958 0.684291
0.843581 0.330769 0.684298
0.841651 0.328427 0.685004
0.841598 0.326242 0.685011
0.841546 0.324057 0.685018
0.841494 0.321871 0.685024
0.841442 0.319686 0.685031
0.841389 0.317501 0.685038
0.841337 0.315315 0.685045
0.841285 0.31313 0.685051
0.841232 0.310945 0.685058
0.84118 0.308759 0.685065
0.841128 0.306574 0.685072
