ply
format ascii 1.0
comment Created by Open3D
element vertex 1792
property double x
property double y
property double z
end_header
0.936796 0.140462 1.01848
0.936744 0.138322 1.01849
0.938767 0.136023 1.01833
0.938716 0.13388 1.01833
0.938665 0.131737 1.01834
0.938614 0.129593 1.01835
0.938562 0.12745 1.01835
0.938511 0.125307 1.01836
0.93846 0.123164 1.01837
0.938409 0.12102 1.01837
0.938357 0.118877 1.01838
0.938306 0.116734 1.01839
0.939292 0.114494 1.01831
0.93924 0.112349 1.01832
0.939189 0.110204 1.01832
0.939138 0.108059 1.01833
0.939086 0.105914 1.01834
0.939035 0.103769 1.01834
0.938984 0.101624 1.01835
0.938933 0.0994789 1.01836
0.938881 0.0973339 1.01836
0.939866 0.0950761 1.01828
0.939815 0.0929293 1.01829
0.939763 0.0907826 1.0183
0.939712 0.0886359 1.0183
0.941733 0.0862495 1.01814
0.941682 0.0840993 1.01815
0.94163 0.081949 1.01816
0.943651 0.0795486 1.018
0.943599 0.0773949 1.018
0.943548 0.0752411 1.01801
0.946604 0.0726964 1.01777
0.946552 0.0705374 1.01777
0.9465 0.0683784 1.01778
0.949556 0.0658126 1.01754
0.949504 0.0636483 1.01754
0.949452 0.061484 1.01755
0.951472 0.0590381 1.01739
0.95142 0.0568703 1.0174
0.951368 0.0547025 1.0174
0.953387 0.0522425 1.01724
0.953335 0.0500712 1.01725
0.953283 0.0478999 1.01725
0.955302 0.0454258 1.01709
0.95525 0.043251 1.0171
0.955198 0.0410762 1.01711
0.955146 0.0389014 1.01711
0.956129 0.0365682 1.01704
0.956077 0.0343917 1.01704
0.956025 0.0322151 1.01705
0.955973 0.0300385 1.01706
0.955921 0.027862 1.01707
0.955869 0.0256854 1.01707
0.956852 0.02334 1.017
0.9568 0.0211616 1.017
0.956748 0.0189833 1.01701
0.95773 0.0166309 1.01693
0.957678 0.0144508 1.01694
0.957626 0.0122707 1.01695
0.957574 0.0100906 1.01695
0.957522 0.00791058 1.01696
0.95747 0.0057305 1.01697
0.957418 0.00355044 1.01697
0.957366 0.00137038 1.01698
0.957313 -0.0008097 1.01699
0.957261 -0.00298976 1.01699
0.957209 -0.00516984 1.017
0.957157 -0.0073499 1.01701
0.957105 -0.00952996 1.01701
0.958087 -0.011907 1.01694
0.958035 -0.0140888 1.01694
0.957983 -0.0162706 1.01695
0.959999 -0.0188569 1.01679
0.959947 -0.0210423 1.0168
0.959894 -0.0232276 1.0168
0.960876 -0.0256204 1.01673
0.960824 -0.0278075 1.01673
0.960771 -0.0299946 1.01674
0.962787 -0.0326072 1.01658
0.962734 -0.0347978 1.01659
0.962682 -0.0369883 1.01659
0.96263 -0.0391789 1.0166
0.964645 -0.0418091 1.01644
0.964592 -0.0440032 1.01645
0.96454 -0.0461973 1.01645
0.965521 -0.0486164 1.01638
0.965468 -0.0508123 1.01638
0.965416 -0.0530081 1.01639
0.965363 -0.055204 1.0164
0.965311 -0.0573998 1.01641
0.964225 -0.0593619 1.0165
0.964173 -0.061556 1.0165
0.96412 -0.0637501 1.01651
0.963034 -0.0657051 1.0166
0.962982 -0.0678975 1.01661
0.96293 -0.0700898 1.01661
0.962877 -0.0722821 1.01662
0.962825 -0.0744745 1.01663
0.962772 -0.0766668 1.01663
0.96272 -0.0788592 1.01664
0.960602 -0.0805488 1.01681
0.960549 -0.0827377 1.01682
0.960497 -0.0849265 1.01683
0.958379 -0.0866022 1.017
0.958327 -0.0887875 1.01701
0.958274 -0.0909728 1.01701
0.956157 -0.0926344 1.01719
0.956105 -0.0948162 1.01719
0.956052 -0.0969981 1.0172
0.953935 -0.0986456 1.01737
0.953883 -0.100824 1.01738
0.953831 -0.103002 1.01739
0.951714 -0.104636 1.01756
0.951662 -0.106811 1.01757
0.95161 -0.108985 1.01757
0.951558 -0.11116 1.01758
0.948409 -0.112497 1.01784
0.948357 -0.114666 1.01784
0.948305 -0.116836 1.01785
0.945157 -0.118151 1.01811
0.945105 -0.120316 1.01811
0.945054 -0.12248 1.01812
0.941906 -0.123775 1.01838
0.941854 -0.125934 1.01838
0.941803 -0.128093 1.01839
0.938655 -0.129366 1.01864
0.938604 -0.13152 1.01865
0.938552 -0.133674 1.01866
0.935406 -0.134926 1.01891
0.935354 -0.137075 1.01892
0.935303 -0.139223 1.01893
0.933188 -0.14076 1.0191
0.933137 -0.142905 1.01911
0.933086 -0.14505 1.01911
0.933034 -0.147195 1.01912
0.93092 -0.148715 1.01929
0.930869 -0.150856 1.0193
0.930818 -0.152998 1.01931
0.929735 -0.154821 1.0194
0.929684 -0.156961 1.0194
0.929633 -0.159101 1.01941
0.92855 -0.160917 1.0195
0.928499 -0.163055 1.0195
0.928448 -0.165193 1.01951
0.928397 -0.167331 1.01952
0.928346 -0.169469 1.01952
0.928295 -0.171607 1.01953
0.927213 -0.173411 1.01962
0.927162 -0.175547 1.01963
0.927111 -0.177684 1.01963
0.92706 -0.17982 1.01964
0.925978 -0.181615 1.01973
0.925927 -0.18375 1.01974
0.925876 -0.185884 1.01974
0.924794 -0.187673 1.01983
0.924743 -0.189805 1.01984
0.924692 -0.191938 1.01985
0.924641 -0.194071 1.01985
0.92459 -0.196203 1.01986
0.924539 -0.198336 1.01987
0.924488 -0.200469 1.01987
0.924437 -0.202602 1.01988
0.924386 -0.204734 1.01989
0.922274 -0.206143 1.02006
0.922223 -0.208273 1.02007
0.922172 -0.210402 1.02007
0.920061 -0.211797 1.02024
0.92001 -0.213922 1.02025
0.91996 -0.216048 1.02026
0.919909 -0.218174 1.02026
0.917798 -0.219551 1.02044
0.917747 -0.221674 1.02044
0.917696 -0.223796 1.02045
0.914556 -0.22478 1.0207
0.914505 -0.226897 1.02071
0.914455 -0.229014 1.02072
0.910285 -0.229592 1.02106
0.910235 -0.231702 1.02106
0.910184 -0.233812 1.02107
0.906015 -0.234362 1.02141
0.905965 -0.236465 1.02141
0.905915 -0.238568 1.02142
0.902776 -0.239485 1.02167
0.902726 -0.241583 1.02168
0.902676 -0.243681 1.02169
0.902625 -0.245778 1.02169
0.899487 -0.246669 1.02195
0.899437 -0.248762 1.02195
0.899387 -0.250854 1.02196
0.89625 -0.251724 1.02222
0.8962 -0.253811 1.02222
0.89615 -0.255899 1.02223
0.893013 -0.256748 1.02248
0.892963 -0.258829 1.02249
0.892913 -0.260911 1.0225
0.918583 0.192436 1.01786
0.921645 0.190221 1.01761
0.921595 0.188108 1.01762
0.921544 0.185995 1.01762
0.924605 0.183759 1.01737
0.924555 0.18164 1.01738
0.924504 0.179521 1.01739
0.927565 0.177264 1.01714
0.927514 0.17514 1.01714
0.927464 0.173016 1.01715
0.927413 0.170892 1.01716
0.929436 0.168662 1.01699
0.929385 0.166535 1.017
0.929334 0.164407 1.01701
0.931357 0.162163 1.01684
0.931306 0.160032 1.01685
0.931256 0.157901 1.01686
0.933278 0.155643 1.01669
0.933227 0.153508 1.0167
0.933176 0.151374 1.0167
0.935198 0.149101 1.01654
0.935147 0.146963 1.01655
0.935096 0.144826 1.01655
0.936082 0.142613 1.01647
0.93603 0.140474 1.01648
0.935979 0.138334 1.01649
0.938001 0.136035 1.01632
0.93795 0.133892 1.01633
0.937898 0.131749 1.01634
0.937847 0.129606 1.01634
0.937796 0.127462 1.01635
0.937745 0.125319 1.01636
0.937693 0.123176 1.01636
0.937642 0.121033 1.01637
0.937591 0.118889 1.01638
0.93754 0.116746 1.01638
0.938524 0.114506 1.0163
0.938473 0.112361 1.01631
0.938422 0.110216 1.01632
0.938371 0.108071 1.01632
0.938319 0.105926 1.01633
0.938268 0.103781 1.01634
0.938217 0.101636 1.01634
0.938165 0.099491 1.01635
0.938114 0.097346 1.01636
0.939098 0.0950882 1.01628
0.939047 0.0929415 1.01629
0.938996 0.0907947 1.01629
0.938944 0.088648 1.0163
0.940964 0.0862617 1.01614
0.940913 0.0841114 1.01614
0.940861 0.0819612 1.01615
0.94288 0.0795608 1.01598
0.942829 0.0774071 1.01599
0.942777 0.0752533 1.016
0.945832 0.0727086 1.01575
0.94578 0.0705496 1.01576
0.945728 0.0683906 1.01576
0.948782 0.0658248 1.01551
0.94873 0.0636606 1.01552
0.948678 0.0614963 1.01553
0.950697 0.0590503 1.01536
0.950645 0.0568825 1.01537
0.950593 0.0547147 1.01538
0.952611 0.0522547 1.01521
0.952559 0.0500834 1.01522
0.952507 0.0479121 1.01523
0.954524 0.0454381 1.01506
0.954472 0.0432633 1.01507
0.95442 0.0410885 1.01508
0.954368 0.0389137 1.01508
0.955351 0.0365805 1.015
0.955299 0.034404 1.01501
0.955247 0.0322274 1.01502
0.955195 0.0300509 1.01503
0.955143 0.0278743 1.01503
0.955091 0.0256977 1.01504
0.956073 0.0233523 1.01496
0.956021 0.021174 1.01497
0.955969 0.0189957 1.01497
0.956951 0.0166432 1.0149
0.956899 0.0144631 1.0149
0.956847 0.012283 1.01491
0.956794 0.010103 1.01492
0.956742 0.00792291 1.01492
0.95669 0.00574283 1.01493
0.956638 0.00356277 1.01494
0.956586 0.00138271 1.01494
0.956534 -0.00079737 1.01495
0.956482 -0.00297743 1.01496
0.95643 -0.00515751 1.01496
0.956377 -0.00733757 1.01497
0.956325 -0.00951763 1.01498
0.957307 -0.0118947 1.0149
0.957255 -0.0140765 1.0149
0.957202 -0.0162583 1.01491
0.959217 -0.0188446 1.01475
0.959165 -0.0210299 1.01476
0.959113 -0.0232152 1.01476
0.960094 -0.025608 1.01468
0.960042 -0.0277951 1.01469
0.959989 -0.0299822 1.0147
0.962003 -0.0325948 1.01453
0.961951 -0.0347854 1.01454
0.961899 -0.036976 1.01455
0.961846 -0.0391666 1.01455
0.96386 -0.0417967 1.01439
0.963808 -0.0439908 1.0144
0.963755 -0.0461849 1.0144
0.964736 -0.048604 1.01433
0.964683 -0.0507998 1.01433
0.964631 -0.0529957 1.01434
0.964578 -0.0551915 1.01435
0.964526 -0.0573874 1.01435
0.96344 -0.0593495 1.01445
0.963388 -0.0615436 1.01445
0.963335 -0.0637377 1.01446
0.96225 -0.0656927 1.01455
0.962198 -0.0678851 1.01456
0.962146 -0.0700774 1.01456
0.962093 -0.0722697 1.01457
0.962041 -0.0744621 1.01458
0.961988 -0.0766544 1.01458
0.961936 -0.0788468 1.01459
0.959819 -0.0805364 1.01477
0.959766 -0.0827253 1.01478
0.959714 -0.0849142 1.01478
0.957597 -0.0865898 1.01496
0.957545 -0.0887751 1.01497
0.957493 -0.0909605 1.01497
0.955376 -0.0926221 1.01515
0.955324 -0.0948039 1.01516
0.955272 -0.0969857 1.01516
0.953156 -0.0986333 1.01534
0.953104 -0.100812 1.01535
0.953052 -0.10299 1.01535
0.950936 -0.104624 1.01553
0.950884 -0.106798 1.01553
0.950832 -0.108973 1.01554
0.949749 -0.11087 1.01563
0.947633 -0.112485 1.01581
0.947581 -0.114654 1.01582
0.94753 -0.116824 1.01582
0.944383 -0.118139 1.01608
0.944331 -0.120304 1.01609
0.94428 -0.122468 1.0161
0.941134 -0.123762 1.01636
0.941082 -0.125921 1.01636
0.94103 -0.12808 1.01637
0.937885 -0.129354 1.01663
0.937834 -0.131508 1.01664
0.937782 -0.133661 1.01665
0.934637 -0.134914 1.01691
0.934586 -0.137062 1.01691
0.934534 -0.139211 1.01692
0.932421 -0.140748 1.0171
0.93237 -0.142893 1.0171
0.932319 -0.145038 1.01711
0.932267 -0.147183 1.01712
0.930154 -0.148703 1.01729
0.930103 -0.150844 1.0173
0.930052 -0.152985 1.01731
0.92897 -0.154809 1.0174
0.928919 -0.156949 1.0174
0.928868 -0.159088 1.01741
0.927786 -0.160905 1.0175
0.927735 -0.163043 1.01751
0.927684 -0.165181 1.01751
0.927632 -0.167319 1.01752
0.927581 -0.169457 1.01753
0.92753 -0.171595 1.01753
0.926449 -0.173399 1.01763
0.926398 -0.175535 1.01763
0.926347 -0.177671 1.01764
0.926296 -0.179808 1.01765
0.925214 -0.181603 1.01774
0.925163 -0.183738 1.01774
0.925112 -0.185872 1.01775
0.924031 -0.18766 1.01784
0.92398 -0.189793 1.01785
0.923929 -0.191926 1.01785
0.923878 -0.194059 1.01786
0.923827 -0.196191 1.01787
0.923776 -0.198324 1.01787
0.923725 -0.200457 1.01788
0.923674 -0.202589 1.01789
0.923623 -0.204722 1.01789
0.921513 -0.206131 1.01807
0.921462 -0.20826 1.01808
0.921411 -0.21039 1.01808
0.919301 -0.211785 1.01826
0.91925 -0.21391 1.01826
0.919199 -0.216036 1.01827
0.919149 -0.218162 1.01828
0.917039 -0.219539 1.01845
0.916988 -0.221662 1.01846
0.916937 -0.223784 1.01847
0.913799 -0.224768 1.01873
0.913748 -0.226885 1.01873
0.913698 -0.229002 1.01874
0.909531 -0.22958 1.01908
0.90948 -0.23169 1.01909
0.90943 -0.2338 1.0191
0.905263 -0.23435 1.01944
0.905213 -0.236453 1.01945
0.905163 -0.238556 1.01945
0.902026 -0.239474 1.01971
0.901976 -0.241571 1.01972
0.901925 -0.243669 1.01973
0.901875 -0.245766 1.01973
0.898739 -0.246658 1.01999
0.898689 -0.24875 1.02
0.898639 -0.250842 1.02001
0.895503 -0.251712 1.02027
0.895453 -0.2538 1.02027
0.895404 -0.255887 1.02028
0.892268 -0.256736 1.02054
0.892218 -0.258818 1.02055
0.892169 -0.260899 1.02055
0.918866 0.192414 1.01581
0.921926 0.190198 1.01555
0.921876 0.188083 1.01556
0.921825 0.185967 1.01556
0.924885 0.18373 1.01531
0.924834 0.181609 1.01532
0.924783 0.179489 1.01532
0.927842 0.17723 1.01507
0.927791 0.175104 1.01507
0.927741 0.172979 1.01508
0.92769 0.170853 1.01509
0.929712 0.168621 1.01492
0.929661 0.166492 1.01493
0.92961 0.164363 1.01493
0.931632 0.162117 1.01476
0.931581 0.159984 1.01477
0.93153 0.157851 1.01478
0.933551 0.155591 1.01461
0.9335 0.153455 1.01462
0.933449 0.151319 1.01462
0.93547 0.149045 1.01446
0.935419 0.146905 1.01446
0.935368 0.144765 1.01447
0.936352 0.142551 1.01439
0.936301 0.14041 1.0144
0.93625 0.138268 1.0144
0.93827 0.135968 1.01423
0.938219 0.133823 1.01424
0.938168 0.131678 1.01425
0.938116 0.129533 1.01425
0.938065 0.127388 1.01426
0.938014 0.125243 1.01427
0.937963 0.123098 1.01427
0.938947 0.120861 1.01419
0.938895 0.118715 1.0142
0.938844 0.116568 1.01421
0.939828 0.114324 1.01413
0.939777 0.112176 1.01413
0.939725 0.110027 1.01414
0.939674 0.107879 1.01415
0.939623 0.10573 1.01415
0.939571 0.103582 1.01416
0.93952 0.101433 1.01417
0.939468 0.0992846 1.01417
0.939417 0.0971361 1.01418
0.941436 0.0947621 1.01401
0.941384 0.0926101 1.01402
0.941333 0.0904581 1.01403
0.941281 0.0883061 1.01403
0.9433 0.0859145 1.01387
0.943248 0.083759 1.01387
0.943196 0.0816035 1.01388
0.945214 0.0791979 1.01371
0.945163 0.0770389 1.01372
0.945111 0.0748798 1.01373
0.948163 0.0723299 1.01347
0.948111 0.0701656 1.01348
0.94806 0.0680014 1.01349
0.951111 0.0654304 1.01323
0.951059 0.0632608 1.01324
0.951008 0.0610913 1.01324
0.953024 0.0586401 1.01308
0.952972 0.056467 1.01308
0.95292 0.054294 1.01309
0.954937 0.0518288 1.01292
0.954885 0.0496522 1.01293
0.954833 0.0474757 1.01294
0.955815 0.0451477 1.01286
0.955763 0.0429694 1.01286
0.955711 0.0407911 1.01287
0.955659 0.0386128 1.01288
0.95664 0.0362761 1.0128
0.956588 0.0340961 1.0128
0.956536 0.031916 1.01281
0.956484 0.0297359 1.01282
0.956432 0.0275559 1.01282
0.95638 0.0253758 1.01283
0.957361 0.0230268 1.01275
0.957309 0.020845 1.01276
0.957257 0.0186632 1.01277
0.957205 0.0164814 1.01277
0.957153 0.0142995 1.01278
0.9571 0.0121177 1.01279
0.957048 0.0099359 1.01279
0.956996 0.00775407 1.0128
0.956944 0.00557225 1.01281
0.956892 0.00339043 1.01281
0.95684 0.00120861 1.01282
0.956787 -0.000973213 1.01283
0.956735 -0.00315503 1.01283
0.956683 -0.00533685 1.01284
0.956631 -0.00751869 1.01285
0.956579 -0.00970051 1.01285
0.95756 -0.0120793 1.01277
0.957507 -0.0142629 1.01278
0.957455 -0.0164464 1.01279
0.959469 -0.0190344 1.01262
0.959416 -0.0212215 1.01263
0.959364 -0.0234086 1.01263
0.960344 -0.0258032 1.01255
0.960292 -0.027992 1.01256
0.96024 -0.0301808 1.01257
0.962253 -0.0327951 1.0124
0.9622 -0.0349875 1.01241
0.962148 -0.0371798 1.01241
0.963128 -0.0395902 1.01233
0.963075 -0.0417843 1.01234
0.963023 -0.0439783 1.01235
0.962971 -0.0461724 1.01236
0.96395 -0.0485916 1.01228
0.963898 -0.0507874 1.01228
0.963845 -0.0529833 1.01229
0.963793 -0.0551791 1.0123
0.96374 -0.057375 1.0123
0.962656 -0.0593371 1.0124
0.962603 -0.0615312 1.0124
0.962551 -0.0637252 1.01241
0.962498 -0.0659193 1.01242
0.962446 -0.0681134 1.01242
0.962393 -0.0703075 1.01243
0.962341 -0.0725017 1.01244
0.962288 -0.0746957 1.01244
0.962236 -0.0768898 1.01245
0.962184 -0.0790839 1.01246
0.960068 -0.0807754 1.01264
0.960015 -0.082966 1.01264
0.959963 -0.0851566 1.01265
0.958879 -0.0870906 1.01274
0.958827 -0.0892794 1.01275
0.958774 -0.0914683 1.01276
0.956659 -0.0931334 1.01294
0.956607 -0.0953187 1.01294
0.956555 -0.0975041 1.01295
0.95444 -0.0991552 1.01313
0.954388 -0.101337 1.01314
0.954335 -0.103519 1.01314
0.952221 -0.105156 1.01332
0.952169 -0.107334 1.01333
0.952117 -0.109513 1.01334
0.948971 -0.110858 1.0136
0.948919 -0.113031 1.01361
0.948868 -0.115204 1.01362
0.948816 -0.117377 1.01362
0.945671 -0.118696 1.01389
0.945619 -0.120864 1.0139
0.945567 -0.123032 1.0139
0.942423 -0.12433 1.01417
0.942372 -0.126492 1.01418
0.94232 -0.128655 1.01418
0.939176 -0.129932 1.01445
0.939125 -0.132089 1.01445
0.939073 -0.134247 1.01446
0.93593 -0.135503 1.01473
0.935878 -0.137655 1.01473
0.935827 -0.139807 1.01474
0.933715 -0.141347 1.01492
0.933663 -0.143496 1.01493
0.933612 -0.145644 1.01493
0.933561 -0.147793 1.01494
0.932479 -0.149628 1.01503
0.932428 -0.151775 1.01504
0.932376 -0.153922 1.01505
0.931295 -0.155751 1.01514
0.931244 -0.157896 1.01515
0.931192 -0.160041 1.01515
0.930111 -0.161863 1.01525
0.93006 -0.164006 1.01525
0.930009 -0.166149 1.01526
0.928928 -0.167964 1.01535
0.928876 -0.170105 1.01536
0.928825 -0.172247 1.01536
0.925685 -0.173387 1.01563
0.925634 -0.175523 1.01564
0.925583 -0.177659 1.01564
0.925532 -0.179796 1.01565
0.924451 -0.181591 1.01574
0.9244 -0.183726 1.01575
0.924349 -0.18586 1.01576
0.923268 -0.187648 1.01585
0.923217 -0.189781 1.01586
0.923166 -0.191914 1.01586
0.923115 -0.194047 1.01587
0.923064 -0.196179 1.01588
0.923013 -0.198312 1.01588
0.922962 -0.200445 1.01589
0.922911 -0.202577 1.01589
0.92286 -0.20471 1.0159
0.920751 -0.206119 1.01608
0.9207 -0.208248 1.01609
0.92065 -0.210378 1.01609
0.918541 -0.211773 1.01627
0.91849 -0.213898 1.01628
0.918439 -0.216024 1.01629
0.918388 -0.21815 1.01629
0.91628 -0.219527 1.01647
0.916229 -0.22165 1.01648
0.916179 -0.223772 1.01648
0.913042 -0.224756 1.01675
0.912991 -0.226873 1.01676
0.912941 -0.22899 1.01676
0.908776 -0.229568 1.01711
0.908726 -0.231678 1.01712
0.908675 -0.233788 1.01713
0.904511 -0.234338 1.01748
0.904461 -0.236441 1.01748
0.904411 -0.238544 1.01749
0.901276 -0.239462 1.01775
0.901226 -0.241559 1.01776
0.901175 -0.243657 1.01777
0.901125 -0.245755 1.01777
0.897991 -0.246646 1.01804
0.897941 -0.248738 1.01805
0.897891 -0.250831 1.01805
0.894757 -0.251701 1.01832
0.894707 -0.253788 1.01832
0.894657 -0.255875 1.01833
0.891524 -0.256724 1.01859
0.891474 -0.258806 1.0186
0.891424 -0.260888 1.01861
0.918111 0.192426 1.01383
0.92117 0.19021 1.01357
0.921119 0.188095 1.01358
0.921069 0.185979 1.01359
0.924126 0.183742 1.01333
0.924076 0.181621 1.01333
0.924025 0.179501 1.01334
0.927082 0.177242 1.01308
0.927031 0.175116 1.01309
0.92698 0.172991 1.01309
0.92693 0.170865 1.0131
0.92895 0.168633 1.01293
0.928899 0.166504 1.01294
0.928848 0.164375 1.01294
0.930869 0.162129 1.01277
0.930818 0.159996 1.01278
0.930767 0.157863 1.01279
0.932787 0.155603 1.01261
0.932736 0.153467 1.01262
0.932685 0.151331 1.01263
0.934705 0.149057 1.01246
0.934653 0.146917 1.01246
0.934602 0.144777 1.01247
0.935586 0.142563 1.01239
0.935535 0.140422 1.01239
0.935484 0.13828 1.0124
0.937503 0.13598 1.01223
0.937452 0.133835 1.01224
0.937401 0.13169 1.01224
0.937349 0.129545 1.01225
0.937298 0.1274 1.01226
0.937247 0.125255 1.01226
0.937195 0.12311 1.01227
0.938179 0.120873 1.01219
0.938128 0.118727 1.0122
0.938076 0.11658 1.0122
0.93906 0.114336 1.01212
0.939008 0.112188 1.01213
0.938957 0.110039 1.01213
0.938906 0.107891 1.01214
0.938854 0.105742 1.01215
0.938803 0.103594 1.01215
0.938752 0.101445 1.01216
0.9387 0.0992968 1.01217
0.938649 0.0971483 1.01217
0.940666 0.0947743 1.012
0.940615 0.0926223 1.01201
0.940563 0.0904702 1.01202
0.940512 0.0883182 1.01202
0.942529 0.0859267 1.01185
0.942477 0.0837712 1.01186
0.942426 0.0816157 1.01187
0.944442 0.0792101 1.0117
0.944391 0.0770511 1.0117
0.944339 0.0748921 1.01171
0.947389 0.0723422 1.01145
0.947337 0.0701779 1.01146
0.947286 0.0680136 1.01146
0.950335 0.0654426 1.0112
0.950284 0.0632731 1.01121
0.950232 0.0611036 1.01122
0.952247 0.0586524 1.01105
0.952195 0.0564793 1.01105
0.952143 0.0543063 1.01106
0.954159 0.0518411 1.01089
0.954106 0.0496645 1.0109
0.954054 0.047488 1.0109
0.955036 0.0451601 1.01082
0.954984 0.0429817 1.01083
0.954932 0.0408034 1.01084
0.95488 0.0386251 1.01084
0.955861 0.0362884 1.01076
0.955809 0.0341084 1.01077
0.955756 0.0319283 1.01077
0.955704 0.0297482 1.01078
0.955652 0.0275682 1.01079
0.9556 0.0253881 1.0108
0.956581 0.0230392 1.01071
0.956529 0.0208573 1.01072
0.956477 0.0186755 1.01073
0.956424 0.0164937 1.01073
0.956372 0.0143119 1.01074
0.95632 0.0121301 1.01075
0.956268 0.00994824 1.01075
0.956216 0.00776641 1.01076
0.956164 0.00558459 1.01077
0.956111 0.00340277 1.01077
0.956059 0.00122095 1.01078
0.956007 -0.000960873 1.01079
0.955955 -0.00314269 1.01079
0.955903 -0.00532451 1.0108
0.955851 -0.00750635 1.01081
0.955798 -0.00968817 1.01082
0.956779 -0.0120669 1.01073
0.956726 -0.0142505 1.01074
0.956674 -0.0164341 1.01075
0.958686 -0.0190221 1.01058
0.958634 -0.0212091 1.01058
0.958582 -0.0233962 1.01059
0.959562 -0.0257908 1.01051
0.959509 -0.0279796 1.01052
0.959457 -0.0301684 1.01052
0.961469 -0.0327827 1.01035
0.961416 -0.0349751 1.01036
0.961364 -0.0371674 1.01037
0.962343 -0.0395778 1.01029
0.962291 -0.0417718 1.01029
0.962238 -0.0439659 1.0103
0.962186 -0.04616 1.01031
0.963165 -0.0485791 1.01022
0.963113 -0.050775 1.01023
0.96306 -0.0529709 1.01024
0.963008 -0.0551667 1.01024
0.962955 -0.0573626 1.01025
0.961871 -0.0593246 1.01035
0.961819 -0.0615187 1.01035
0.961766 -0.0637128 1.01036
0.961714 -0.0659069 1.01037
0.961661 -0.068101 1.01037
0.961609 -0.0702951 1.01038
0.961556 -0.0724892 1.01039
0.961504 -0.0746833 1.01039
0.961451 -0.0768774 1.0104
0.961399 -0.0790715 1.01041
0.959284 -0.080763 1.01059
0.959232 -0.0829536 1.0106
0.95918 -0.0851442 1.0106
0.958096 -0.0870782 1.0107
0.958044 -0.0892671 1.01071
0.957992 -0.0914559 1.01071
0.955878 -0.0931211 1.0109
0.955825 -0.0953064 1.0109
0.955773 -0.0974917 1.01091
0.953659 -0.0991429 1.01109
0.953607 -0.101325 1.0111
0.953555 -0.103507 1.01111
0.951442 -0.105144 1.01129
0.95139 -0.107322 1.0113
0.951338 -0.1095 1.0113
0.948194 -0.110846 1.01157
0.948142 -0.113019 1.01158
0.94809 -0.115192 1.01159
0.948038 -0.117365 1.01159
0.944896 -0.118684 1.01186
0.944844 -0.120852 1.01187
0.944792 -0.12302 1.01188
0.94165 -0.124318 1.01215
0.941598 -0.12648 1.01216
0.941546 -0.128643 1.01216
0.938405 -0.12992 1.01243
0.938353 -0.132077 1.01244
0.938302 -0.134234 1.01245
0.93516 -0.13549 1.01272
0.935109 -0.137642 1.01272
0.935057 -0.139794 1.01273
0.932946 -0.141335 1.01291
0.932895 -0.143484 1.01292
0.932844 -0.145632 1.01293
0.932792 -0.147781 1.01293
0.931711 -0.149616 1.01303
0.93166 -0.151763 1.01303
0.931609 -0.15391 1.01304
0.930528 -0.155739 1.01314
0.930477 -0.157884 1.01314
0.930425 -0.160029 1.01315
0.929345 -0.16185 1.01324
0.929293 -0.163994 1.01325
0.929242 -0.166137 1.01326
0.928162 -0.167952 1.01335
0.92811 -0.170093 1.01336
0.928059 -0.172235 1.01336
0.926979 -0.174042 1.01346
0.926928 -0.176182 1.01347
0.926877 -0.178322 1.01347
0.926826 -0.180462 1.01348
0.925745 -0.18226 1.01357
0.925694 -0.184398 1.01358
0.925643 -0.186536 1.01359
0.924563 -0.188328 1.01368
0.924512 -0.190465 1.01369
0.924461 -0.192601 1.01369
0.923381 -0.194386 1.01379
0.92333 -0.19652 1.01379
0.923279 -0.198655 1.0138
0.923228 -0.200789 1.01381
0.923177 -0.202924 1.01381
0.923126 -0.205058 1.01382
0.921018 -0.206469 1.014
0.920967 -0.2086 1.01401
0.920916 -0.210731 1.01402
0.918809 -0.212128 1.0142
0.918758 -0.214255 1.01421
0.918707 -0.216383 1.01421
0.918656 -0.21851 1.01422
0.916549 -0.219889 1.0144
0.916498 -0.222013 1.01441
0.916448 -0.224137 1.01441
0.913313 -0.225123 1.01468
0.913262 -0.227242 1.01469
0.913211 -0.229361 1.0147
0.909049 -0.229941 1.01505
0.908999 -0.232052 1.01506
0.908948 -0.234164 1.01507
0.904787 -0.234716 1.01543
0.904737 -0.236821 1.01543
0.904686 -0.238926 1.01544
0.901553 -0.239845 1.01571
0.901503 -0.241944 1.01571
0.901453 -0.244044 1.01572
0.901403 -0.246143 1.01573
0.89827 -0.247036 1.016
0.89822 -0.24913 1.016
0.89817 -0.251224 1.01601
0.895038 -0.252096 1.01628
0.894988 -0.254185 1.01629
0.894938 -0.256274 1.01629
0.891806 -0.257125 1.01656
0.891757 -0.259208 1.01657
0.891707 -0.261292 1.01657
0.920413 0.190222 1.0116
0.920363 0.188107 1.01161
0.920312 0.185991 1.01161
0.923368 0.183754 1.01135
0.923317 0.181633 1.01135
0.923267 0.179513 1.01136
0.926322 0.177254 1.0111
0.926271 0.175128 1.0111
0.92622 0.173003 1.01111
0.926169 0.170877 1.01112
0.928189 0.168645 1.01094
0.928138 0.166516 1.01095
0.928087 0.164387 1.01095
0.930106 0.162141 1.01078
0.930055 0.160008 1.01079
0.930004 0.157875 1.01079
0.932023 0.155615 1.01062
0.931972 0.153479 1.01063
0.931921 0.151343 1.01063
0.933939 0.149069 1.01046
0.933888 0.146929 1.01046
0.933837 0.144789 1.01047
0.934821 0.142576 1.01039
0.934769 0.140434 1.01039
0.934718 0.138293 1.0104
0.936736 0.135992 1.01023
0.936685 0.133847 1.01023
0.936634 0.131702 1.01024
0.936582 0.129557 1.01025
0.936531 0.127412 1.01025
0.93648 0.125267 1.01026
0.936428 0.123122 1.01027
0.937411 0.120886 1.01018
0.93736 0.118739 1.01019
0.937309 0.116592 1.0102
0.938291 0.114348 1.01011
0.93824 0.1122 1.01012
0.938189 0.110051 1.01013
0.938137 0.107903 1.01013
0.938086 0.105754 1.01014
0.938035 0.103606 1.01015
0.937983 0.101457 1.01015
0.937932 0.0993089 1.01016
0.93788 0.0971604 1.01017
0.939897 0.0947864 1.00999
0.939845 0.0926344 1.01
0.939794 0.0904824 1.01001
0.939742 0.0883304 1.01001
0.941758 0.0859389 1.00984
0.941706 0.0837834 1.00985
0.941655 0.0816279 1.00985
0.94367 0.0792223 1.00968
0.943618 0.0770633 1.00969
0.943567 0.0749043 1.00969
0.946615 0.0723544 1.00943
0.946563 0.0701901 1.00943
0.946512 0.0680258 1.00944
0.94956 0.0654549 1.00918
0.949508 0.0632854 1.00918
0.949456 0.0611158 1.00919
0.95147 0.0586647 1.00902
0.951418 0.0564916 1.00902
0.951366 0.0543186 1.00903
0.95338 0.0518534 1.00886
0.953328 0.0496768 1.00886
0.953276 0.0475003 1.00887
0.954257 0.0451724 1.00879
0.954205 0.0429941 1.00879
0.954153 0.0408157 1.0088
0.954101 0.0386374 1.00881
0.955081 0.0363008 1.00872
0.955029 0.0341207 1.00873
0.954977 0.0319406 1.00874
0.954925 0.0297606 1.00875
0.954873 0.0275805 1.00875
0.95482 0.0254004 1.00876
0.955801 0.0230515 1.00868
0.955749 0.0208697 1.00868
0.955696 0.0186879 1.00869
0.955644 0.016506 1.0087
0.955592 0.0143242 1.0087
0.95554 0.0121424 1.00871
0.955488 0.00996058 1.00872
0.955436 0.00777875 1.00872
0.955383 0.00559693 1.00873
0.955331 0.00341511 1.00874
0.955279 0.00123329 1.00874
0.955227 -0.000948534 1.00875
0.955175 -0.00313035 1.00876
0.955122 -0.00531217 1.00876
0.95507 -0.00749401 1.00877
0.955018 -0.00967583 1.00878
0.955998 -0.0120546 1.00869
0.955946 -0.0142382 1.0087
0.955893 -0.0164217 1.00871
0.957904 -0.0190097 1.00853
0.957852 -0.0211968 1.00854
0.9578 -0.0233839 1.00855
0.958779 -0.0257784 1.00846
0.958727 -0.0279672 1.00847
0.958674 -0.0301561 1.00848
0.960685 -0.0327703 1.00831
0.960632 -0.0349627 1.00831
0.96058 -0.037155 1.00832
0.961559 -0.0395653 1.00824
0.961506 -0.0417594 1.00824
0.961454 -0.0439535 1.00825
0.961401 -0.0461476 1.00826
0.96238 -0.0485667 1.00817
0.962327 -0.0507626 1.00818
0.962275 -0.0529584 1.00819
0.962222 -0.0551543 1.00819
0.96217 -0.0573501 1.0082
0.961086 -0.0593122 1.0083
0.961034 -0.0615063 1.0083
0.960982 -0.0637004 1.00831
0.960929 -0.0658945 1.00832
0.960877 -0.0680886 1.00832
0.960824 -0.0702827 1.00833
0.960772 -0.0724768 1.00834
0.960719 -0.0746709 1.00834
0.960667 -0.076865 1.00835
0.960614 -0.0790591 1.00836
0.958501 -0.0807506 1.00854
0.958448 -0.0829412 1.00855
0.958396 -0.0851318 1.00856
0.957314 -0.0870658 1.00865
0.957261 -0.0892547 1.00866
0.957209 -0.0914435 1.00867
0.955096 -0.0931087 1.00885
0.955044 -0.095294 1.00886
0.954992 -0.0974794 1.00887
0.952879 -0.0991305 1.00905
0.952827 -0.101312 1.00906
0.952775 -0.103494 1.00907
0.950663 -0.105131 1.00925
0.950611 -0.10731 1.00926
0.950559 -0.109488 1.00927
0.947417 -0.110833 1.00954
0.947365 -0.113006 1.00955
0.947313 -0.11518 1.00956
0.947261 -0.117353 1.00956
0.94412 -0.118672 1.00984
0.944069 -0.12084 1.00985
0.944017 -0.123007 1.00985
0.940877 -0.124306 1.01013
0.940825 -0.126468 1.01013
0.940773 -0.128631 1.01014
0.937633 -0.129908 1.01042
0.937582 -0.132065 1.01042
0.93753 -0.134222 1.01043
0.934391 -0.135478 1.01071
0.934339 -0.13763 1.01071
0.934288 -0.139782 1.01072
0.932178 -0.141323 1.01091
0.932127 -0.143471 1.01091
0.932075 -0.14562 1.01092
0.932024 -0.147768 1.01093
0.930944 -0.149604 1.01102
0.930892 -0.151751 1.01103
0.930841 -0.153898 1.01104
0.929761 -0.155727 1.01113
0.92971 -0.157872 1.01114
0.929658 -0.160016 1.01114
0.928578 -0.161838 1.01124
0.928527 -0.163982 1.01125
0.928476 -0.166125 1.01125
0.927396 -0.16794 1.01135
0.927345 -0.170081 1.01136
0.927293 -0.172222 1.01136
0.926214 -0.17403 1.01146
0.926163 -0.17617 1.01147
0.926112 -0.17831 1.01147
0.92606 -0.180449 1.01148
0.924981 -0.182248 1.01158
0.92493 -0.184386 1.01158
0.924879 -0.186524 1.01159
0.923799 -0.188316 1.01169
0.923748 -0.190453 1.01169
0.923697 -0.192589 1.0117
0.922618 -0.194374 1.01179
0.922567 -0.196508 1.0118
0.922516 -0.198643 1.01181
0.922465 -0.200777 1.01181
0.922414 -0.202912 1.01182
0.922363 -0.205046 1.01183
0.920256 -0.206457 1.01201
0.920205 -0.208588 1.01202
0.920154 -0.210719 1.01203
0.918048 -0.212116 1.01221
0.917997 -0.214243 1.01222
0.917946 -0.216371 1.01222
0.917896 -0.218498 1.01223
0.91579 -0.219877 1.01242
0.915739 -0.222001 1.01242
0.915688 -0.224125 1.01243
0.912555 -0.225111 1.0127
0.912504 -0.22723 1.01271
0.912454 -0.229349 1.01272
0.908294 -0.229929 1.01308
0.908244 -0.232041 1.01309
0.908193 -0.234152 1.01309
0.904034 -0.234704 1.01346
0.903984 -0.236809 1.01347
0.903934 -0.238914 1.01347
0.900802 -0.239833 1.01375
0.900752 -0.241932 1.01375
0.900702 -0.244032 1.01376
0.900652 -0.246131 1.01377
0.897521 -0.247024 1.01404
0.897471 -0.249118 1.01405
0.897421 -0.251213 1.01405
0.894291 -0.252084 1.01433
0.894241 -0.254173 1.01433
0.894191 -0.256262 1.01434
0.891061 -0.257113 1.01462
0.891011 -0.259197 1.01462
0.890962 -0.26128 1.01463
0.921727 0.190163 1.00944
0.921676 0.188044 1.00945
0.921625 0.185925 1.00945
0.924679 0.183684 1.00918
0.924629 0.18156 1.00919
0.924578 0.179436 1.0092
0.927631 0.177174 1.00893
0.92758 0.175045 1.00893
0.927529 0.172916 1.00894
0.927478 0.170786 1.00895
0.929496 0.168551 1.00877
0.929445 0.166418 1.00877
0.929395 0.164285 1.00878
0.931412 0.162036 1.0086
0.931361 0.1599 1.00861
0.93131 0.157764 1.00862
0.933328 0.1555 1.00844
0.933277 0.15336 1.00845
0.933225 0.151221 1.00845
0.934208 0.149012 1.00837
0.934157 0.146871 1.00837
0.934106 0.144729 1.00838
0.935089 0.142513 1.0083
0.935038 0.14037 1.0083
0.934986 0.138227 1.00831
0.937003 0.135925 1.00813
0.936952 0.133778 1.00814
0.9369 0.131631 1.00814
0.936849 0.129485 1.00815
0.936798 0.127338 1.00816
0.936746 0.125191 1.00816
0.936695 0.123044 1.00817
0.937677 0.120806 1.00809
0.937626 0.118658 1.00809
0.937574 0.116509 1.0081
0.93959 0.114167 1.00792
0.939539 0.112015 1.00793
0.939487 0.109863 1.00794
0.939436 0.107711 1.00794
0.939384 0.105559 1.00795
0.939333 0.103407 1.00796
0.940315 0.101147 1.00787
0.940263 0.0989934 1.00788
0.940212 0.0968396 1.00788
0.942226 0.0944604 1.00771
0.942175 0.0923031 1.00771
0.942123 0.0901459 1.00772
0.944138 0.0877526 1.00754
0.944086 0.0855918 1.00755
0.944034 0.0834311 1.00756
0.943983 0.0812703 1.00756
0.945996 0.0788595 1.00739
0.945945 0.0766952 1.00739
0.945893 0.0745309 1.0074
0.948939 0.0719758 1.00713
0.948887 0.0698063 1.00714
0.948836 0.0676367 1.00714
0.951881 0.0650606 1.00688
0.951829 0.0628858 1.00688
0.951777 0.060711 1.00689
0.95379 0.0582546 1.00671
0.953738 0.0560763 1.00672
0.953686 0.053898 1.00673
0.955699 0.0514275 1.00655
0.955646 0.0492457 1.00656
0.955594 0.0470639 1.00656
0.956574 0.0447307 1.00648
0.956522 0.0425472 1.00648
0.95647 0.0403636 1.00649
0.956418 0.03818 1.0065
0.957398 0.0358381 1.00641
0.957345 0.0336528 1.00642
0.957293 0.0314674 1.00643
0.957241 0.0292821 1.00643
0.957189 0.0270968 1.00644
0.957136 0.0249115 1.00645
0.958116 0.0225573 1.00636
0.958063 0.0203702 1.00637
0.958011 0.0181831 1.00638
0.957959 0.015996 1.00638
0.957907 0.0138089 1.00639
0.957854 0.0116219 1.0064
0.957802 0.00943478 1.0064
0.95775 0.00724769 1.00641
0.957697 0.00506061 1.00642
0.957645 0.00287353 1.00642
0.957593 0.000686437 1.00643
0.957541 -0.00150064 1.00644
0.957488 -0.00368773 1.00644
0.957436 -0.00587481 1.00645
0.957384 -0.00806189 1.00646
0.957331 -0.010249 1.00646
0.95831 -0.012633 1.00638
0.958258 -0.0148218 1.00639
0.958206 -0.0170107 1.00639
0.959184 -0.0194017 1.00631
0.959132 -0.0215923 1.00631
0.959079 -0.0237829 1.00632
0.960058 -0.0261809 1.00624
0.960005 -0.0283732 1.00624
0.959953 -0.0305656 1.00625
0.961962 -0.0331833 1.00607
0.96191 -0.0353792 1.00608
0.961857 -0.037575 1.00609
0.962835 -0.0399889 1.006
0.962783 -0.0421865 1.00601
0.96273 -0.0443841 1.00602
0.962678 -0.0465817 1.00602
0.962625 -0.0487793 1.00603
0.962572 -0.0509769 1.00604
0.96252 -0.0531745 1.00604
0.962467 -0.0553721 1.00605
0.962415 -0.0575697 1.00606
0.961332 -0.0595336 1.00616
0.961279 -0.0617294 1.00616
0.961227 -0.0639253 1.00617
0.960144 -0.0658821 1.00627
0.960092 -0.0680762 1.00627
0.960039 -0.0702703 1.00628
0.959987 -0.0724644 1.00629
0.959935 -0.0746585 1.00629
0.959882 -0.0768526 1.0063
0.95983 -0.0790467 1.00631
0.957717 -0.0807382 1.0065
0.957665 -0.0829288 1.0065
0.957613 -0.0851194 1.00651
0.956531 -0.0870535 1.00661
0.956478 -0.0892423 1.00662
0.956426 -0.0914311 1.00662
0.954315 -0.0930963 1.00681
0.954262 -0.0952817 1.00682
0.95421 -0.097467 1.00683
0.952099 -0.0991182 1.00702
0.952047 -0.1013 1.00702
0.951995 -0.103482 1.00703
0.949884 -0.105119 1.00722
0.949832 -0.107297 1.00723
0.94978 -0.109476 1.00723
0.94664 -0.110821 1.00751
0.946588 -0.112994 1.00752
0.946536 -0.115167 1.00753
0.946484 -0.11734 1.00753
0.943345 -0.11866 1.00781
0.943293 -0.120827 1.00782
0.943242 -0.122995 1.00783
0.940103 -0.124293 1.00811
0.940051 -0.126456 1.00811
0.94 -0.128618 1.00812
0.936862 -0.129895 1.0084
0.93681 -0.132053 1.00841
0.936759 -0.13421 1.00842
0.933621 -0.135466 1.0087
0.93357 -0.137618 1.0087
0.933518 -0.13977 1.00871
0.93141 -0.141311 1.0089
0.931358 -0.143459 1.00891
0.931307 -0.145608 1.00891
0.931256 -0.147756 1.00892
0.930176 -0.149592 1.00902
0.930125 -0.151739 1.00902
0.930073 -0.153886 1.00903
0.928994 -0.155714 1.00913
0.928942 -0.157859 1.00913
0.928891 -0.160004 1.00914
0.927812 -0.161826 1.00924
0.927761 -0.163969 1.00925
0.927709 -0.166113 1.00925
0.92663 -0.167927 1.00935
0.926579 -0.170069 1.00936
0.926528 -0.17221 1.00936
0.925449 -0.174018 1.00946
0.925398 -0.176158 1.00947
0.925346 -0.178298 1.00947
0.925295 -0.180437 1.00948
0.924216 -0.182236 1.00958
0.924165 -0.184374 1.00959
0.924114 -0.186512 1.00959
0.923035 -0.188304 1.00969
0.922984 -0.19044 1.0097
0.922933 -0.192577 1.0097
0.921855 -0.194362 1.0098
0.921804 -0.196496 1.00981
0.921753 -0.198631 1.00981
0.921702 -0.200765 1.00982
0.921651 -0.2029 1.00983
0.9216 -0.205034 1.00983
0.919494 -0.206445 1.01002
0.919443 -0.208576 1.01003
0.919392 -0.210707 1.01004
0.917287 -0.212104 1.01022
0.917236 -0.214231 1.01023
0.917186 -0.216359 1.01024
0.917135 -0.218486 1.01024
0.91503 -0.219865 1.01043
0.914979 -0.221989 1.01044
0.914928 -0.224113 1.01045
0.911797 -0.225099 1.01073
0.911747 -0.227218 1.01073
0.911696 -0.229337 1.01074
0.907539 -0.229917 1.01111
0.907489 -0.232029 1.01112
0.907438 -0.23414 1.01112
0.903282 -0.234693 1.01149
0.903231 -0.236797 1.0115
0.903181 -0.238902 1.01151
0.900052 -0.239821 1.01179
0.900001 -0.241921 1.01179
0.899951 -0.24402 1.0118
0.899901 -0.246119 1.0118
0.896772 -0.247012 1.01208
0.896722 -0.249107 1.01209
0.896672 -0.251201 1.0121
0.893544 -0.252073 1.01238
0.893494 -0.254161 1.01238
0.893444 -0.25625 1.01239
0.890316 -0.257101 1.01267
0.890266 -0.259185 1.01268
0.890216 -0.261269 1.01268
0.920969 0.190175 1.00746
0.920918 0.188056 1.00747
0.920868 0.185937 1.00747
0.92392 0.183696 1.0072
0.923869 0.181572 1.0072
0.923818 0.179448 1.00721
0.92687 0.177186 1.00694
0.926819 0.175057 1.00694
0.926768 0.172928 1.00695
0.926717 0.170798 1.00696
0.928734 0.168563 1.00678
0.928683 0.16643 1.00678
0.928632 0.164298 1.00679
0.930648 0.162048 1.00661
0.930597 0.159912 1.00661
0.930546 0.157776 1.00662
0.932563 0.155512 1.00644
0.932511 0.153373 1.00645
0.93246 0.151233 1.00645
0.933443 0.149024 1.00637
0.933391 0.146883 1.00637
0.93334 0.144741 1.00638
0.934322 0.142526 1.00629
0.934271 0.140382 1.0063
0.93422 0.138239 1.00631
0.936235 0.135937 1.00613
0.936184 0.13379 1.00613
0.936132 0.131644 1.00614
0.936081 0.129497 1.00615
0.93603 0.12735 1.00615
0.935979 0.125203 1.00616
0.935927 0.123057 1.00617
0.936909 0.120818 1.00608
0.936858 0.11867 1.00609
0.936806 0.116521 1.00609
0.93882 0.114179 1.00591
0.938769 0.112027 1.00592
0.938718 0.109875 1.00593
0.938666 0.107723 1.00593
0.938615 0.105571 1.00594
0.938563 0.103419 1.00595
0.939544 0.101159 1.00586
0.939493 0.0990056 1.00587
0.939441 0.0968518 1.00587
0.941455 0.0944726 1.00569
0.941403 0.0923153 1.0057
0.941352 0.0901581 1.0057
0.943365 0.0877648 1.00552
0.943313 0.0856041 1.00553
0.943261 0.0834433 1.00554
0.94321 0.0812825 1.00554
0.945222 0.0788717 1.00536
0.945171 0.0767074 1.00537
0.945119 0.0745432 1.00538
0.948163 0.0719881 1.0051
0.948112 0.0698185 1.00511
0.94806 0.067649 1.00512
0.951104 0.0650729 1.00484
0.951052 0.0628981 1.00485
0.951 0.0607233 1.00486
0.953011 0.0582669 1.00468
0.952959 0.0560886 1.00468
0.952907 0.0539103 1.00469
0.954918 0.0514399 1.00451
0.954866 0.049258 1.00452
0.954814 0.0470762 1.00452
0.955793 0.0447431 1.00444
0.955741 0.0425595 1.00444
0.955689 0.0403759 1.00445
0.955637 0.0381924 1.00446
0.956616 0.0358505 1.00437
0.956564 0.0336651 1.00438
0.956512 0.0314798 1.00439
0.956459 0.0292945 1.00439
0.956407 0.0271091 1.0044
0.956355 0.0249238 1.00441
0.957334 0.0225696 1.00432
0.957281 0.0203826 1.00433
0.957229 0.0181955 1.00433
0.957177 0.0160084 1.00434
0.957124 0.0138213 1.00435
0.957072 0.0116342 1.00435
0.95702 0.00944715 1.00436
0.956968 0.00726006 1.00437
0.956915 0.00507298 1.00437
0.956863 0.0028859 1.00438
0.956811 0.000698806 1.00439
0.956758 -0.00148827 1.00439
0.956706 -0.00367537 1.0044
0.956654 -0.00586244 1.00441
0.956602 -0.00804952 1.00441
0.956549 -0.0102366 1.00442
0.957527 -0.0126206 1.00433
0.957475 -0.0148094 1.00434
0.957423 -0.0169983 1.00435
0.958401 -0.0193893 1.00426
0.958348 -0.0215799 1.00427
0.958296 -0.0237705 1.00428
0.959274 -0.0261685 1.00419
0.959221 -0.0283608 1.0042
0.959169 -0.0305532 1.0042
0.961177 -0.0331709 1.00402
0.961124 -0.0353668 1.00403
0.961072 -0.0375626 1.00404
0.962049 -0.0399764 1.00395
0.961997 -0.042174 1.00396
0.961944 -0.0443716 1.00396
0.961892 -0.0465693 1.00397
0.961839 -0.0487669 1.00398
0.961787 -0.0509645 1.00398
0.961734 -0.0531621 1.00399
0.961681 -0.0553597 1.004
0.961629 -0.0575573 1.004
0.960547 -0.0595212 1.0041
0.960494 -0.061717 1.00411
0.960442 -0.0639129 1.00412
0.960389 -0.0661087 1.00412
0.960337 -0.0683046 1.00413
0.960284 -0.0705004 1.00414
0.960232 -0.0726963 1.00415
0.960179 -0.0748921 1.00415
0.960127 -0.077088 1.00416
0.960074 -0.0792838 1.00417
0.958993 -0.0812284 1.00427
0.95894 -0.0834225 1.00427
0.958888 -0.0856166 1.00428
0.957806 -0.0875542 1.00438
0.957754 -0.0897465 1.00439
0.957701 -0.0919389 1.00439
0.955591 -0.0936076 1.00459
0.955539 -0.0957964 1.00459
0.955486 -0.0979853 1.0046
0.953376 -0.09964 1.00479
0.953324 -0.101825 1.0048
0.953272 -0.104011 1.00481
0.951162 -0.105651 1.005
0.95111 -0.107833 1.005
0.951058 -0.110015 1.00501
0.94792 -0.111364 1.0053
0.947868 -0.113541 1.0053
0.947816 -0.115717 1.00531
0.947764 -0.117894 1.00532
0.944627 -0.119216 1.0056
0.944575 -0.121388 1.00561
0.944523 -0.123559 1.00562
0.941386 -0.124861 1.0059
0.941335 -0.127027 1.00591
0.941283 -0.129193 1.00592
0.938147 -0.130474 1.0062
0.938095 -0.132634 1.00621
0.938043 -0.134795 1.00621
0.934908 -0.136055 1.0065
0.934856 -0.13821 1.00651
0.934804 -0.140366 1.00651
0.932697 -0.14191 1.00671
0.932646 -0.144062 1.00671
0.932594 -0.146214 1.00672
0.932543 -0.148366 1.00673
0.931464 -0.150205 1.00683
0.931412 -0.152356 1.00683
0.931361 -0.154506 1.00684
0.930282 -0.156338 1.00694
0.93023 -0.158487 1.00694
0.930179 -0.160635 1.00695
0.9291 -0.16246 1.00705
0.929049 -0.164607 1.00706
0.928998 -0.166754 1.00706
0.927919 -0.168572 1.00716
0.927868 -0.170717 1.00717
0.927816 -0.172862 1.00718
0.926738 -0.174673 1.00728
0.926687 -0.176817 1.00728
0.926635 -0.17896 1.00729
0.926584 -0.181103 1.0073
0.925506 -0.182906 1.0074
0.925455 -0.185047 1.0074
0.925403 -0.187189 1.00741
0.924325 -0.188984 1.00751
0.924274 -0.191124 1.00752
0.924223 -0.193264 1.00752
0.923145 -0.195052 1.00762
0.923094 -0.19719 1.00763
0.923043 -0.199328 1.00763
0.921965 -0.201109 1.00773
0.921914 -0.203246 1.00774
0.921863 -0.205382 1.00775
0.919759 -0.206795 1.00794
0.919708 -0.208927 1.00795
0.919657 -0.21106 1.00795
0.917553 -0.212459 1.00814
0.917502 -0.214588 1.00815
0.917451 -0.216717 1.00816
0.9174 -0.218846 1.00816
0.915297 -0.220227 1.00836
0.915246 -0.222353 1.00836
0.915195 -0.224479 1.00837
0.912066 -0.225467 1.00865
0.912015 -0.227587 1.00866
0.911965 -0.229707 1.00867
0.90781 -0.23029 1.00904
0.907759 -0.232403 1.00905
0.907709 -0.234516 1.00906
0.903555 -0.235071 1.00943
0.903504 -0.237177 1.00944
0.903454 -0.239283 1.00945
0.900327 -0.240204 1.00973
0.900276 -0.242306 1.00974
0.900226 -0.244407 1.00974
0.900176 -0.246508 1.00975
0.897049 -0.247403 1.01004
0.896999 -0.249499 1.01004
0.896949 -0.251594 1.01005
0.893822 -0.252468 1.01033
0.893772 -0.254559 1.01034
0.893722 -0.256649 1.01035
0.890596 -0.257502 1.01063
0.890546 -0.259588 1.01064
0.890497 -0.261673 1.01064
0.920211 0.190187 1.00548
0.920161 0.188068 1.00549
0.92011 0.185949 1.00549
0.92316 0.183708 1.00521
0.923109 0.181584 1.00522
0.923059 0.17946 1.00523
0.926108 0.177198 1.00495
0.926057 0.175069 1.00495
0.926006 0.17294 1.00496
0.925955 0.17081 1.00497
0.927971 0.168575 1.00478
0.92792 0.166442 1.00479
0.927869 0.16431 1.0048
0.929885 0.16206 1.00461
0.929833 0.159924 1.00462
0.929782 0.157788 1.00463
0.931797 0.155524 1.00444
0.931746 0.153385 1.00445
0.931695 0.151245 1.00446
0.932677 0.149036 1.00437
0.932625 0.146895 1.00437
0.932574 0.144753 1.00438
0.933556 0.142538 1.00429
0.933505 0.140394 1.0043
0.933453 0.138251 1.0043
0.935467 0.135949 1.00412
0.935416 0.133802 1.00413
0.935365 0.131656 1.00413
0.935313 0.129509 1.00414
0.935262 0.127362 1.00415
0.935211 0.125215 1.00415
0.935159 0.123069 1.00416
0.936141 0.12083 1.00407
0.936089 0.118682 1.00408
0.936038 0.116533 1.00409
0.938051 0.114191 1.0039
0.937999 0.112039 1.00391
0.937948 0.109887 1.00391
0.937897 0.107735 1.00392
0.937845 0.105583 1.00393
0.937794 0.103431 1.00393
0.938774 0.101172 1.00385
0.938723 0.0990177 1.00385
0.938671 0.096864 1.00386
0.940683 0.0944848 1.00368
0.940632 0.0923275 1.00368
0.94058 0.0901703 1.00369
0.942592 0.0877771 1.00351
0.94254 0.0856163 1.00351
0.942489 0.0834555 1.00352
0.942437 0.0812947 1.00353
0.944449 0.078884 1.00334
0.944397 0.0767197 1.00335
0.944345 0.0745554 1.00336
0.947388 0.0720004 1.00308
0.947336 0.0698308 1.00308
0.947284 0.0676613 1.00309
0.950326 0.0650852 1.00281
0.950274 0.0629104 1.00282
0.950222 0.0607356 1.00283
0.952232 0.0582792 1.00264
0.95218 0.0561009 1.00265
0.952128 0.0539226 1.00266
0.954138 0.0514522 1.00247
0.954086 0.0492704 1.00248
0.954034 0.0470886 1.00249
0.955013 0.0447554 1.0024
0.95496 0.0425719 1.0024
0.954908 0.0403883 1.00241
0.954856 0.0382047 1.00242
0.955835 0.0358628 1.00233
0.955782 0.0336775 1.00234
0.95573 0.0314922 1.00234
0.955678 0.0293068 1.00235
0.955626 0.0271215 1.00236
0.955573 0.0249362 1.00236
0.956552 0.022582 1.00228
0.956499 0.0203949 1.00228
0.956447 0.0182078 1.00229
0.956395 0.0160208 1.0023
0.956342 0.0138337 1.0023
0.95629 0.0116466 1.00231
0.956238 0.00945952 1.00232
0.956185 0.00727243 1.00232
0.956133 0.00508535 1.00233
0.956081 0.00289827 1.00234
0.956029 0.000711175 1.00234
0.955976 -0.0014759 1.00235
0.955924 -0.003663 1.00236
0.955872 -0.00585007 1.00236
0.955819 -0.00803715 1.00237
0.955767 -0.0102242 1.00238
0.956745 -0.0126082 1.00229
0.956692 -0.0147971 1.0023
0.95664 -0.0169859 1.0023
0.957617 -0.0193769 1.00222
0.957565 -0.0215675 1.00222
0.957513 -0.0237581 1.00223
0.95849 -0.0261561 1.00214
0.958437 -0.0283484 1.00215
0.958385 -0.0305408 1.00215
0.960391 -0.0331585 1.00197
0.960339 -0.0353543 1.00198
0.960286 -0.0375502 1.00198
0.961263 -0.039964 1.0019
0.961211 -0.0421616 1.0019
0.961158 -0.0443592 1.00191
0.961106 -0.0465568 1.00192
0.961053 -0.0487544 1.00192
0.961001 -0.050952 1.00193
0.960948 -0.0531496 1.00194
0.960896 -0.0553472 1.00194
0.960843 -0.0575448 1.00195
0.959761 -0.0595087 1.00205
0.959709 -0.0617046 1.00206
0.959656 -0.0639004 1.00207
0.959604 -0.0660963 1.00207
0.959551 -0.0682921 1.00208
0.959499 -0.070488 1.00209
0.959446 -0.0726839 1.00209
0.959394 -0.0748797 1.0021
0.959341 -0.0770756 1.00211
0.959289 -0.0792714 1.00211
0.958208 -0.081216 1.00222
0.958155 -0.0834101 1.00222
0.958103 -0.0856042 1.00223
0.957022 -0.0875418 1.00233
0.95697 -0.0897341 1.00234
0.956917 -0.0919265 1.00234
0.954808 -0.0935952 1.00254
0.954756 -0.095784 1.00255
0.954704 -0.0979729 1.00255
0.952595 -0.0996276 1.00275
0.952543 -0.101813 1.00276
0.95249 -0.103998 1.00276
0.950382 -0.105639 1.00296
0.95033 -0.107821 1.00297
0.950278 -0.110003 1.00297
0.947142 -0.111352 1.00326
0.94709 -0.113528 1.00327
0.947038 -0.115705 1.00328
0.946986 -0.117881 1.00328
0.94385 -0.119204 1.00357
0.943798 -0.121375 1.00358
0.943746 -0.123547 1.00359
0.940612 -0.124849 1.00388
0.94056 -0.127015 1.00389
0.940508 -0.129181 1.00389
0.937374 -0.130461 1.00418
0.937322 -0.132622 1.00419
0.93727 -0.134783 1.0042
0.934137 -0.136042 1.00449
0.934085 -0.138198 1.00449
0.934034 -0.140353 1.0045
0.931928 -0.141898 1.0047
0.931876 -0.14405 1.0047
0.931825 -0.146202 1.00471
0.931773 -0.148354 1.00472
0.930695 -0.150193 1.00482
0.930643 -0.152343 1.00482
0.930592 -0.154494 1.00483
0.929513 -0.156326 1.00493
0.929462 -0.158474 1.00494
0.929411 -0.160623 1.00494
0.928332 -0.162448 1.00505
0.928281 -0.164595 1.00505
0.92823 -0.166742 1.00506
0.927152 -0.16856 1.00516
0.927101 -0.170705 1.00517
0.927049 -0.17285 1.00517
0.925971 -0.174661 1.00527
0.92592 -0.176805 1.00528
0.925869 -0.178948 1.00529
0.925818 -0.181091 1.00529
0.92474 -0.182894 1.0054
0.924689 -0.185035 1.0054
0.924638 -0.187177 1.00541
0.92356 -0.188972 1.00551
0.923509 -0.191112 1.00552
0.923458 -0.193252 1.00552
0.92238 -0.19504 1.00562
0.922329 -0.197178 1.00563
0.922278 -0.199316 1.00564
0.921201 -0.201097 1.00574
0.92115 -0.203234 1.00574
0.921099 -0.20537 1.00575
0.918996 -0.206783 1.00595
0.918945 -0.208915 1.00595
0.918894 -0.211048 1.00596
0.916791 -0.212447 1.00616
0.916741 -0.214576 1.00616
0.91669 -0.216705 1.00617
0.916639 -0.218834 1.00617
0.914537 -0.220215 1.00637
0.914486 -0.222341 1.00638
0.914435 -0.224467 1.00638
0.911308 -0.225455 1.00667
0.911257 -0.227575 1.00668
0.911206 -0.229695 1.00669
0.907054 -0.230278 1.00707
0.907004 -0.232391 1.00708
0.906953 -0.234504 1.00708
0.902802 -0.235059 1.00747
0.902751 -0.237165 1.00747
0.902701 -0.239271 1.00748
0.899575 -0.240193 1.00777
0.899525 -0.242294 1.00778
0.899475 -0.244395 1.00778
0.899424 -0.246496 1.00779
0.896299 -0.247391 1.00808
0.896249 -0.249487 1.00808
0.896199 -0.251583 1.00809
0.893075 -0.252456 1.00838
0.893025 -0.254547 1.00839
0.892975 -0.256638 1.00839
0.889851 -0.25749 1.00868
0.889801 -0.259576 1.00869
0.889751 -0.261661 1.00869
0.92152 0.190127 1.00331
0.921469 0.188005 1.00331
0.921418 0.185883 1.00332
0.924467 0.183638 1.00304
0.924416 0.181511 1.00304
0.924365 0.179384 1.00305
0.927412 0.177118 1.00276
0.927361 0.174985 1.00277
0.92731 0.172853 1.00278
0.929325 0.170617 1.00259
0.929274 0.168481 1.0026
0.929223 0.166345 1.0026
0.929172 0.164209 1.00261
0.931186 0.161956 1.00242
0.931134 0.159816 1.00243
0.931083 0.157676 1.00244
0.933097 0.155409 1.00225
0.933046 0.153266 1.00226
0.932994 0.151123 1.00226
0.933976 0.148911 1.00217
0.933924 0.146766 1.00218
0.933873 0.144621 1.00219
0.934854 0.142402 1.0021
0.934802 0.140255 1.0021
0.934751 0.138108 1.00211
0.936764 0.135803 1.00192
0.936712 0.133652 1.00193
0.936661 0.131502 1.00193
0.93661 0.129352 1.00194
0.936558 0.127202 1.00195
0.936507 0.125051 1.00195
0.936455 0.122901 1.00196
0.937436 0.120659 1.00187
0.937384 0.118507 1.00188
0.937333 0.116355 1.00188
0.939344 0.114009 1.0017
0.939293 0.111854 1.0017
0.939241 0.109698 1.00171
0.940221 0.107441 1.00162
0.94017 0.105283 1.00163
0.940118 0.103126 1.00163
0.941098 0.100861 1.00154
0.941046 0.0987023 1.00155
0.940995 0.0965433 1.00156
0.943006 0.0941589 1.00137
0.942954 0.0919964 1.00138
0.942902 0.0898338 1.00138
0.944913 0.0874354 1.0012
0.944861 0.0852693 1.0012
0.944809 0.0831033 1.00121
0.944757 0.0809373 1.00122
0.946767 0.0785213 1.00103
0.946715 0.0763517 1.00104
0.946664 0.0741822 1.00104
0.949704 0.0716219 1.00076
0.949652 0.0694471 1.00077
0.9496 0.0672723 1.00077
0.95264 0.064691 1.00049
0.952588 0.0625109 1.0005
0.952536 0.0603308 1.0005
0.954545 0.0578692 1.00032
0.954493 0.0556857 1.00032
0.954441 0.0535021 1.00033
0.956449 0.0510265 1.00014
0.956397 0.0488394 1.00015
0.954284 0.0469514 1.00035
0.954232 0.0447678 1.00036
0.95418 0.0425842 1.00037
