ply
format ascii 1.0
comment Created by Open3D
element vertex 1794
property double x
property double y
property double z
end_header
0.820794 0.172676 0.568033
0.820741 0.170445 0.56804
0.834939 0.419545 0.560821
0.834885 0.417297 0.560828
0.832109 0.414623 0.562145
0.832056 0.412379 0.562152
0.832002 0.410136 0.562159
0.831949 0.407893 0.562166
0.831895 0.40565 0.562173
0.830027 0.40314 0.563053
0.829973 0.400901 0.56306
0.82992 0.398661 0.563067
0.829866 0.396421 0.563074
0.829812 0.394181 0.563081
0.829759 0.391942 0.563088
0.829705 0.389702 0.563095
0.831466 0.387704 0.562229
0.831412 0.385461 0.562236
0.831359 0.383218 0.562243
0.831305 0.380974 0.56225
0.831251 0.378731 0.562257
0.831198 0.376488 0.562264
0.831144 0.374245 0.56227
0.83381 0.372327 0.560968
0.833756 0.370079 0.560975
0.833703 0.36783 0.560982
0.833649 0.365582 0.560989
0.833595 0.363334 0.560996
0.833541 0.361085 0.561003
0.833488 0.358837 0.56101
0.833434 0.356588 0.561016
0.830661 0.354056 0.562333
0.830608 0.351813 0.56234
0.830554 0.34957 0.562347
0.8305 0.347326 0.562354
0.830447 0.345083 0.562361
0.830393 0.34284 0.562368
0.830339 0.340597 0.562375
0.828474 0.338189 0.563255
0.82842 0.335949 0.563262
0.828367 0.33371 0.563269
0.825595 0.331239 0.564585
0.825542 0.329004 0.564592
0.825489 0.32677 0.564599
0.825435 0.324536 0.564606
0.825382 0.322301 0.564613
0.825328 0.320067 0.56462
0.825275 0.317832 0.564627
0.825221 0.315598 0.564634
0.825168 0.313363 0.56464
0.823303 0.311006 0.56552
0.82325 0.308775 0.565527
0.823197 0.306545 0.565534
0.823143 0.304314 0.565541
0.82309 0.302083 0.565548
0.823037 0.299852 0.565555
0.822983 0.297621 0.565562
0.820215 0.295243 0.566878
0.820161 0.293017 0.566885
0.820108 0.290792 0.566892
0.820055 0.288566 0.566899
0.820002 0.28634 0.566906
0.819948 0.284115 0.566912
0.819895 0.281889 0.566919
0.819842 0.279663 0.566926
0.817074 0.277333 0.568242
0.817021 0.275113 0.568249
0.816968 0.272892 0.568256
0.816915 0.270672 0.568263
0.816862 0.268451 0.56827
0.816809 0.266231 0.568277
0.816756 0.26401 0.568284
0.816702 0.26179 0.56829
0.816649 0.25957 0.568297
0.81931 0.257407 0.566995
0.819257 0.255181 0.567002
0.819203 0.252955 0.567009
0.81915 0.25073 0.567016
0.819097 0.248504 0.567023
0.819044 0.246278 0.56703
0.821703 0.244079 0.565728
0.82165 0.241848 0.565735
0.821596 0.239617 0.565742
0.823351 0.237392 0.564876
0.823298 0.235158 0.564883
0.823245 0.232924 0.56489
0.823191 0.230689 0.564897
0.823138 0.228455 0.564904
0.823084 0.22622 0.564911
0.823031 0.223986 0.564917
0.822977 0.221751 0.564924
0.822924 0.219517 0.564931
0.822871 0.217282 0.564938
0.822817 0.215048 0.564945
0.822764 0.212814 0.564952
0.82271 0.210579 0.564959
0.822657 0.208345 0.564966
0.822604 0.20611 0.564973
0.82255 0.203876 0.56498
0.822497 0.201641 0.564987
0.822443 0.199407 0.564994
0.82239 0.197173 0.565001
0.822336 0.194938 0.565008
0.822283 0.192704 0.565014
0.82223 0.190469 0.565021
0.822176 0.188235 0.565028
0.822123 0.186 0.565035
0.822069 0.183766 0.565042
0.822016 0.181531 0.565049
0.821962 0.179297 0.565056
0.821909 0.177063 0.565063
0.82005 0.17492 0.565942
0.819996 0.172689 0.565949
0.819943 0.170458 0.565956
0.834135 0.419558 0.558721
0.834081 0.41731 0.558728
0.831307 0.414635 0.56005
0.831254 0.412392 0.560057
0.8312 0.410149 0.560064
0.831146 0.407906 0.560071
0.831093 0.405662 0.560078
0.829226 0.403153 0.560961
0.829172 0.400913 0.560968
0.829119 0.398674 0.560975
0.829065 0.396434 0.560982
0.829012 0.394194 0.560989
0.828958 0.391954 0.560996
0.828904 0.389715 0.561003
0.830664 0.387717 0.560133
0.83061 0.385474 0.56014
0.830556 0.38323 0.560147
0.830503 0.380987 0.560154
0.830449 0.378744 0.560161
0.830395 0.376501 0.560168
0.830342 0.374258 0.560175
0.833006 0.37234 0.558867
0.832952 0.370092 0.558874
0.832899 0.367843 0.558881
0.832845 0.365595 0.558888
0.832791 0.363346 0.558895
0.832737 0.361098 0.558902
0.832683 0.358849 0.558909
0.83263 0.356601 0.558916
0.829859 0.354069 0.560238
0.829805 0.351825 0.560244
0.829752 0.349582 0.560251
0.829698 0.347339 0.560258
0.829644 0.345096 0.560265
0.829591 0.342853 0.560272
0.829537 0.340609 0.560279
0.827673 0.338202 0.561163
0.827619 0.335962 0.561169
0.827566 0.333722 0.561176
0.824796 0.331251 0.562498
0.824743 0.329017 0.562505
0.82469 0.326783 0.562512
0.824636 0.324548 0.562519
0.824583 0.322314 0.562525
0.824529 0.320079 0.562532
0.824476 0.317845 0.562539
0.824422 0.31561 0.562546
0.824369 0.313376 0.562553
0.822506 0.311019 0.563436
0.822452 0.308788 0.563443
0.822399 0.306557 0.56345
0.822346 0.304326 0.563457
0.822292 0.302095 0.563464
0.822239 0.299864 0.563471
0.822186 0.297633 0.563478
0.819419 0.295256 0.564799
0.819365 0.29303 0.564806
0.819312 0.290804 0.564813
0.819259 0.288579 0.564819
0.819206 0.286353 0.564826
0.819152 0.284127 0.564833
0.819099 0.281902 0.56484
0.819046 0.279676 0.564847
0.81628 0.277345 0.566168
0.816227 0.275125 0.566175
0.816174 0.272905 0.566182
0.816121 0.270684 0.566189
0.816068 0.268464 0.566196
0.816015 0.266243 0.566202
0.815962 0.264023 0.566209
0.815908 0.261803 0.566216
0.815855 0.259582 0.566223
0.818514 0.257419 0.564916
0.818461 0.255194 0.564923
0.818407 0.252968 0.56493
0.818354 0.250742 0.564937
0.818301 0.248517 0.564944
0.818248 0.246291 0.564951
0.820905 0.244091 0.563644
0.820852 0.24186 0.563651
0.820799 0.239629 0.563658
0.822552 0.237405 0.562789
0.822499 0.235171 0.562796
0.822446 0.232936 0.562802
0.822392 0.230702 0.562809
0.822339 0.228467 0.562816
0.822285 0.226233 0.562823
0.822232 0.223998 0.56283
0.822178 0.221764 0.562837
0.822125 0.21953 0.562844
0.822072 0.217295 0.562851
0.822018 0.215061 0.562858
0.821965 0.212826 0.562865
0.821911 0.210592 0.562872
0.821858 0.208357 0.562879
0.821804 0.206123 0.562886
0.821751 0.203888 0.562892
0.821698 0.201654 0.562899
0.821644 0.19942 0.562906
0.821591 0.197185 0.562913
0.821537 0.194951 0.56292
0.821484 0.192716 0.562927
0.82143 0.190482 0.562934
0.821377 0.188247 0.562941
0.821324 0.186013 0.562948
0.82127 0.183779 0.562955
0.821217 0.181544 0.562962
0.819358 0.179394 0.563844
0.819305 0.177163 0.563851
0.819252 0.174932 0.563858
0.819198 0.172701 0.563865
0.819145 0.17047 0.563872
0.833331 0.419571 0.55662
0.830559 0.416891 0.557947
0.830505 0.414648 0.557954
0.830451 0.412405 0.557961
0.830398 0.410162 0.557968
0.830344 0.407918 0.557975
0.828478 0.405405 0.558862
0.828425 0.403166 0.558869
0.828371 0.400926 0.558876
0.828318 0.398686 0.558883
0.828264 0.396447 0.55889
0.828211 0.394207 0.558897
0.828157 0.391967 0.558904
0.828103 0.389727 0.558911
0.829861 0.387729 0.558038
0.829808 0.385486 0.558045
0.829754 0.383243 0.558052
0.8297 0.381 0.558059
0.829647 0.378757 0.558066
0.829593 0.376513 0.558072
0.82954 0.37427 0.558079
0.829486 0.372027 0.558086
0.829432 0.369784 0.558093
0.829379 0.367541 0.5581
0.832041 0.365607 0.556788
0.831987 0.363359 0.556795
0.829218 0.360811 0.558121
0.829164 0.358568 0.558128
0.82911 0.356325 0.558135
0.829057 0.354081 0.558142
0.829003 0.351838 0.558149
0.82895 0.349595 0.558156
0.828896 0.347352 0.558163
0.828842 0.345109 0.55817
0.826979 0.342694 0.559056
0.826925 0.340454 0.559063
0.826872 0.338214 0.55907
0.824104 0.335733 0.560397
0.824051 0.333499 0.560403
0.823997 0.331264 0.56041
0.823944 0.32903 0.560417
0.82389 0.326795 0.560424
0.823837 0.324561 0.560431
0.823784 0.322326 0.560438
0.821921 0.319955 0.561325
0.821868 0.317724 0.561331
0.821815 0.315494 0.561338
0.821761 0.313263 0.561345
0.821708 0.311032 0.561352
0.821655 0.308801 0.561359
0.821601 0.30657 0.561366
0.821548 0.304339 0.561373
0.821494 0.302108 0.56138
0.821441 0.299877 0.561387
0.821388 0.297646 0.561394
0.818623 0.295268 0.56272
0.818569 0.293043 0.562727
0.818516 0.290817 0.562733
0.818463 0.288591 0.56274
0.81841 0.286366 0.562747
0.818357 0.28414 0.562754
0.818303 0.281914 0.562761
0.81825 0.279689 0.562768
0.818197 0.277463 0.562775
0.818144 0.275237 0.562782
0.81809 0.273012 0.562789
0.818037 0.270786 0.562796
0.817984 0.26856 0.562802
0.817931 0.266335 0.562809
0.817878 0.264109 0.562816
0.817824 0.261883 0.562823
0.817771 0.259658 0.56283
0.817718 0.257432 0.562837
0.817665 0.255206 0.562844
0.817612 0.252981 0.562851
0.820268 0.250797 0.561539
0.820214 0.248566 0.561546
0.820161 0.246335 0.561553
0.820108 0.244104 0.56156
0.82186 0.241887 0.560687
0.821807 0.239652 0.560694
0.821753 0.237418 0.560701
0.8217 0.235183 0.560708
0.821646 0.232949 0.560715
0.821593 0.230714 0.560722
0.82154 0.22848 0.560729
0.821486 0.226246 0.560736
0.821433 0.224011 0.560743
0.821379 0.221777 0.56075
0.821326 0.219542 0.560757
0.821272 0.217308 0.560764
0.821219 0.215073 0.560771
0.821166 0.212839 0.560777
0.821112 0.210604 0.560784
0.821059 0.20837 0.560791
0.821005 0.206136 0.560798
0.820952 0.203901 0.560805
0.820899 0.201667 0.560812
0.820845 0.199432 0.560819
0.820792 0.197198 0.560826
0.820738 0.194963 0.560833
0.820685 0.192729 0.56084
0.818827 0.190561 0.561726
0.818774 0.18833 0.561733
0.818721 0.1861 0.561739
0.818667 0.183869 0.561746
0.818614 0.181638 0.561753
0.818561 0.179407 0.56176
0.818507 0.177176 0.561767
0.818454 0.174945 0.561774
0.818401 0.172714 0.561781
0.818347 0.170483 0.561788
0.832527 0.419583 0.55452
0.829756 0.416904 0.555852
0.829703 0.414661 0.555859
0.829649 0.412417 0.555866
0.829596 0.410174 0.555873
0.829542 0.407931 0.55588
0.827677 0.405418 0.55677
0.827624 0.403178 0.556777
0.82757 0.400939 0.556784
0.827517 0.398699 0.556791
0.827463 0.396459 0.556798
0.82741 0.394219 0.556805
0.827356 0.39198 0.556811
0.827303 0.38974 0.556818
0.829059 0.387742 0.555942
0.829006 0.385499 0.555949
0.828952 0.383256 0.555956
0.828898 0.381013 0.555963
0.828845 0.378769 0.55597
0.828791 0.376526 0.555977
0.828737 0.374283 0.555984
0.828684 0.37204 0.555991
0.82863 0.369797 0.555998
0.828576 0.367553 0.556005
0.831237 0.36562 0.554687
0.831183 0.363372 0.554694
0.828416 0.360824 0.556026
0.828362 0.35858 0.556033
0.828308 0.356337 0.55604
0.828255 0.354094 0.556046
0.828201 0.351851 0.556053
0.828147 0.349608 0.55606
0.828094 0.347364 0.556067
0.82804 0.345121 0.556074
0.826178 0.342706 0.556964
0.826124 0.340467 0.556971
0.826071 0.338227 0.556978
0.823305 0.335746 0.558309
0.823252 0.333511 0.558316
0.823198 0.331277 0.558323
0.823145 0.329042 0.55833
0.823091 0.326808 0.558337
0.823038 0.324573 0.558344
0.822985 0.322339 0.558351
0.821123 0.319968 0.559241
0.82107 0.317737 0.559247
0.821017 0.315506 0.559254
0.820963 0.313275 0.559261
0.82091 0.311044 0.559268
0.820857 0.308813 0.559275
0.820803 0.306582 0.559282
0.82075 0.304351 0.559289
0.820697 0.302121 0.559296
0.820643 0.29989 0.559303
0.82059 0.297659 0.55931
0.817827 0.295281 0.560641
0.817774 0.293055 0.560647
0.81772 0.290829 0.560654
0.817667 0.288604 0.560661
0.817614 0.286378 0.560668
0.817561 0.284152 0.560675
0.817507 0.281927 0.560682
0.817454 0.279701 0.560689
0.817401 0.277475 0.560696
0.817348 0.27525 0.560703
0.817295 0.273024 0.560709
0.817241 0.270798 0.560716
0.817188 0.268573 0.560723
0.817135 0.266347 0.56073
0.817082 0.264121 0.560737
0.817028 0.261896 0.560744
0.816975 0.25967 0.560751
0.816922 0.257444 0.560758
0.819576 0.255271 0.559441
0.819523 0.25304 0.559448
0.81947 0.250809 0.559455
0.819416 0.248578 0.559462
0.819363 0.246347 0.559469
0.81931 0.244116 0.559476
0.821061 0.241899 0.5586
0.821008 0.239665 0.558607
0.820954 0.23743 0.558614
0.820901 0.235196 0.558621
0.820847 0.232961 0.558628
0.820794 0.230727 0.558635
0.820741 0.228493 0.558642
0.820687 0.226258 0.558649
0.820634 0.224024 0.558656
0.82058 0.221789 0.558662
0.820527 0.219555 0.558669
0.820473 0.21732 0.558676
0.82042 0.215086 0.558683
0.820367 0.212852 0.55869
0.820313 0.210617 0.558697
0.82026 0.208383 0.558704
0.820206 0.206148 0.558711
0.820153 0.203914 0.558718
0.820099 0.201679 0.558725
0.820046 0.199445 0.558732
0.819993 0.19721 0.558739
0.819939 0.194976 0.558746
0.819886 0.192742 0.558752
0.818029 0.190574 0.559642
0.817976 0.188343 0.559648
0.817923 0.186112 0.559655
0.817869 0.183881 0.559662
0.817816 0.18165 0.559669
0.817763 0.179419 0.559676
0.817709 0.177188 0.559683
0.817656 0.174958 0.55969
0.817603 0.172727 0.559697
0.817549 0.170496 0.559704
0.814793 0.168418 0.561034
0.831723 0.419596 0.55242
0.828954 0.416917 0.553756
0.828901 0.414673 0.553763
0.828847 0.41243 0.55377
0.828793 0.410187 0.553777
0.82874 0.407944 0.553784
0.826876 0.405431 0.554678
0.826823 0.403191 0.554684
0.826769 0.400951 0.554691
0.826716 0.398712 0.554698
0.826662 0.396472 0.554705
0.826609 0.394232 0.554712
0.826555 0.391992 0.554719
0.826502 0.389753 0.554726
0.828257 0.387755 0.553847
0.828203 0.385512 0.553854
0.82815 0.383268 0.553861
0.828096 0.381025 0.553868
0.828042 0.378782 0.553874
0.827989 0.376539 0.553881
0.827935 0.374296 0.553888
0.827882 0.372052 0.553895
0.827828 0.369809 0.553902
0.827774 0.367566 0.553909
0.827721 0.365323 0.553916
0.827667 0.36308 0.553923
0.827613 0.360836 0.55393
0.82756 0.358593 0.553937
0.827506 0.35635 0.553944
0.827452 0.354107 0.553951
0.827399 0.351864 0.553958
0.827345 0.34962 0.553965
0.825484 0.347198 0.554858
0.825431 0.344959 0.554865
0.822666 0.342462 0.556201
0.822613 0.340227 0.556208
0.822559 0.337993 0.556215
0.822506 0.335758 0.556222
0.822453 0.333524 0.556229
0.822399 0.331289 0.556236
0.820539 0.328904 0.557129
0.820486 0.326673 0.557136
0.820432 0.324442 0.557143
0.820379 0.322212 0.55715
0.820326 0.319981 0.557156
0.820272 0.31775 0.557163
0.820219 0.315519 0.55717
0.820166 0.313288 0.557177
0.820112 0.311057 0.557184
0.820059 0.308826 0.557191
0.817297 0.306422 0.558527
0.817244 0.304196 0.558534
0.81719 0.30197 0.558541
0.817137 0.299745 0.558548
0.817084 0.297519 0.558554
0.817031 0.295293 0.558561
0.816978 0.293068 0.558568
0.816924 0.290842 0.558575
0.816871 0.288616 0.558582
0.816818 0.286391 0.558589
0.816765 0.284165 0.558596
0.816711 0.281939 0.558603
0.816658 0.279714 0.55861
0.816605 0.277488 0.558617
0.816552 0.275262 0.558623
0.816499 0.273037 0.55863
0.816445 0.270811 0.558637
0.816392 0.268585 0.558644
0.816339 0.26636 0.558651
0.816286 0.264134 0.558658
0.816233 0.261908 0.558665
0.816179 0.259683 0.558672
0.816126 0.257457 0.558679
0.818779 0.255284 0.557357
0.818725 0.253053 0.557364
0.818672 0.250822 0.557371
0.818619 0.248591 0.557378
0.818565 0.24636 0.557385
0.818512 0.244129 0.557392
0.820262 0.241912 0.556513
0.820209 0.239677 0.55652
0.820155 0.237443 0.556527
0.820102 0.235209 0.556534
0.820048 0.232974 0.55654
0.819995 0.23074 0.556547
0.819941 0.228505 0.556554
0.819888 0.226271 0.556561
0.819835 0.224036 0.556568
0.819781 0.221802 0.556575
0.819728 0.219567 0.556582
0.819674 0.217333 0.556589
0.819621 0.215099 0.556596
0.819568 0.212864 0.556603
0.819514 0.21063 0.55661
0.819461 0.208395 0.556617
0.819407 0.206161 0.556624
0.817552 0.203972 0.557516
0.817498 0.201741 0.557523
0.817445 0.19951 0.55753
0.817392 0.197279 0.557537
0.817338 0.195049 0.557544
0.817285 0.192818 0.557551
0.817232 0.190587 0.557558
0.817178 0.188356 0.557564
0.817125 0.186125 0.557571
0.817072 0.183894 0.557578
0.817018 0.181663 0.557585
0.816965 0.179432 0.557592
0.816912 0.177201 0.557599
0.816858 0.17497 0.557606
0.816805 0.172739 0.557613
0.816752 0.170508 0.55762
0.813997 0.16843 0.558955
0.828206 0.419172 0.551654
0.828152 0.416929 0.551661
0.828098 0.414686 0.551668
0.828045 0.412443 0.551675
0.827991 0.4102 0.551682
0.827937 0.407956 0.551689
0.826075 0.405443 0.552585
0.826022 0.403204 0.552592
0.825968 0.400964 0.552599
0.825915 0.398724 0.552606
0.825861 0.396485 0.552613
0.825808 0.394245 0.55262
0.825754 0.392005 0.552627
0.825701 0.389765 0.552634
0.825647 0.387526 0.552641
0.825594 0.385286 0.552648
0.82554 0.383046 0.552655
0.825486 0.380807 0.552662
0.82724 0.378795 0.551779
0.827187 0.376551 0.551786
0.827133 0.374308 0.551793
0.827079 0.372065 0.5518
0.827026 0.369822 0.551807
0.826972 0.367579 0.551814
0.826918 0.365335 0.551821
0.826865 0.363092 0.551828
0.826811 0.360849 0.551835
0.826757 0.358606 0.551842
0.826704 0.356363 0.551849
0.824844 0.35393 0.552745
0.82479 0.351691 0.552752
0.824737 0.349451 0.552759
0.821974 0.346943 0.5541
0.821921 0.344709 0.554107
0.821867 0.342474 0.554114
0.821814 0.34024 0.554121
0.82176 0.338005 0.554128
0.821707 0.335771 0.554135
0.821654 0.333536 0.554141
0.819794 0.331148 0.555038
0.819741 0.328917 0.555045
0.819688 0.326686 0.555052
0.816927 0.32424 0.556393
0.816873 0.322014 0.556399
0.81682 0.319788 0.556406
0.816767 0.317563 0.556413
0.816714 0.315337 0.55642
0.816661 0.313111 0.556427
0.816607 0.310886 0.556434
0.816554 0.30866 0.556441
0.816501 0.306434 0.556448
0.816448 0.304209 0.556455
0.816395 0.301983 0.556462
0.816341 0.299757 0.556468
0.816288 0.297532 0.556475
0.816235 0.295306 0.556482
0.816182 0.29308 0.556489
0.816128 0.290855 0.556496
0.816075 0.288629 0.556503
0.816022 0.286403 0.55651
0.815969 0.284178 0.556517
0.815916 0.281952 0.556524
0.815862 0.279726 0.556531
0.815809 0.277501 0.556537
0.815756 0.275275 0.556544
0.815703 0.273049 0.556551
0.815649 0.270824 0.556558
0.815596 0.268598 0.556565
0.818248 0.266451 0.555238
0.818194 0.26422 0.555245
0.818141 0.261989 0.555252
0.818088 0.259758 0.555259
0.818034 0.257527 0.555266
0.817981 0.255296 0.555273
0.817927 0.253065 0.55528
0.817874 0.250834 0.555287
0.817821 0.248603 0.555294
0.817767 0.246373 0.555301
0.817714 0.244142 0.555308
0.817661 0.241911 0.555314
0.817607 0.23968 0.555321
0.817554 0.237449 0.555328
0.817501 0.235218 0.555335
0.819249 0.232987 0.554453
0.819196 0.230752 0.55446
0.819142 0.228518 0.554467
0.819089 0.226283 0.554474
0.819036 0.224049 0.554481
0.818982 0.221815 0.554488
0.818929 0.21958 0.554495
0.818875 0.217346 0.554502
0.818822 0.215111 0.554509
0.818768 0.212877 0.554515
0.816914 0.210678 0.555411
0.816861 0.208447 0.555418
0.816807 0.206216 0.555425
0.816754 0.203985 0.555432
0.816701 0.201754 0.555439
0.816647 0.199523 0.555446
0.816594 0.197292 0.555453
0.816541 0.195061 0.55546
0.816487 0.19283 0.555467
0.816434 0.190599 0.555473
0.816381 0.188368 0.55548
0.813627 0.186248 0.55682
0.813574 0.184023 0.556827
0.81622 0.181676 0.555501
0.816167 0.179445 0.555508
0.816114 0.177214 0.555515
0.81606 0.174983 0.555522
0.816007 0.172752 0.555529
0.815954 0.170521 0.555536
0.8159 0.16829 0.555543
0.82735 0.416942 0.549565
0.827296 0.414699 0.549572
0.827243 0.412456 0.549579
0.827189 0.410212 0.549586
0.827135 0.407969 0.549593
0.825275 0.405456 0.550493
0.825221 0.403216 0.5505
0.825167 0.400977 0.550507
0.825114 0.398737 0.550514
0.82506 0.396497 0.550521
0.825007 0.394257 0.550528
0.824953 0.392018 0.550535
0.8249 0.389778 0.550542
0.824846 0.387538 0.550549
0.824793 0.385299 0.550556
0.824739 0.383059 0.550562
0.824685 0.380819 0.550569
0.826438 0.378807 0.549683
0.826384 0.376564 0.54969
0.826331 0.374321 0.549697
0.826277 0.372078 0.549704
0.826223 0.369835 0.549711
0.82617 0.367591 0.549718
0.826116 0.365348 0.549725
0.826063 0.363105 0.549732
0.826009 0.360862 0.549739
0.825955 0.358619 0.549746
0.825902 0.356375 0.549753
0.824043 0.353943 0.550653
0.823989 0.351703 0.55066
0.823936 0.349463 0.550667
0.821175 0.346956 0.552013
0.821122 0.344721 0.55202
0.821068 0.342487 0.552026
0.821015 0.340252 0.552033
0.820961 0.338018 0.55204
0.820908 0.335784 0.552047
0.820854 0.333549 0.552054
0.818997 0.331161 0.552954
0.818943 0.32893 0.552961
0.81889 0.326699 0.552968
0.816131 0.324252 0.554313
0.816078 0.322027 0.55432
0.816024 0.319801 0.554327
0.815971 0.317575 0.554334
0.815918 0.31535 0.554341
0.815865 0.313124 0.554348
0.815811 0.310898 0.554355
0.815758 0.308673 0.554362
0.815705 0.306447 0.554369
0.815652 0.304221 0.554375
0.815599 0.301996 0.554382
0.815545 0.29977 0.554389
0.815492 0.297544 0.554396
0.815439 0.295319 0.554403
0.815386 0.293093 0.55441
0.815332 0.290867 0.554417
0.815279 0.288642 0.554424
0.815226 0.286416 0.554431
0.815173 0.28419 0.554438
0.81512 0.281965 0.554444
0.815066 0.279739 0.554451
0.815013 0.277513 0.554458
0.81496 0.275288 0.554465
0.814907 0.273062 0.554472
0.814854 0.270836 0.554479
0.817503 0.268694 0.553147
0.81745 0.266464 0.553154
0.817396 0.264233 0.553161
0.817343 0.262002 0.553168
0.81729 0.259771 0.553175
0.817236 0.25754 0.553182
0.817183 0.255309 0.553189
0.81713 0.253078 0.553196
0.817076 0.250847 0.553203
0.817023 0.248616 0.55321
0.81697 0.246385 0.553217
0.816916 0.244154 0.553223
0.816863 0.241923 0.55323
0.81681 0.239692 0.553237
0.816756 0.237461 0.553244
0.816703 0.23523 0.553251
0.81845 0.232999 0.552366
0.818397 0.230765 0.552373
0.818343 0.22853 0.55238
0.81829 0.226296 0.552387
0.818237 0.224062 0.552394
0.818183 0.221827 0.5524
0.81813 0.219593 0.552407
0.818076 0.217358 0.552414
0.818023 0.215124 0.552421
0.817969 0.212889 0.552428
0.816116 0.21069 0.553327
0.816063 0.208459 0.553334
0.816009 0.206228 0.553341
0.815956 0.203997 0.553348
0.815903 0.201767 0.553355
0.815849 0.199536 0.553362
0.815796 0.197305 0.553369
0.815743 0.195074 0.553376
0.815689 0.192843 0.553382
0.815636 0.190612 0.553389
0.815583 0.188381 0.553396
0.812831 0.186261 0.554741
0.812778 0.184035 0.554748
0.815423 0.181688 0.553417
0.815369 0.179457 0.553424
0.815316 0.177226 0.553431
0.815263 0.174995 0.553438
0.815209 0.172764 0.553445
0.815156 0.170534 0.553452
0.815103 0.168303 0.553459
0.826548 0.416955 0.54747
0.826494 0.414711 0.547477
0.82644 0.412468 0.547484
0.824581 0.409948 0.548387
0.824527 0.407708 0.548394
0.824474 0.405469 0.548401
0.821712 0.402829 0.549752
0.821658 0.400595 0.549759
0.821605 0.39836 0.549766
0.824259 0.39651 0.548429
0.824206 0.39427 0.548436
0.824152 0.39203 0.548442
0.824099 0.389791 0.548449
0.824045 0.387551 0.548456
0.823992 0.385311 0.548463
0.823938 0.383072 0.54847
0.823885 0.380832 0.548477
0.825636 0.37882 0.547588
0.825582 0.376577 0.547595
0.825529 0.374334 0.547602
0.825475 0.37209 0.547609
0.825421 0.369847 0.547616
0.825368 0.367604 0.547623
0.825314 0.365361 0.54763
0.82526 0.363118 0.547637
0.825207 0.360874 0.547644
0.825153 0.358631 0.547651
0.823295 0.356195 0.548554
0.823242 0.353956 0.54856
0.823188 0.351716 0.548567
0.820429 0.349203 0.549918
0.820376 0.346968 0.549925
0.820323 0.344734 0.549932
0.820269 0.342499 0.549939
0.820216 0.340265 0.549946
0.818359 0.337866 0.550849
0.818306 0.335635 0.550856
0.818252 0.333404 0.550863
0.815494 0.330942 0.552214
0.815441 0.328716 0.55222
0.815388 0.326491 0.552227
0.815335 0.324265 0.552234
0.815282 0.322039 0.552241
0.815228 0.319814 0.552248
0.815175 0.317588 0.552255
0.815122 0.315362 0.552262
0.815069 0.313137 0.552269
0.815016 0.310911 0.552276
0.814962 0.308685 0.552283
0.814909 0.30646 0.552289
0.814856 0.304234 0.552296
0.814803 0.302008 0.552303
0.814749 0.299782 0.55231
0.814696 0.297557 0.552317
0.814643 0.295331 0.552324
0.81459 0.293105 0.552331
0.814537 0.29088 0.552338
0.814483 0.288654 0.552345
0.81443 0.286428 0.552352
0.814377 0.284203 0.552358
0.814324 0.281977 0.552365
0.81427 0.279751 0.552372
0.814217 0.277526 0.552379
0.814164 0.2753 0.552386
0.814111 0.273074 0.552393
0.814058 0.270849 0.5524
0.814004 0.268623 0.552407
0.816652 0.266476 0.55107
0.816599 0.264245 0.551077
0.816545 0.262014 0.551084
0.816492 0.259783 0.551091
0.816439 0.257552 0.551098
0.816385 0.255321 0.551105
0.816332 0.253091 0.551112
0.816278 0.25086 0.551119
0.816225 0.248629 0.551126
0.816172 0.246398 0.551132
0.816118 0.244167 0.551139
0.816065 0.241936 0.551146
0.816012 0.239705 0.551153
0.815958 0.237474 0.55116
0.815905 0.235243 0.551167
0.815852 0.233012 0.551174
0.815798 0.230781 0.551181
0.815745 0.22855 0.551188
0.815692 0.226319 0.551195
0.815638 0.224088 0.551202
0.815585 0.221858 0.551209
0.815532 0.219627 0.551215
0.815478 0.217396 0.551222
0.815425 0.215165 0.551229
0.815372 0.212934 0.551236
0.815318 0.210703 0.551243
0.815265 0.208472 0.55125
0.815212 0.206241 0.551257
0.815158 0.20401 0.551264
0.815105 0.201779 0.551271
0.815052 0.199548 0.551278
0.814998 0.197317 0.551285
0.814945 0.195086 0.551292
0.814892 0.192855 0.551298
0.814838 0.190624 0.551305
0.814785 0.188394 0.551312
0.812035 0.186273 0.552662
0.811982 0.184048 0.552669
0.814625 0.181701 0.551333
0.814572 0.17947 0.55134
0.814518 0.177239 0.551347
0.814465 0.175008 0.551354
0.814411 0.172777 0.551361
0.814358 0.170546 0.551368
0.814305 0.168315 0.551374
0.825745 0.416967 0.545374
0.823887 0.41444 0.546281
0.823833 0.4122 0.546288
0.82378 0.409961 0.546295
0.823726 0.407721 0.546302
0.820966 0.405076 0.547658
0.820913 0.402842 0.547665
0.820859 0.400608 0.547672
0.820806 0.398373 0.547679
0.820752 0.396139 0.547686
0.823405 0.394283 0.546343
0.823351 0.392043 0.54635
0.823298 0.389803 0.546357
0.823244 0.387564 0.546364
0.823191 0.385324 0.546371
0.823137 0.383084 0.546378
0.823084 0.380845 0.546385
0.824834 0.378833 0.545492
0.82478 0.37659 0.545499
0.824726 0.374346 0.545506
0.824673 0.372103 0.545513
0.824619 0.36986 0.54552
0.824565 0.367617 0.545527
0.824512 0.365374 0.545534
0.824458 0.36313 0.545541
0.822602 0.360687 0.546447
0.822548 0.358448 0.546454
0.822494 0.356208 0.546461
0.822441 0.353968 0.546468
0.822387 0.351729 0.546475
0.81963 0.349215 0.547831
0.819577 0.346981 0.547838
0.819523 0.344747 0.547845
0.817668 0.34234 0.548751
0.817614 0.340109 0.548758
0.817561 0.337879 0.548765
0.814805 0.335406 0.550121
0.814752 0.33318 0.550128
0.814699 0.330954 0.550134
0.814645 0.328729 0.550141
0.814592 0.326503 0.550148
0.814539 0.324277 0.550155
0.814486 0.322052 0.550162
0.814432 0.319826 0.550169
0.814379 0.3176 0.550176
0.814326 0.315375 0.550183
0.814273 0.313149 0.55019
0.81422 0.310923 0.550197
0.814166 0.308698 0.550203
0.814113 0.306472 0.55021
0.81406 0.304246 0.550217
0.814007 0.302021 0.550224
0.813953 0.299795 0.550231
0.8139 0.297569 0.550238
0.813847 0.295344 0.550245
0.813794 0.293118 0.550252
0.813741 0.290892 0.550259
0.813687 0.288667 0.550266
0.813634 0.286441 0.550272
0.813581 0.284215 0.550279
0.813528 0.28199 0.550286
0.813475 0.279764 0.550293
0.813421 0.277538 0.5503
0.813368 0.275313 0.550307
0.813315 0.273087 0.550314
0.813262 0.270861 0.550321
0.813208 0.268636 0.550328
0.813155 0.26641 0.550334
0.813102 0.264184 0.550341
0.813049 0.261959 0.550348
0.812996 0.259733 0.550355
0.812942 0.257507 0.550362
0.812889 0.255282 0.550369
0.812836 0.253056 0.550376
0.812783 0.25083 0.550383
0.812729 0.248605 0.55039
0.812676 0.246379 0.550397
0.815321 0.244179 0.549055
0.815267 0.241949 0.549062
0.815214 0.239718 0.549069
0.815161 0.237487 0.549076
0.815107 0.235256 0.549083
0.815054 0.233025 0.54909
0.815001 0.230794 0.549097
0.814947 0.228563 0.549104
0.814894 0.226332 0.549111
0.814841 0.224101 0.549118
0.814787 0.22187 0.549124
0.814734 0.219639 0.549131
0.814681 0.217408 0.549138
0.814627 0.215177 0.549145
0.814574 0.212946 0.549152
0.81452 0.210715 0.549159
0.814467 0.208485 0.549166
0.814414 0.206254 0.549173
0.81436 0.204023 0.54918
0.814307 0.201792 0.549187
0.814254 0.199561 0.549194
0.8142 0.19733 0.549201
0.814147 0.195099 0.549207
0.814094 0.192868 0.549214
0.81404 0.190637 0.549221
0.813987 0.188406 0.549228
0.811239 0.186286 0.550583
0.811186 0.18406 0.55059
0.813827 0.181713 0.549249
0.813774 0.179482 0.549256
0.81372 0.177252 0.549263
0.813667 0.175021 0.54927
0.813614 0.17279 0.549277
0.81356 0.170559 0.549284
0.813507 0.168328 0.54929
0.824943 0.41698 0.543279
0.823086 0.414453 0.544189
0.823032 0.412213 0.544196
0.822979 0.409973 0.544202
0.822925 0.407734 0.544209
0.820167 0.405089 0.545571
0.820113 0.402855 0.545577
0.82006 0.40062 0.545584
0.820007 0.398386 0.545591
0.819953 0.396151 0.545598
0.822604 0.394295 0.544251
0.82255 0.392056 0.544258
0.822497 0.389816 0.544265
0.822443 0.387576 0.544272
0.82239 0.385337 0.544279
0.822336 0.383097 0.544286
0.822283 0.380857 0.544293
0.824031 0.378845 0.543397
0.823978 0.376602 0.543404
0.823924 0.374359 0.543411
0.82387 0.372116 0.543418
0.823817 0.369873 0.543425
0.823763 0.367629 0.543432
0.82371 0.365386 0.543439
0.823656 0.363143 0.543446
0.821801 0.3607 0.544355
0.821747 0.35846 0.544362
0.821694 0.356221 0.544369
0.82164 0.353981 0.544376
0.821586 0.351741 0.544383
0.818831 0.349228 0.545744
0.818778 0.346994 0.545751
0.818724 0.344759 0.545758
0.81687 0.342353 0.546667
0.816817 0.340122 0.546674
0.816763 0.337891 0.546681
0.814009 0.335418 0.548042
0.813956 0.333193 0.548048
0.813903 0.330967 0.548055
0.813849 0.328741 0.548062
0.813796 0.326516 0.548069
0.813743 0.32429 0.548076
0.81369 0.322064 0.548083
0.813637 0.319839 0.54809
0.813583 0.317613 0.548097
0.81353 0.315387 0.548104
0.813477 0.313162 0.54811
0.813424 0.310936 0.548117
0.81337 0.30871 0.548124
0.813317 0.306485 0.548131
0.813264 0.304259 0.548138
0.813211 0.302033 0.548145
0.813158 0.299808 0.548152
0.813104 0.297582 0.548159
0.813051 0.295356 0.548166
0.812998 0.293131 0.548173
0.812945 0.290905 0.548179
0.812891 0.288679 0.548186
0.812838 0.286454 0.548193
0.812785 0.284228 0.5482
0.812732 0.282002 0.548207
0.812679 0.279777 0.548214
0.812625 0.277551 0.548221
0.812572 0.275325 0.548228
0.812519 0.2731 0.548235
0.812466 0.270874 0.548242
0.812413 0.268648 0.548248
0.812359 0.266423 0.548255
0.812306 0.264197 0.548262
0.812253 0.261971 0.548269
0.8122 0.259746 0.548276
0.812146 0.25752 0.548283
0.812093 0.255294 0.54829
0.81204 0.253069 0.548297
0.811987 0.250843 0.548304
0.811934 0.248617 0.548311
0.81188 0.246392 0.548317
0.814523 0.244192 0.546971
0.814469 0.241961 0.546978
0.814416 0.23973 0.546985
0.814363 0.237499 0.546992
0.814309 0.235268 0.546999
0.814256 0.233037 0.547006
0.814203 0.230806 0.547013
0.814149 0.228576 0.54702
0.814096 0.226345 0.547027
0.814043 0.224114 0.547034
0.813989 0.221883 0.54704
0.813936 0.219652 0.547047
0.813883 0.217421 0.547054
0.813829 0.21519 0.547061
0.813776 0.212959 0.547068
0.813723 0.210728 0.547075
0.813669 0.208497 0.547082
0.813616 0.206266 0.547089
0.813563 0.204035 0.547096
0.813509 0.201804 0.547103
0.813456 0.199573 0.54711
0.813403 0.197343 0.547116
0.813349 0.195112 0.547123
0.813296 0.192881 0.54713
0.813243 0.19065 0.547137
0.813189 0.188419 0.547144
0.810443 0.186299 0.548504
0.81039 0.184073 0.548511
0.813029 0.181726 0.547165
0.812976 0.179495 0.547172
0.812923 0.177264 0.547179
0.812869 0.175033 0.547186
0.812816 0.172802 0.547193
0.812762 0.170571 0.547199
0.812709 0.16834 0.547206
0.822339 0.416705 0.542089
0.819582 0.414039 0.543456
0.819528 0.411805 0.543462
0.819475 0.409571 0.543469
0.819421 0.407336 0.543476
0.819368 0.405102 0.543483
0.819314 0.402867 0.54349
0.819261 0.400633 0.543497
0.819208 0.398398 0.543504
0.819154 0.396164 0.543511
0.821803 0.394308 0.542159
0.821749 0.392068 0.542166
0.821696 0.389829 0.542173
0.821642 0.387589 0.54218
0.821589 0.385349 0.542187
0.821535 0.38311 0.542194
0.821482 0.38087 0.5422
0.823229 0.378858 0.541301
0.823176 0.376615 0.541308
0.823122 0.374372 0.541315
0.823068 0.372129 0.541322
0.823015 0.369885 0.541329
0.822961 0.367642 0.541336
0.822907 0.365399 0.541343
0.822854 0.363156 0.54135
0.821 0.360713 0.542263
0.820946 0.358473 0.54227
0.820893 0.356233 0.542277
0.820839 0.353994 0.542284
0.820785 0.351754 0.542291
0.818032 0.349241 0.543656
0.817979 0.347006 0.543663
0.817925 0.344772 0.54367
0.816072 0.342366 0.544583
0.816019 0.340135 0.54459
0.815965 0.337904 0.544597
0.813213 0.335431 0.545962
0.81316 0.333205 0.545969
0.813107 0.33098 0.545976
0.813053 0.328754 0.545983
0.813 0.326528 0.54599
0.812947 0.324303 0.545997
0.812894 0.322077 0.546004
0.812841 0.319851 0.546011
0.812787 0.317626 0.546018
0.812734 0.3154 0.546024
0.812681 0.313174 0.546031
0.812628 0.310949 0.546038
0.812574 0.308723 0.546045
0.812521 0.306497 0.546052
0.812468 0.304272 0.546059
0.812415 0.302046 0.546066
0.812362 0.29982 0.546073
0.812308 0.297595 0.54608
0.812255 0.295369 0.546087
0.812202 0.293143 0.546093
0.812149 0.290918 0.5461
0.812096 0.288692 0.546107
0.812042 0.286466 0.546114
0.811989 0.284241 0.546121
0.811936 0.282015 0.546128
0.811883 0.279789 0.546135
0.811829 0.277564 0.546142
0.811776 0.275338 0.546149
0.811723 0.273112 0.546156
0.81167 0.270887 0.546162
0.811617 0.268661 0.546169
0.811563 0.266435 0.546176
0.81151 0.26421 0.546183
0.811457 0.261984 0.54619
0.811404 0.259758 0.546197
0.81135 0.257533 0.546204
0.811297 0.255307 0.546211
0.811244 0.253081 0.546218
0.811191 0.250856 0.546225
0.811138 0.24863 0.546231
0.811084 0.246404 0.546238
0.811031 0.244179 0.546245
0.810978 0.241953 0.546252
0.810925 0.239727 0.546259
0.810872 0.237502 0.546266
0.810818 0.235276 0.546273
0.813458 0.23305 0.544922
0.813405 0.230819 0.544929
0.813352 0.228588 0.544936
0.813298 0.226357 0.544943
0.813245 0.224126 0.544949
0.813192 0.221895 0.544956
0.813138 0.219664 0.544963
0.813085 0.217434 0.54497
0.813032 0.215203 0.544977
0.812978 0.212972 0.544984
0.812925 0.210741 0.544991
0.812872 0.20851 0.544998
0.812818 0.206279 0.545005
0.810073 0.204116 0.546369
0.81002 0.201891 0.546376
0.812658 0.199586 0.545026
0.812605 0.197355 0.545032
0.812551 0.195124 0.545039
0.812498 0.192893 0.545046
0.812445 0.190662 0.545053
0.812391 0.188431 0.54506
0.809648 0.186311 0.546425
0.809594 0.184085 0.546431
0.812231 0.181739 0.545081
0.812178 0.179508 0.545088
0.812125 0.177277 0.545095
0.812071 0.175046 0.545102
0.812018 0.172815 0.545109
0.811965 0.170584 0.545115
0.811911 0.168353 0.545122
0.821538 0.416718 0.539997
0.818782 0.414052 0.541368
0.818729 0.411818 0.541375
0.818676 0.409583 0.541382
0.818622 0.407349 0.541389
0.818569 0.405114 0.541396
0.818515 0.40288 0.541403
0.818462 0.400645 0.54141
0.818408 0.398411 0.541417
0.818355 0.396177 0.541424
0.821002 0.394321 0.540067
0.820948 0.392081 0.540073
0.820895 0.389841 0.54008
0.820841 0.387602 0.540087
0.820788 0.385362 0.540094
0.820734 0.383122 0.540101
0.820681 0.380883 0.540108
0.822427 0.378871 0.539206
0.822373 0.376628 0.539213
0.82232 0.374384 0.53922
0.822266 0.372141 0.539227
0.822212 0.369898 0.539234
0.822159 0.367655 0.539241
0.822105 0.365412 0.539248
0.822052 0.363168 0.539255
0.820199 0.360725 0.540171
0.820145 0.358486 0.540178
0.820092 0.356246 0.540185
0.820038 0.354006 0.540191
0.819985 0.351767 0.540198
0.817233 0.349253 0.541569
0.81718 0.347019 0.541576
0.817126 0.344784 0.541583
0.815274 0.342378 0.542499
0.815221 0.340147 0.542506
0.815168 0.337916 0.542513
0.812417 0.335444 0.543883
0.812364 0.333218 0.54389
0.812311 0.330992 0.543897
0.812258 0.328767 0.543904
0.812204 0.326541 0.543911
0.812151 0.324315 0.543918
0.812098 0.32209 0.543925
0.812045 0.319864 0.543932
0.811991 0.317638 0.543938
0.811938 0.315413 0.543945
0.811885 0.313187 0.543952
0.811832 0.310961 0.543959
0.811779 0.308736 0.543966
0.811725 0.30651 0.543973
0.811672 0.304284 0.54398
0.811619 0.302059 0.543987
0.811566 0.299833 0.543994
0.811512 0.297607 0.544001
0.811459 0.295382 0.544007
0.811406 0.293156 0.544014
0.811353 0.29093 0.544021
0.8113 0.288705 0.544028
0.811246 0.286479 0.544035
0.811193 0.284253 0.544042
0.81114 0.282027 0.544049
0.811087 0.279802 0.544056
0.811034 0.277576 0.544063
0.81098 0.27535 0.544069
0.810927 0.273125 0.544076
0.810874 0.270899 0.544083
0.810821 0.268673 0.54409
0.810767 0.266448 0.544097
0.810714 0.264222 0.544104
0.810661 0.261996 0.544111
0.810608 0.259771 0.544118
0.810555 0.257545 0.544125
0.810501 0.255319 0.544132
0.810448 0.253094 0.544138
0.810395 0.250868 0.544145
0.810342 0.248642 0.544152
0.810288 0.246417 0.544159
0.810235 0.244191 0.544166
0.810182 0.241965 0.544173
0.810129 0.23974 0.54418
0.810076 0.237514 0.544187
0.810022 0.235288 0.544194
0.81266 0.233063 0.542838
0.812607 0.230832 0.542845
0.812554 0.228601 0.542852
0.8125 0.22637 0.542859
0.812447 0.224139 0.542865
0.812394 0.221908 0.542872
0.81234 0.219677 0.542879
0.812287 0.217446 0.542886
0.812234 0.215215 0.542893
0.81218 0.212984 0.5429
0.812127 0.210753 0.542907
0.812074 0.208522 0.542914
0.81202 0.206291 0.542921
0.809277 0.204129 0.54429
0.809224 0.201903 0.544297
0.81186 0.199599 0.542941
0.811807 0.197368 0.542948
0.811754 0.195137 0.542955
0.8117 0.192906 0.542962
0.811647 0.190675 0.542969
0.811594 0.188444 0.542976
0.808852 0.186324 0.544345
0.808798 0.184098 0.544352
0.811434 0.181751 0.542997
0.81138 0.17952 0.543004
0.811327 0.177289 0.543011
0.811274 0.175058 0.543018
0.81122 0.172828 0.543024
0.811167 0.170597 0.543031
0.811114 0.168366 0.543038
0.817983 0.414065 0.539281
0.81793 0.41183 0.539288
0.817877 0.409596 0.539295
0.817823 0.407361 0.539302
0.81777 0.405127 0.539309
0.817716 0.402893 0.539315
0.817663 0.400658 0.539322
0.817609 0.398424 0.539329
0.817556 0.396189 0.539336
0.820201 0.394333 0.537974
0.820148 0.392094 0.537981
0.820094 0.389854 0.537988
0.82004 0.387614 0.537995
0.819987 0.385375 0.538002
0.821732 0.38337 0.537096
0.821678 0.381127 0.537103
0.821625 0.378884 0.53711
0.821571 0.37664 0.537117
0.821517 0.374397 0.537124
0.821464 0.372154 0.537131
0.82141 0.369911 0.537138
0.821357 0.367667 0.537145
0.821303 0.365424 0.537152
0.821249 0.363181 0.537159
0.821196 0.360938 0.537166
0.821142 0.358695 0.537173
0.819291 0.356259 0.538092
0.819237 0.354019 0.538099
0.819184 0.351779 0.538106
0.816434 0.349266 0.539482
0.816381 0.347032 0.539489
0.816327 0.344797 0.539496
0.814477 0.342391 0.540415
0.814423 0.34016 0.540422
0.81437 0.337929 0.540429
0.811621 0.335456 0.541804
0.811568 0.33323 0.541811
0.811515 0.331005 0.541818
0.811462 0.328779 0.541825
0.811408 0.326553 0.541832
0.811355 0.324328 0.541839
0.811302 0.322102 0.541845
0.811249 0.319876 0.541852
0.811195 0.317651 0.541859
0.811142 0.315425 0.541866
0.811089 0.313199 0.541873
0.811036 0.310974 0.54188
0.810983 0.308748 0.541887
0.810929 0.306522 0.541894
0.808183 0.304129 0.543269
0.80813 0.301908 0.543276
0.808076 0.299688 0.543283
0.810717 0.29762 0.541921
0.810663 0.295394 0.541928
0.81061 0.293168 0.541935
0.810557 0.290943 0.541942
0.810504 0.288717 0.541949
0.81045 0.286491 0.541956
0.810397 0.284266 0.541963
0.807652 0.281924 0.543338
0.807599 0.279704 0.543345
0.807545 0.277484 0.543352
0.807492 0.275263 0.543358
0.807439 0.273043 0.543365
0.807386 0.270822 0.543372
0.807333 0.268602 0.543379
0.80728 0.266382 0.543386
0.807227 0.264161 0.543393
0.807174 0.261941 0.5434
0.807121 0.25972 0.543407
0.807068 0.2575 0.543413
0.807015 0.25528 0.54342
0.806961 0.253059 0.543427
0.806908 0.250839 0.543434
0.806855 0.248618 0.543441
0.806802 0.246398 0.543448
0.809439 0.244204 0.542087
0.809386 0.241978 0.542094
0.809333 0.239752 0.542101
0.80928 0.237527 0.542108
0.809226 0.235301 0.542115
0.809173 0.233075 0.542121
0.80912 0.23085 0.542128
0.809067 0.228624 0.542135
0.809014 0.226398 0.542142
0.80896 0.224173 0.542149
0.808907 0.221947 0.542156
0.808854 0.219721 0.542163
0.808801 0.217496 0.54217
0.808747 0.21527 0.542177
0.808694 0.213044 0.542184
0.808641 0.210819 0.54219
0.808588 0.208593 0.542197
0.808535 0.206367 0.542204
0.808481 0.204142 0.542211
0.808428 0.201916 0.542218
0.808375 0.19969 0.542225
0.808322 0.197465 0.542232
0.810956 0.195149 0.540871
0.810902 0.192919 0.540878
0.810849 0.190688 0.540885
0.810796 0.188457 0.540892
0.808056 0.186336 0.542266
0.808002 0.184111 0.542273
0.810636 0.181764 0.540913
0.810582 0.179533 0.54092
0.810529 0.177302 0.540927
0.810476 0.175071 0.540933
0.810422 0.17284 0.54094
0.810369 0.170609 0.540947
0.810316 0.168378 0.540954
0.810262 0.166147 0.540961
0.817184 0.414077 0.537194
0.817131 0.411843 0.5372
0.815279 0.409331 0.538123
0.815226 0.4071 0.53813
0.815172 0.40487 0.538137
0.816917 0.402905 0.537228
0.816864 0.400671 0.537235
0.81681 0.398436 0.537242
0.816757 0.396202 0.537249
0.8194 0.394346 0.535882
0.819347 0.392106 0.535889
0.819293 0.389867 0.535896
0.819239 0.387627 0.535903
0.819186 0.385387 0.53591
0.82093 0.383383 0.535001
0.820876 0.381139 0.535008
0.820823 0.378896 0.535015
0.820769 0.376653 0.535022
0.820715 0.37441 0.535029
0.820662 0.372167 0.535036
0.820608 0.369923 0.535043
0.820554 0.36768 0.53505
0.820501 0.365437 0.535057
0.820447 0.363194 0.535063
0.820393 0.360951 0.53507
0.82034 0.358707 0.535077
0.81849 0.356271 0.536
0.818436 0.354032 0.536007
0.818383 0.351792 0.536014
0.815635 0.349279 0.537394
0.815582 0.347044 0.537401
0.815528 0.34481 0.537408
0.813679 0.342403 0.538331
0.813625 0.340173 0.538338
0.813572 0.337942 0.538345
0.810825 0.335469 0.539725
0.810772 0.333243 0.539732
0.810719 0.331017 0.539739
0.810666 0.328792 0.539746
0.810612 0.326566 0.539753
0.810559 0.32434 0.539759
0.810506 0.322115 0.539766
0.810453 0.319889 0.539773
0.807707 0.317464 0.541153
0.807654 0.315243 0.54116
0.807601 0.313023 0.541167
0.807548 0.310802 0.541174
0.807495 0.308582 0.541181
0.807442 0.306361 0.541188
0.807389 0.304141 0.541195
0.807335 0.301921 0.541202
0.807282 0.2997 0.541209
0.807229 0.29748 0.541215
0.807176 0.295259 0.541222
0.807123 0.293039 0.541229
0.80707 0.290819 0.541236
0.807017 0.288598 0.541243
0.806964 0.286378 0.54125
0.806911 0.284157 0.541257
0.806858 0.281937 0.541264
0.806805 0.279717 0.54127
0.806751 0.277496 0.541277
0.806698 0.275276 0.541284
0.806645 0.273055 0.541291
0.806592 0.270835 0.541298
0.806539 0.268615 0.541305
0.806486 0.266394 0.541312
0.806433 0.264174 0.541319
0.80638 0.261953 0.541326
0.806327 0.259733 0.541332
0.806274 0.257513 0.541339
0.806221 0.255292 0.541346
0.806167 0.253072 0.541353
0.806114 0.250851 0.54136
0.806061 0.248631 0.541367
0.806008 0.24641 0.541374
0.805955 0.24419 0.541381
0.805902 0.24197 0.541387
0.805849 0.239749 0.541394
0.805796 0.237529 0.541401
0.805743 0.235308 0.541408
0.80569 0.233088 0.541415
0.808324 0.230862 0.540049
0.808271 0.228637 0.540056
0.808218 0.226411 0.540063
0.808164 0.224185 0.54007
0.808111 0.22196 0.540077
0.808058 0.219734 0.540084
0.808005 0.217508 0.540091
0.807952 0.215283 0.540097
0.807898 0.213057 0.540104
0.807845 0.210831 0.540111
0.807792 0.208606 0.540118
0.807739 0.20638 0.540125
0.807685 0.204154 0.540132
0.807632 0.201929 0.540139
0.807579 0.199703 0.540146
0.807526 0.197477 0.540153
0.810158 0.195162 0.538787
0.810105 0.192931 0.538794
0.810051 0.1907 0.538801
0.809998 0.188469 0.538808
0.80726 0.186349 0.540187
0.807206 0.184123 0.540194
0.809838 0.181776 0.538829
0.809785 0.179546 0.538836
0.809731 0.177315 0.538843
0.809678 0.175084 0.538849
0.809625 0.172853 0.538856
0.809571 0.170622 0.538863
0.809518 0.168391 0.53887
0.809465 0.16616 0.538877
0.814588 0.413806 0.536026
0.814535 0.411575 0.536032
0.814481 0.409344 0.536039
0.814428 0.407113 0.536046
0.814374 0.404882 0.536053
0.816118 0.402918 0.535141
0.816065 0.400683 0.535148
0.816011 0.398449 0.535155
0.815958 0.396214 0.535162
0.818599 0.394359 0.53379
0.818546 0.392119 0.533797
0.818492 0.389879 0.533804
0.818439 0.38764 0.533811
0.818385 0.3854 0.533818
0.820128 0.383395 0.532905
0.820074 0.381152 0.532912
0.82002 0.378909 0.532919
0.819967 0.376666 0.532926
0.819913 0.374422 0.532933
0.819859 0.372179 0.53294
0.819806 0.369936 0.532947
0.819752 0.367693 0.532954
0.819699 0.36545 0.532961
0.819645 0.363206 0.532968
0.819591 0.360963 0.532975
0.819538 0.35872 0.532982
0.819484 0.356477 0.532989
0.817635 0.354044 0.533915
0.817582 0.351805 0.533922
0.814836 0.349291 0.535307
0.814782 0.347057 0.535314
0.814729 0.344822 0.535321
0.812881 0.342416 0.536247
0.812828 0.340185 0.536254
0.812774 0.337954 0.536261
0.810029 0.335481 0.537646
0.809976 0.333256 0.537653
0.809923 0.33103 0.53766
0.80987 0.328804 0.537667
0.809816 0.326579 0.537673
0.809763 0.324353 0.53768
0.80971 0.322127 0.537687
0.809657 0.319902 0.537694
0.806913 0.317476 0.539079
0.80686 0.315256 0.539086
0.806807 0.313035 0.539093
0.806754 0.310815 0.5391
0.806701 0.308594 0.539107
0.806648 0.306374 0.539114
0.806594 0.304154 0.539121
0.806541 0.301933 0.539127
0.806488 0.299713 0.539134
0.806435 0.297492 0.539141
0.806382 0.295272 0.539148
0.806329 0.293052 0.539155
0.806276 0.290831 0.539162
0.806223 0.288611 0.539169
0.80617 0.28639 0.539176
0.806117 0.28417 0.539182
0.806064 0.28195 0.539189
0.80601 0.279729 0.539196
0.805957 0.277509 0.539203
0.805904 0.275288 0.53921
0.805851 0.273068 0.539217
0.805798 0.270848 0.539224
0.805745 0.268627 0.539231
0.805692 0.266407 0.539238
0.805639 0.264186 0.539244
0.805586 0.261966 0.539251
0.805533 0.259745 0.539258
0.80548 0.257525 0.539265
0.805426 0.255305 0.539272
0.805373 0.253084 0.539279
0.80532 0.250864 0.539286
0.805267 0.248643 0.539293
0.805214 0.246423 0.539299
0.805161 0.244203 0.539306
0.805108 0.241982 0.539313
0.805055 0.239762 0.53932
0.805002 0.237541 0.539327
0.804949 0.235321 0.539334
0.804896 0.233101 0.539341
0.807528 0.230875 0.53797
0.807475 0.228649 0.537977
0.807422 0.226424 0.537984
0.807368 0.224198 0.537991
0.807315 0.221972 0.537998
0.807262 0.219747 0.538005
0.807209 0.217521 0.538011
0.807156 0.215295 0.538018
0.807102 0.21307 0.538025
0.807049 0.210844 0.538032
0.806996 0.208618 0.538039
0.806943 0.206393 0.538046
0.80689 0.204167 0.538053
0.806836 0.201941 0.53806
0.806783 0.199716 0.538067
0.80673 0.19749 0.538074
0.80936 0.195175 0.536703
0.809307 0.192944 0.53671
0.809254 0.190713 0.536717
0.8092 0.188482 0.536724
0.809147 0.186251 0.536731
0.809093 0.18402 0.536738
0.80904 0.181789 0.536745
0.808987 0.179558 0.536752
0.808933 0.177327 0.536758
0.80888 0.175096 0.536765
0.808827 0.172865 0.536772
0.808773 0.170634 0.536779
0.80872 0.168404 0.536786
0.808667 0.166173 0.536793
0.81379 0.413818 0.533941
0.813737 0.411588 0.533948
0.813683 0.409357 0.533955
0.81363 0.407126 0.533962
0.813577 0.404895 0.533969
0.813523 0.402664 0.533976
0.815266 0.400696 0.53306
0.815212 0.398462 0.533067
0.815159 0.396227 0.533074
0.815105 0.393993 0.533081
0.815052 0.391758 0.533088
0.817691 0.389892 0.531711
0.817638 0.387652 0.531718
0.817584 0.385413 0.531725
0.819325 0.383408 0.53081
0.819272 0.381165 0.530817
0.819218 0.378922 0.530824
0.819165 0.376678 0.530831
0.819111 0.374435 0.530838
0.819057 0.372192 0.530845
0.819004 0.369949 0.530852
0.81895 0.367706 0.530859
0.818896 0.365462 0.530865
0.818843 0.363219 0.530872
0.818789 0.360976 0.530879
0.818735 0.358733 0.530886
0.818682 0.356489 0.530893
0.816834 0.354057 0.531823
0.816781 0.351817 0.531829
0.814037 0.349304 0.53322
0.813983 0.347069 0.533227
0.81393 0.344835 0.533234
0.812083 0.342429 0.534163
0.81203 0.340198 0.53417
0.811976 0.337967 0.534177
0.809233 0.335494 0.535567
0.80918 0.333268 0.535574
0.809127 0.331043 0.53558
0.809074 0.328817 0.535587
0.809021 0.326591 0.535594
0.808967 0.324366 0.535601
0.808914 0.32214 0.535608
0.806172 0.319709 0.536998
0.806119 0.317489 0.537005
0.806066 0.315268 0.537012
0.806013 0.313048 0.537019
0.80596 0.310827 0.537026
0.805907 0.308607 0.537033
0.805854 0.306387 0.537039
0.8058 0.304166 0.537046
0.805747 0.301946 0.537053
0.805694 0.299725 0.53706
0.805641 0.297505 0.537067
0.805588 0.295285 0.537074
0.805535 0.293064 0.537081
0.805482 0.290844 0.537088
0.805429 0.288623 0.537094
0.805376 0.286403 0.537101
0.805323 0.284183 0.537108
0.80527 0.281962 0.537115
0.805216 0.279742 0.537122
0.805163 0.277521 0.537129
0.80511 0.275301 0.537136
0.805057 0.27308 0.537143
0.805004 0.27086 0.53715
0.804951 0.26864 0.537156
0.804898 0.266419 0.537163
0.803054 0.26415 0.538092
0.803001 0.261933 0.538099
0.802948 0.259716 0.538106
0.802895 0.257499 0.538113
0.802842 0.255282 0.538119
0.802789 0.253065 0.538126
0.804526 0.250876 0.537211
0.804473 0.248656 0.537218
0.80442 0.246436 0.537225
0.804367 0.244215 0.537232
0.804314 0.241995 0.537239
0.804261 0.239774 0.537246
0.804208 0.237554 0.537253
0.804155 0.235334 0.53726
0.804101 0.233113 0.537267
0.804048 0.230893 0.537273
0.803995 0.228672 0.53728
0.803942 0.226452 0.537287
0.803889 0.224232 0.537294
0.803836 0.222011 0.537301
0.806466 0.219759 0.535925
0.806413 0.217533 0.535932
0.80636 0.215308 0.535939
0.806306 0.213082 0.535946
0.806253 0.210856 0.535953
0.8062 0.208631 0.53596
0.806147 0.206405 0.535967
0.806094 0.204179 0.535974
0.80604 0.201954 0.535981
0.805987 0.199728 0.535987
0.805934 0.197502 0.535994
0.808562 0.195187 0.534619
0.808509 0.192956 0.534626
0.808456 0.190725 0.534633
0.808402 0.188494 0.53464
0.808349 0.186264 0.534647
0.808296 0.184033 0.534654
0.808242 0.181802 0.534661
0.808189 0.179571 0.534667
0.808136 0.17734 0.534674
0.808082 0.175109 0.534681
0.808029 0.172878 0.534688
