ply
format ascii 1.0
comment Created by Open3D
element vertex 1794
property double x
property double y
property double z
end_header
0.969486 0.367698 0.895625
0.969444 0.365411 0.895559
0.969402 0.363125 0.895493
0.96936 0.360839 0.895428
0.969318 0.358552 0.895362
0.969276 0.356266 0.895296
0.969234 0.353979 0.89523
0.969192 0.351693 0.895164
0.96915 0.349407 0.895098
0.969108 0.34712 0.895033
0.969066 0.344834 0.894967
0.969024 0.342548 0.894901
0.968982 0.340261 0.894835
0.965901 0.3377 0.895279
0.96586 0.335419 0.895213
0.965818 0.333138 0.895148
0.965776 0.330857 0.895082
0.965734 0.328575 0.895017
0.962654 0.326046 0.895461
0.962612 0.32377 0.895396
0.96257 0.321494 0.89533
0.962529 0.319218 0.895265
0.962487 0.316942 0.895199
0.96042 0.314518 0.895474
0.960378 0.312246 0.895409
0.960336 0.309974 0.895344
0.960295 0.307701 0.895278
0.960253 0.305429 0.895213
0.960211 0.303156 0.895147
0.960169 0.300884 0.895082
0.962152 0.298735 0.894675
0.96211 0.296459 0.89461
0.962069 0.294184 0.894544
0.965064 0.292077 0.893966
0.965022 0.289796 0.8939
0.968016 0.287674 0.893322
0.967974 0.285388 0.893256
0.967932 0.283101 0.89319
0.970926 0.280958 0.892611
0.970884 0.278667 0.892545
0.972866 0.276464 0.892137
0.972824 0.274169 0.892071
0.972782 0.271873 0.892005
0.97274 0.269578 0.891939
0.972697 0.267283 0.891872
0.972655 0.264988 0.891806
0.972613 0.262693 0.89174
0.975606 0.260494 0.89116
0.975564 0.258193 0.891093
0.975522 0.255893 0.891027
0.975479 0.253592 0.890961
0.975437 0.251292 0.890895
0.975395 0.248991 0.890829
0.972318 0.246627 0.891278
0.970253 0.244292 0.891556
0.970211 0.242 0.89149
0.970169 0.239709 0.891424
0.970127 0.237417 0.891358
0.970084 0.235125 0.891292
0.970042 0.232834 0.891226
0.97 0.230542 0.89116
0.966924 0.228228 0.891611
0.966882 0.225942 0.891545
0.96684 0.223655 0.891479
0.966798 0.221369 0.891414
0.966756 0.219083 0.891348
0.969748 0.216792 0.890764
0.969706 0.214501 0.890698
0.969664 0.212209 0.890632
0.969621 0.209917 0.890566
0.969579 0.207626 0.890501
0.969537 0.205334 0.890435
0.969495 0.203042 0.890369
0.971475 0.200724 0.889957
0.971433 0.198428 0.889891
0.971391 0.196133 0.889825
0.974381 0.193782 0.88924
0.974339 0.191481 0.889173
0.974296 0.189181 0.889107
0.977286 0.186808 0.888521
0.977244 0.184502 0.888455
0.977202 0.182197 0.888389
0.977159 0.179891 0.888322
0.977117 0.177585 0.888256
0.977075 0.17528 0.88819
0.977032 0.172974 0.888123
0.97699 0.170668 0.888057
0.976947 0.168363 0.887991
0.973874 0.166177 0.888445
0.973832 0.163876 0.888379
0.973789 0.161576 0.888313
0.970716 0.159411 0.888768
0.970674 0.157116 0.888702
0.970632 0.15482 0.888636
0.97059 0.152525 0.88857
0.970547 0.15023 0.888504
0.970505 0.147935 0.888438
0.970463 0.14564 0.888372
0.970421 0.143345 0.888306
0.970379 0.14105 0.88824
0.968317 0.138876 0.888522
0.968275 0.136585 0.888456
0.968232 0.134293 0.88839
0.97021 0.131869 0.887975
0.970168 0.129574 0.887909
0.970126 0.127279 0.887843
0.970084 0.124983 0.887777
0.970042 0.122688 0.887711
0.973029 0.120168 0.887121
0.972987 0.117868 0.887055
0.972944 0.115567 0.886989
0.971675 0.534681 0.898317
0.971633 0.532395 0.898251
0.971591 0.530108 0.898185
0.974594 0.528533 0.897617
0.974552 0.526242 0.897551
0.97451 0.52395 0.897485
0.974468 0.521658 0.897419
0.974425 0.519367 0.897353
0.976413 0.517532 0.896952
0.976371 0.515237 0.896886
0.976328 0.512942 0.89682
0.97933 0.511316 0.896251
0.979288 0.509016 0.896185
0.982289 0.507374 0.895615
0.982247 0.505069 0.895549
0.982204 0.502763 0.895483
0.985205 0.5011 0.894912
0.985163 0.498789 0.894846
0.98512 0.496479 0.894779
0.985078 0.494168 0.894713
0.985035 0.491857 0.894646
0.984993 0.489546 0.89458
0.987993 0.487846 0.894009
0.987951 0.48553 0.893942
0.984866 0.482613 0.89438
0.984823 0.480302 0.894314
0.984781 0.477991 0.894247
0.984738 0.47568 0.894181
0.984696 0.473369 0.894114
0.981612 0.470483 0.894554
0.981569 0.468178 0.894487
0.981527 0.465872 0.894421
0.978443 0.463007 0.894861
0.9784 0.460707 0.894795
0.978358 0.458407 0.894728
0.978316 0.456106 0.894662
0.975232 0.453268 0.895103
0.973163 0.450617 0.895375
0.973121 0.448326 0.895309
0.973079 0.446034 0.895243
0.973036 0.443742 0.895177
0.972994 0.441451 0.895111
0.969912 0.438653 0.895553
0.96987 0.436366 0.895487
0.969828 0.43408 0.895421
0.969786 0.431794 0.895356
0.969744 0.429507 0.89529
0.969702 0.427221 0.895224
0.966619 0.424459 0.895667
0.966577 0.422178 0.895601
0.966536 0.419897 0.895536
0.966494 0.417616 0.89547
0.966452 0.415335 0.895404
0.96641 0.413054 0.895339
0.966368 0.410773 0.895273
0.966326 0.408492 0.895207
0.966284 0.40621 0.895142
0.966242 0.403929 0.895076
0.9662 0.401648 0.89501
0.966158 0.399367 0.894945
0.966117 0.397086 0.894879
0.966075 0.394805 0.894813
0.962994 0.392122 0.895259
0.962952 0.389847 0.895193
0.96291 0.387571 0.895128
0.962869 0.385295 0.895062
0.962827 0.383019 0.894997
0.965823 0.381118 0.894419
0.965781 0.378837 0.894354
0.965739 0.376556 0.894288
0.965698 0.374275 0.894223
0.968694 0.372347 0.893645
0.968652 0.370061 0.893579
0.96861 0.367775 0.893513
0.968568 0.365488 0.893447
0.968526 0.363202 0.893381
0.968484 0.360916 0.893316
0.968442 0.358629 0.89325
0.9684 0.356343 0.893184
0.968358 0.354056 0.893118
0.968316 0.35177 0.893052
0.968274 0.349484 0.892987
0.968232 0.347197 0.892921
0.96819 0.344911 0.892855
0.968148 0.342624 0.892789
0.968106 0.340338 0.892723
0.965027 0.337777 0.893172
0.964985 0.335495 0.893106
0.964943 0.333214 0.893041
0.964902 0.330933 0.892975
0.96486 0.328652 0.89291
0.961782 0.326122 0.893359
0.96174 0.323846 0.893294
0.961698 0.321571 0.893228
0.961656 0.319295 0.893163
0.961614 0.317019 0.893097
0.959549 0.314595 0.893376
0.959507 0.312322 0.89331
0.959466 0.31005 0.893245
0.959424 0.307778 0.893179
0.959382 0.305505 0.893114
0.95934 0.303233 0.893049
0.959299 0.300961 0.892983
0.96128 0.298812 0.892573
0.961238 0.296536 0.892508
0.961196 0.29426 0.892442
0.964189 0.292154 0.891859
0.964147 0.289873 0.891793
0.96714 0.287751 0.89121
0.967098 0.285465 0.891144
0.967056 0.283178 0.891078
0.970048 0.281035 0.890494
0.970006 0.278744 0.890428
0.971986 0.276541 0.890017
0.971944 0.274246 0.889951
0.971902 0.271951 0.889885
0.974894 0.269773 0.8893
0.974851 0.267472 0.889233
0.974809 0.265172 0.889167
0.974767 0.262871 0.889101
0.977758 0.260667 0.888515
0.977715 0.258361 0.888449
0.977673 0.256056 0.888382
0.977631 0.25375 0.888316
0.974556 0.251369 0.88877
0.974513 0.249069 0.888704
0.974471 0.246768 0.888638
0.971396 0.244409 0.889092
0.971354 0.242114 0.889026
0.971312 0.239818 0.88896
0.97127 0.237523 0.888894
0.969206 0.235203 0.889175
0.969164 0.232911 0.889109
0.969122 0.230619 0.889043
0.96908 0.228328 0.888977
0.969038 0.226036 0.888911
0.968996 0.223744 0.888846
0.968954 0.221453 0.88878
0.968911 0.219161 0.888714
0.968869 0.216869 0.888648
0.968827 0.214578 0.888582
0.968785 0.212286 0.888516
0.968743 0.209994 0.88845
0.968701 0.207703 0.888384
0.968659 0.205411 0.888318
0.968617 0.203119 0.888252
0.970595 0.200801 0.887837
0.970553 0.198506 0.887771
0.970511 0.19621 0.887705
0.973499 0.193859 0.887115
0.973457 0.191558 0.887049
0.973415 0.189258 0.886982
0.976403 0.186885 0.886392
0.97636 0.18458 0.886325
0.976318 0.182274 0.886259
0.976276 0.179968 0.886193
0.976233 0.177663 0.886126
0.976191 0.175357 0.88606
0.976148 0.173051 0.885994
0.976106 0.170746 0.885927
0.976064 0.16844 0.885861
0.972992 0.166254 0.88632
0.97295 0.163954 0.886254
0.972908 0.161653 0.886188
0.972865 0.159353 0.886122
0.972823 0.157052 0.886056
0.972781 0.154752 0.885989
0.972739 0.152451 0.885923
0.972696 0.150151 0.885857
0.969626 0.148012 0.886318
0.969583 0.145717 0.886252
0.969541 0.143422 0.886186
0.969499 0.141127 0.88612
0.969457 0.138832 0.886054
0.969415 0.136536 0.885987
0.969373 0.134241 0.885921
0.969331 0.131946 0.885855
0.972316 0.129447 0.885261
0.972274 0.127147 0.885195
0.972232 0.124846 0.885129
0.972189 0.122546 0.885062
0.972147 0.120246 0.884996
0.975132 0.117715 0.884401
0.97509 0.11541 0.884335
0.970799 0.534758 0.896205
0.970757 0.532471 0.896139
0.970715 0.530185 0.896073
0.970673 0.527899 0.896007
0.970631 0.525612 0.895942
0.973631 0.524027 0.895369
0.973589 0.521735 0.895303
0.973547 0.519444 0.895237
0.975533 0.517609 0.894832
0.975491 0.515314 0.894766
0.975449 0.513019 0.8947
0.978448 0.511393 0.894126
0.978406 0.509093 0.89406
0.981405 0.507452 0.893486
0.981363 0.505146 0.893419
0.981321 0.50284 0.893353
0.98432 0.501178 0.892778
0.984277 0.498867 0.892711
0.984235 0.496556 0.892645
0.984192 0.494245 0.892578
0.98415 0.491934 0.892512
0.984107 0.489623 0.892445
0.984065 0.487312 0.892379
0.984022 0.485002 0.892312
0.98398 0.482691 0.892246
0.983938 0.48038 0.892179
0.983895 0.478069 0.892113
0.983853 0.475758 0.892046
0.98381 0.473447 0.89198
0.980728 0.470561 0.892424
0.980686 0.468255 0.892358
0.980643 0.46595 0.892291
0.980601 0.463644 0.892225
0.980558 0.461338 0.892159
0.977477 0.458484 0.892604
0.977434 0.456183 0.892537
0.974353 0.453345 0.892983
0.974311 0.45105 0.892917
0.974268 0.448755 0.892851
0.974226 0.446459 0.892785
0.974184 0.444164 0.892719
0.974142 0.441869 0.892653
0.972074 0.439236 0.892928
0.972032 0.436945 0.892862
0.97199 0.434653 0.892797
0.971948 0.432361 0.892731
0.971906 0.43007 0.892665
0.971864 0.427778 0.892599
0.971821 0.425486 0.892533
0.971779 0.423195 0.892467
0.968699 0.420438 0.892915
0.968657 0.418152 0.892849
0.968615 0.415866 0.892783
0.968573 0.413579 0.892717
0.968531 0.411293 0.892651
0.968489 0.409007 0.892586
0.968447 0.40672 0.89252
0.968405 0.404434 0.892454
0.968363 0.402147 0.892388
0.968321 0.399861 0.892322
0.968279 0.397575 0.892257
0.9652 0.394881 0.892706
0.965158 0.3926 0.892641
0.965117 0.390319 0.892575
0.965075 0.388038 0.892509
0.965033 0.385757 0.892444
0.964991 0.383476 0.892378
0.964949 0.381195 0.892312
0.967943 0.379283 0.89173
0.967901 0.376997 0.891664
0.967859 0.374711 0.891599
0.967817 0.372424 0.891533
0.967775 0.370138 0.891467
0.967733 0.367852 0.891401
0.967691 0.365565 0.891335
0.970685 0.363612 0.890752
0.970643 0.36132 0.890686
0.970601 0.359029 0.89062
0.970559 0.356737 0.890554
0.970517 0.354445 0.890488
0.970475 0.352154 0.890422
0.970432 0.349862 0.890356
0.97039 0.34757 0.89029
0.970348 0.345279 0.890224
0.970306 0.342987 0.890158
0.970264 0.340695 0.890092
0.967187 0.338129 0.890546
0.967145 0.335842 0.89048
0.967103 0.333556 0.890414
0.967061 0.331269 0.890348
0.967019 0.328983 0.890283
0.966977 0.326697 0.890217
0.966935 0.32441 0.890151
0.96386 0.321885 0.890606
0.963818 0.319604 0.89054
0.963776 0.317323 0.890474
0.963734 0.315042 0.890409
0.963692 0.312761 0.890343
0.96365 0.31048 0.890277
0.963608 0.308199 0.890212
0.963566 0.305918 0.890146
0.963524 0.303636 0.89008
0.963483 0.301355 0.890015
0.966474 0.29926 0.889427
0.966432 0.296974 0.889361
0.96639 0.294687 0.889296
0.96938 0.292571 0.888707
0.969338 0.290279 0.888641
0.969296 0.287987 0.888576
0.971275 0.285799 0.888161
0.971233 0.283503 0.888095
0.974223 0.281352 0.887506
0.977213 0.27919 0.886916
0.977171 0.276884 0.88685
0.977128 0.274579 0.886784
0.977086 0.272273 0.886717
0.980075 0.270085 0.886127
0.980033 0.267774 0.886061
0.97999 0.265463 0.885994
0.979948 0.263152 0.885928
0.979905 0.260841 0.885861
0.979863 0.25853 0.885795
0.97982 0.256219 0.885728
0.979778 0.253908 0.885662
0.979735 0.251597 0.885595
0.979693 0.249286 0.885528
0.97662 0.246911 0.885987
0.973547 0.244545 0.886447
0.973505 0.242245 0.88638
0.973463 0.239945 0.886314
0.97342 0.237644 0.886248
0.970348 0.235305 0.886708
0.970306 0.23301 0.886642
0.970264 0.230715 0.886576
0.968202 0.228405 0.886861
0.968159 0.226113 0.886795
0.968117 0.223821 0.886729
0.968075 0.22153 0.886663
0.968033 0.219238 0.886597
0.967991 0.216946 0.886531
0.967949 0.214655 0.886465
0.967907 0.212363 0.886399
0.967865 0.210071 0.886333
0.969842 0.207763 0.885915
0.9698 0.205468 0.885849
0.969758 0.203173 0.885783
0.969716 0.200878 0.885717
0.972702 0.198537 0.885122
0.97266 0.196237 0.885056
0.972618 0.193936 0.88499
0.972575 0.191636 0.884924
0.972533 0.189335 0.884858
0.975519 0.186963 0.884262
0.975477 0.184657 0.884196
0.975434 0.182352 0.884129
0.975392 0.180046 0.884063
0.97535 0.17774 0.883997
0.975307 0.175435 0.88393
0.975265 0.173129 0.883864
0.975222 0.170823 0.883798
0.97518 0.168518 0.883731
0.975138 0.166212 0.883665
0.975095 0.163906 0.883598
0.975053 0.161601 0.883532
0.971984 0.15943 0.883997
0.971941 0.15713 0.883931
0.971899 0.154829 0.883865
0.971857 0.152529 0.883798
0.971815 0.150228 0.883732
0.971772 0.147928 0.883666
0.97173 0.145628 0.8836
0.971688 0.143327 0.883533
0.971646 0.141027 0.883467
0.971603 0.138726 0.883401
0.971561 0.136426 0.883335
0.971519 0.134125 0.883269
0.974503 0.131627 0.882669
0.97446 0.129321 0.882603
0.974418 0.127015 0.882537
0.974375 0.12471 0.88247
0.974333 0.122404 0.882404
0.974291 0.120098 0.882338
0.977274 0.117563 0.881738
0.977231 0.115252 0.881671
0.969923 0.534835 0.894093
0.969881 0.532548 0.894027
0.969839 0.530262 0.893961
0.969797 0.527976 0.893895
0.969755 0.525689 0.89383
0.972753 0.524104 0.893252
0.972711 0.521813 0.893186
0.972669 0.519521 0.89312
0.974653 0.517686 0.892713
0.974611 0.515391 0.892646
0.974569 0.513096 0.89258
0.977567 0.511471 0.892002
0.977524 0.50917 0.891935
0.980522 0.507529 0.891356
0.980479 0.505224 0.89129
0.980437 0.502918 0.891223
0.983434 0.501256 0.890643
0.983391 0.498945 0.890577
0.983349 0.496634 0.89051
0.983307 0.494323 0.890444
0.983264 0.492012 0.890377
0.983222 0.489701 0.890311
0.983179 0.48739 0.890244
0.983137 0.485079 0.890178
0.983094 0.482768 0.890111
0.983052 0.480457 0.890045
0.983009 0.478146 0.889978
0.982967 0.475836 0.889912
0.982925 0.473525 0.889845
0.979844 0.470638 0.890294
0.979802 0.468333 0.890228
0.979759 0.466027 0.890162
0.979717 0.463721 0.890095
0.979675 0.461416 0.890029
0.976595 0.458561 0.890479
0.976553 0.456261 0.890413
0.97651 0.45396 0.890346
0.973431 0.451127 0.890797
0.973389 0.448832 0.890731
0.973347 0.446537 0.890665
0.973304 0.444241 0.890599
0.973262 0.441946 0.890533
0.97322 0.439651 0.890467
0.973178 0.437356 0.890401
0.973136 0.435061 0.890335
0.973094 0.432766 0.890269
0.973052 0.43047 0.890202
0.973009 0.428175 0.890136
0.970943 0.425563 0.890416
0.970901 0.423272 0.89035
0.970859 0.42098 0.890284
0.970817 0.418688 0.890218
0.970775 0.416397 0.890152
0.970733 0.414105 0.890086
0.970691 0.411813 0.89002
0.970648 0.409522 0.889954
0.970606 0.40723 0.889888
0.970564 0.404939 0.889822
0.970522 0.402647 0.889756
0.967445 0.399938 0.890211
0.967403 0.397651 0.890145
0.967361 0.395365 0.890079
0.967319 0.393079 0.890013
0.967277 0.390792 0.889947
0.967235 0.388506 0.889882
0.967193 0.38622 0.889816
0.964117 0.383553 0.890271
0.964075 0.381271 0.890206
0.967067 0.37936 0.889618
0.967025 0.377074 0.889553
0.966983 0.374788 0.889487
0.966941 0.372501 0.889421
0.966899 0.370215 0.889355
0.966857 0.367928 0.889289
0.966815 0.365642 0.889224
0.969807 0.363689 0.888635
0.969765 0.361397 0.888569
0.969722 0.359106 0.888503
0.96968 0.356814 0.888437
0.969638 0.354522 0.888371
0.969596 0.352231 0.888305
0.969554 0.349939 0.88824
0.969512 0.347647 0.888174
0.96947 0.345356 0.888108
0.969428 0.343064 0.888042
0.969386 0.340772 0.887976
0.966311 0.338205 0.888434
0.966269 0.335919 0.888368
0.966227 0.333633 0.888302
0.966185 0.331346 0.888237
0.966143 0.32906 0.888171
0.966101 0.326773 0.888105
0.966059 0.324487 0.888039
0.962985 0.321962 0.888499
0.962943 0.319681 0.888433
0.962902 0.3174 0.888367
0.96286 0.315119 0.888302
0.962818 0.312838 0.888236
0.962776 0.310556 0.88817
0.962734 0.308275 0.888105
0.962692 0.305994 0.888039
0.96265 0.303713 0.887973
0.962608 0.301432 0.887908
0.965597 0.299337 0.887315
0.965555 0.29705 0.88725
0.965513 0.294764 0.887184
0.968502 0.292648 0.886591
0.96846 0.290356 0.886525
0.968418 0.288065 0.886459
0.970396 0.285876 0.886041
0.970354 0.283581 0.885975
0.973341 0.281429 0.885381
0.976329 0.279268 0.884787
0.976287 0.276962 0.88472
0.976245 0.274656 0.884654
0.976202 0.27235 0.884588
0.979189 0.270162 0.883993
0.979147 0.267851 0.883926
0.979104 0.265541 0.88386
0.979062 0.26323 0.883793
0.97902 0.260919 0.883727
0.978977 0.258608 0.88366
0.978935 0.256297 0.883594
0.978892 0.253986 0.883527
0.97885 0.251675 0.88346
0.978807 0.249364 0.883394
0.975736 0.246988 0.883858
0.972665 0.244623 0.884322
0.972623 0.242322 0.884256
0.972581 0.240022 0.884189
0.972539 0.237721 0.884123
0.969468 0.235382 0.884588
0.969426 0.233087 0.884522
0.969384 0.230792 0.884456
0.967323 0.228482 0.884744
0.967281 0.22619 0.884678
0.967239 0.223898 0.884612
0.967197 0.221607 0.884546
0.967155 0.219315 0.88448
0.967113 0.217023 0.884414
0.967071 0.214732 0.884348
0.967029 0.21244 0.884282
0.966987 0.210148 0.884216
0.968962 0.207841 0.883795
0.96892 0.205545 0.883729
0.968878 0.20325 0.883663
0.968836 0.200955 0.883597
0.97182 0.198614 0.882998
0.971778 0.196314 0.882931
0.971736 0.194014 0.882865
0.971694 0.191713 0.882799
0.971651 0.189413 0.882733
0.974635 0.187041 0.882132
0.974593 0.184735 0.882066
0.974551 0.182429 0.882
0.974508 0.180124 0.881933
0.974466 0.177818 0.881867
0.974423 0.175512 0.881801
0.974381 0.173206 0.881734
0.974339 0.170901 0.881668
0.974296 0.168595 0.881602
0.974254 0.166289 0.881535
0.974212 0.163984 0.881469
0.974169 0.161678 0.881402
0.971102 0.159507 0.881872
0.97106 0.157207 0.881806
0.971018 0.154907 0.88174
0.970975 0.152606 0.881674
0.970933 0.150306 0.881607
0.970891 0.148005 0.881541
0.970849 0.145705 0.881475
0.970806 0.143404 0.881409
0.970764 0.141104 0.881342
0.970722 0.138804 0.881276
0.97068 0.136503 0.88121
0.970637 0.134203 0.881144
0.973619 0.131704 0.88054
0.973577 0.129399 0.880473
0.973534 0.127093 0.880407
0.973492 0.124787 0.880341
0.973449 0.122482 0.880274
0.973407 0.120176 0.880208
0.976388 0.117641 0.879603
0.976345 0.11533 0.879537
0.969046 0.534912 0.891981
0.969004 0.532625 0.891915
0.968962 0.530339 0.891849
0.96892 0.528052 0.891784
0.968878 0.525766 0.891718
0.971875 0.524181 0.891135
0.971833 0.52189 0.891069
0.971791 0.519598 0.891003
0.973774 0.517763 0.890593
0.973732 0.515468 0.890527
0.973689 0.513173 0.89046
0.976685 0.511548 0.889877
0.976643 0.509248 0.889811
0.976601 0.506947 0.889744
0.979596 0.505301 0.88916
0.979553 0.502995 0.889094
0.979511 0.50069 0.889027
0.982506 0.499023 0.888442
0.982463 0.496712 0.888376
0.982421 0.494401 0.888309
0.982378 0.49209 0.888243
0.982336 0.489779 0.888176
0.982294 0.487468 0.88811
0.982251 0.485157 0.888043
0.982209 0.482846 0.887977
0.982166 0.480535 0.88791
0.982124 0.478224 0.887844
0.982081 0.475913 0.887777
0.982039 0.473602 0.887711
0.978961 0.470716 0.888165
0.978918 0.46841 0.888098
0.978876 0.466105 0.888032
0.975798 0.463239 0.888486
0.975756 0.460939 0.88842
0.975713 0.458639 0.888354
0.975671 0.456338 0.888288
0.975629 0.454038 0.888222
0.972551 0.451204 0.888677
0.972509 0.448909 0.888611
0.972467 0.446614 0.888545
0.972425 0.444319 0.888479
0.972383 0.442023 0.888413
0.972341 0.439728 0.888347
0.972298 0.437433 0.888281
0.972256 0.435138 0.888215
0.972214 0.432843 0.888149
0.972172 0.430548 0.888083
0.97213 0.428252 0.888016
0.970065 0.42564 0.888299
0.970023 0.423349 0.888233
0.969981 0.421057 0.888167
0.969939 0.418765 0.888101
0.969896 0.416474 0.888035
0.969854 0.414182 0.88797
0.969812 0.41189 0.887904
0.96977 0.409599 0.887838
0.969728 0.407307 0.887772
0.969686 0.405016 0.887706
0.969644 0.402724 0.88764
0.966569 0.400015 0.888099
0.966527 0.397728 0.888033
0.966485 0.395442 0.887967
0.966443 0.393156 0.887901
0.966401 0.390869 0.887836
0.966359 0.388583 0.88777
0.966317 0.386296 0.887704
0.966275 0.38401 0.887638
0.966233 0.381724 0.887572
0.966191 0.379437 0.887507
0.966149 0.377151 0.887441
0.966107 0.374864 0.887375
0.969097 0.372933 0.886782
0.969055 0.370641 0.886716
0.969013 0.368349 0.88665
0.96897 0.366058 0.886584
0.968928 0.363766 0.886519
0.968886 0.361474 0.886453
0.968844 0.359183 0.886387
0.968802 0.356891 0.886321
0.96876 0.354599 0.886255
0.968718 0.352308 0.886189
0.970696 0.350217 0.885771
0.970654 0.347922 0.885705
0.968592 0.345433 0.885991
0.96855 0.343141 0.885925
0.968507 0.340849 0.885859
0.968465 0.338558 0.885793
0.968423 0.336266 0.885727
0.968381 0.333974 0.885661
0.968339 0.331683 0.885595
0.968297 0.329391 0.885529
0.968255 0.3271 0.885463
0.968213 0.324808 0.885397
0.968171 0.322516 0.885331
0.968129 0.320225 0.885265
0.968087 0.317933 0.885199
0.968044 0.315641 0.885134
0.968002 0.31335 0.885068
0.96796 0.311058 0.885002
0.967918 0.308766 0.884936
0.967876 0.306475 0.88487
0.967834 0.304183 0.884804
0.967792 0.301891 0.884738
0.96775 0.2996 0.884672
0.967708 0.297308 0.884606
0.969685 0.295134 0.884185
0.969643 0.292838 0.884119
0.9696 0.290543 0.884053
0.972587 0.288408 0.883455
0.975573 0.286262 0.882856
0.97553 0.283956 0.88279
0.975488 0.281651 0.882723
0.981501 0.279623 0.881591
0.981459 0.277306 0.881524
0.981416 0.27499 0.881458
0.981374 0.272674 0.881391
0.981331 0.270358 0.881324
0.981289 0.268042 0.881258
0.981246 0.265725 0.881191
0.981204 0.263409 0.881124
0.981161 0.261093 0.881058
0.981118 0.258777 0.880991
0.981076 0.256461 0.880924
0.981033 0.254144 0.880858
0.980991 0.251828 0.880791
0.980948 0.249512 0.880725
0.977879 0.247131 0.881193
0.97481 0.24476 0.881662
0.974768 0.242454 0.881595
0.974726 0.240149 0.881529
0.974683 0.237843 0.881463
0.971615 0.235498 0.881932
0.968546 0.233164 0.882402
0.968504 0.230869 0.882336
0.968462 0.228574 0.88227
0.96842 0.226279 0.882204
0.968378 0.223984 0.882138
0.968336 0.221689 0.882072
0.968294 0.219393 0.882006
0.968251 0.217098 0.88194
0.968209 0.214803 0.881873
0.968167 0.212508 0.881807
0.968125 0.210213 0.881741
0.968083 0.207918 0.881675
0.971065 0.205593 0.881071
0.971023 0.203293 0.881005
0.970981 0.200992 0.880939
0.973963 0.198646 0.880335
0.973921 0.196341 0.880268
0.973879 0.194035 0.880202
0.973836 0.191729 0.880135
0.973794 0.189424 0.880069
0.973752 0.187118 0.880003
0.973709 0.184812 0.879936
0.973667 0.182507 0.87987
0.976648 0.180114 0.879264
0.976606 0.177803 0.879198
0.976563 0.175492 0.879131
0.976521 0.173181 0.879065
0.976478 0.17087 0.878998
0.976436 0.168559 0.878932
0.97337 0.166367 0.879406
0.973328 0.164061 0.879339
0.973286 0.161756 0.879273
0.973243 0.15945 0.879206
0.973201 0.157144 0.87914
0.973159 0.154839 0.879074
0.973116 0.152533 0.879007
0.973074 0.150227 0.878941
0.973032 0.147922 0.878875
0.972989 0.145616 0.878808
0.972947 0.14331 0.878742
0.972905 0.141005 0.878676
0.972862 0.138699 0.878609
0.97282 0.136393 0.878543
0.972778 0.134088 0.878477
0.975757 0.131584 0.877868
0.975714 0.129273 0.877801
0.975672 0.126962 0.877735
0.97563 0.124651 0.877668
0.975587 0.12234 0.877602
0.975545 0.120029 0.877535
0.978523 0.117489 0.876925
0.978481 0.115173 0.876858
0.96817 0.534988 0.889869
0.968128 0.532702 0.889803
0.968086 0.530416 0.889738
0.968044 0.528129 0.889672
0.968002 0.525843 0.889606
0.970996 0.524258 0.889019
0.970954 0.521967 0.888953
0.970912 0.519675 0.888887
0.972894 0.517841 0.888473
0.972852 0.515546 0.888407
0.97281 0.51325 0.888341
0.972768 0.510955 0.888274
0.972726 0.50866 0.888208
0.975719 0.507025 0.88762
0.975677 0.504724 0.887553
0.975634 0.502424 0.887487
0.978627 0.500767 0.886898
0.978585 0.498462 0.886831
0.978543 0.496156 0.886765
0.9785 0.49385 0.886699
0.978458 0.491545 0.886632
0.98145 0.489857 0.886042
0.981408 0.487546 0.885975
0.981365 0.485235 0.885909
0.981323 0.482924 0.885842
0.98128 0.480613 0.885776
0.981238 0.478302 0.885709
0.981196 0.475991 0.885643
0.981153 0.47368 0.885576
0.978077 0.470794 0.886035
0.978034 0.468488 0.885969
0.977992 0.466182 0.885902
0.974916 0.463317 0.886362
0.974874 0.461016 0.886295
0.974832 0.458716 0.886229
0.974789 0.456415 0.886163
0.974747 0.454115 0.886097
0.974705 0.451815 0.886031
0.974663 0.449514 0.885964
0.97462 0.447214 0.885898
0.974578 0.444913 0.885832
0.974536 0.442613 0.885766
0.971461 0.439805 0.886227
0.971419 0.43751 0.886161
0.971377 0.435215 0.886095
0.971334 0.43292 0.886029
0.971292 0.430625 0.885963
0.97125 0.42833 0.885897
0.971208 0.426035 0.88583
0.971166 0.423739 0.885764
0.971124 0.421444 0.885698
0.971081 0.419149 0.885632
0.971039 0.416854 0.885566
0.970997 0.414559 0.8855
0.970955 0.412264 0.885434
0.970913 0.409968 0.885368
0.970871 0.407673 0.885302
0.970829 0.405378 0.885236
0.968766 0.402801 0.885523
0.968724 0.400509 0.885457
0.968681 0.398218 0.885391
0.968639 0.395926 0.885325
0.968597 0.393634 0.885259
0.968555 0.391343 0.885193
0.968513 0.389051 0.885127
0.968471 0.386759 0.885061
0.968429 0.384468 0.884995
0.968387 0.382176 0.884929
0.968345 0.379884 0.884864
0.968303 0.377593 0.884798
0.968261 0.375301 0.884732
0.968218 0.37301 0.884666
0.968176 0.370718 0.8846
0.968134 0.368426 0.884534
0.968092 0.366135 0.884468
0.96805 0.363843 0.884402
0.970028 0.36177 0.883981
0.969985 0.359475 0.883915
0.969943 0.35718 0.883849
0.969901 0.354885 0.883783
0.969859 0.35259 0.883717
0.969817 0.350294 0.883651
0.969775 0.347999 0.883585
0.969732 0.345704 0.883519
0.96969 0.343409 0.883453
0.969648 0.341114 0.883386
0.969606 0.338819 0.88332
0.969564 0.336523 0.883254
0.969522 0.334228 0.883188
0.96948 0.331933 0.883122
0.969437 0.329638 0.883056
0.969395 0.327343 0.88299
0.969353 0.325048 0.882924
0.969311 0.322753 0.882858
0.969269 0.320457 0.882792
0.969227 0.318162 0.882726
0.969184 0.315867 0.88266
0.969142 0.313572 0.882594
0.9691 0.311277 0.882528
0.969058 0.308982 0.882462
0.969016 0.306686 0.882396
0.968974 0.304391 0.88233
0.968931 0.302096 0.882264
0.968889 0.299801 0.882198
0.968847 0.297506 0.882131
0.971832 0.295386 0.881529
0.974816 0.293257 0.880925
0.974774 0.290951 0.880859
0.977757 0.288805 0.880256
0.977715 0.286494 0.880189
0.977673 0.284183 0.880123
0.980656 0.282017 0.879518
0.982631 0.279793 0.879093
0.982588 0.277473 0.879026
0.982546 0.275154 0.87896
0.982503 0.272834 0.878893
0.985486 0.270632 0.878288
0.985443 0.268307 0.878221
0.985401 0.265982 0.878154
0.985358 0.263657 0.878087
0.985315 0.261332 0.87802
0.985273 0.259007 0.877953
0.98523 0.256682 0.877886
0.982162 0.254276 0.878359
0.980103 0.251906 0.878652
0.980061 0.24959 0.878585
0.980018 0.247274 0.878518
0.976951 0.244897 0.878992
0.976909 0.242587 0.878925
0.973842 0.240226 0.879399
0.9738 0.23792 0.879333
0.973757 0.235615 0.879267
0.970691 0.233275 0.879741
0.970649 0.230975 0.879675
0.970606 0.228674 0.879609
0.970564 0.226374 0.879542
0.970522 0.224074 0.879476
0.97048 0.221773 0.87941
0.970437 0.219473 0.879344
0.970395 0.217172 0.879278
0.970353 0.214872 0.879211
0.970311 0.212572 0.879145
0.970268 0.210271 0.879079
0.970226 0.207971 0.879013
0.970184 0.20567 0.878947
0.970142 0.20337 0.87888
0.973122 0.20103 0.878271
0.97308 0.198724 0.878205
0.973037 0.196418 0.878139
0.976017 0.194057 0.877529
0.975975 0.191746 0.877462
0.975932 0.189435 0.877396
0.97589 0.187124 0.877329
0.975847 0.184813 0.877263
0.975805 0.182502 0.877196
0.975763 0.180191 0.87713
0.97572 0.17788 0.877063
0.975678 0.175569 0.876997
0.975635 0.173259 0.87693
0.975593 0.170948 0.876864
0.97555 0.168637 0.876797
0.975508 0.166326 0.876731
0.975465 0.164015 0.876664
0.975423 0.161704 0.876598
0.975381 0.159393 0.876531
0.975338 0.157082 0.876465
0.975296 0.154771 0.876398
0.975253 0.15246 0.876332
0.975211 0.150149 0.876265
0.975168 0.147838 0.876199
0.975126 0.145527 0.876132
0.975083 0.143216 0.876066
0.975041 0.140905 0.875999
0.974998 0.138595 0.875933
0.977976 0.136096 0.875319
0.977933 0.13378 0.875252
0.977891 0.131464 0.875185
0.977848 0.129148 0.875119
0.977806 0.126832 0.875052
0.979776 0.124373 0.87462
0.979734 0.122053 0.874553
0.979691 0.119734 0.874487
0.979648 0.117414 0.87442
0.977593 0.115251 0.874719
0.967294 0.535065 0.887757
0.967252 0.532779 0.887692
0.96721 0.530493 0.887626
0.970202 0.528919 0.887034
0.97016 0.526627 0.886968
0.970118 0.524335 0.886902
0.972099 0.522508 0.886485
0.972057 0.520213 0.886419
0.972015 0.517918 0.886353
0.971972 0.515623 0.886287
0.97193 0.513328 0.886221
0.971888 0.511032 0.886155
0.971846 0.508737 0.886089
0.974837 0.507102 0.885495
0.974795 0.504802 0.885429
0.974753 0.502501 0.885362
0.977744 0.500845 0.884768
0.977701 0.498539 0.884702
0.977659 0.496233 0.884635
0.977617 0.493928 0.884569
0.977574 0.491622 0.884503
0.980565 0.489934 0.883907
0.980522 0.487623 0.883841
0.98048 0.485312 0.883774
0.980437 0.483001 0.883708
0.980395 0.48069 0.883641
0.97732 0.477788 0.884104
0.977278 0.475482 0.884038
0.977235 0.473177 0.883972
0.977193 0.470871 0.883905
0.977151 0.468565 0.883839
0.977108 0.46626 0.883773
0.974034 0.463394 0.884237
0.973992 0.461094 0.884171
0.97395 0.458793 0.884104
0.973908 0.456493 0.884038
0.973865 0.454192 0.883972
0.973823 0.451892 0.883906
0.973781 0.449592 0.88384
0.973739 0.447291 0.883773
0.973696 0.444991 0.883707
0.973654 0.44269 0.883641
0.970581 0.439883 0.884107
0.970539 0.437587 0.884041
0.970497 0.435292 0.883975
0.970455 0.432997 0.883909
0.970413 0.430702 0.883843
0.97037 0.428407 0.883777
0.970328 0.426112 0.883711
0.970286 0.423817 0.883645
0.970244 0.421521 0.883578
0.970202 0.419226 0.883512
0.97016 0.416931 0.883446
0.970117 0.414636 0.88338
0.970075 0.412341 0.883314
0.970033 0.410046 0.883248
0.969991 0.40775 0.883182
0.969949 0.405455 0.883116
0.967887 0.402878 0.883406
0.967845 0.400586 0.88334
0.967803 0.398295 0.883274
0.967761 0.396003 0.883208
0.967719 0.393711 0.883143
0.967677 0.39142 0.883077
0.967635 0.389128 0.883011
0.967593 0.386836 0.882945
0.967551 0.384545 0.882879
0.967508 0.382253 0.882813
0.967466 0.379962 0.882747
0.967424 0.37767 0.882681
0.967382 0.375378 0.882615
0.96734 0.373087 0.882549
0.967298 0.370795 0.882483
0.967256 0.368503 0.882417
0.967214 0.366212 0.882351
0.967172 0.36392 0.882285
0.969148 0.361847 0.881861
0.969106 0.359552 0.881795
0.969064 0.357257 0.881729
0.969021 0.354962 0.881663
0.968979 0.352667 0.881597
0.968937 0.350372 0.881531
0.968895 0.348076 0.881465
0.968853 0.345781 0.881399
0.968811 0.343486 0.881333
0.968769 0.341191 0.881267
0.968726 0.338896 0.881201
0.968684 0.336601 0.881134
0.968642 0.334306 0.881068
0.9686 0.33201 0.881002
0.968558 0.329715 0.880936
0.968516 0.32742 0.88087
0.968473 0.325125 0.880804
0.968431 0.32283 0.880738
0.968389 0.320535 0.880672
0.968347 0.318239 0.880606
0.968305 0.315944 0.88054
0.968263 0.313649 0.880474
0.96822 0.311354 0.880408
0.968178 0.309059 0.880342
0.968136 0.306764 0.880276
0.968094 0.304469 0.88021
0.968052 0.302173 0.880144
0.96801 0.299878 0.880078
0.967968 0.297583 0.880012
0.97095 0.295464 0.879404
0.973932 0.293334 0.878796
0.97389 0.291028 0.878729
0.976872 0.288883 0.878121
0.976829 0.286572 0.878055
0.976787 0.284261 0.877988
0.979768 0.282095 0.877379
0.981742 0.279871 0.876951
0.981699 0.277551 0.876884
0.981657 0.275232 0.876817
0.981614 0.272912 0.87675
0.984595 0.27071 0.87614
0.984552 0.268385 0.876073
0.98451 0.26606 0.876006
0.984467 0.263735 0.875939
0.984424 0.261411 0.875873
0.984381 0.259086 0.875806
0.984339 0.256761 0.875739
0.981273 0.254354 0.876216
0.979215 0.251984 0.876512
0.979173 0.249668 0.876446
0.97913 0.247352 0.876379
0.976065 0.244975 0.876857
0.976023 0.242664 0.876791
0.972958 0.240304 0.87727
0.972916 0.237998 0.877203
0.972874 0.235692 0.877137
0.969809 0.233353 0.877616
0.969767 0.231052 0.87755
0.969725 0.228752 0.877484
0.969682 0.226451 0.877418
0.96964 0.224151 0.877351
0.969598 0.221851 0.877285
0.969556 0.21955 0.877219
0.969513 0.21725 0.877153
0.969471 0.214949 0.877087
0.969429 0.212649 0.87702
0.969387 0.210349 0.876954
0.969344 0.208048 0.876888
0.969302 0.205748 0.876822
0.96926 0.203447 0.876756
0.972238 0.201107 0.876142
0.972196 0.198801 0.876075
0.972154 0.196496 0.876009
0.975132 0.194135 0.875394
0.975089 0.191824 0.875328
0.975047 0.189513 0.875261
0.975004 0.187202 0.875195
0.974962 0.184891 0.875128
0.974919 0.18258 0.875062
0.974877 0.180269 0.874995
0.974834 0.177958 0.874929
0.974792 0.175647 0.874862
0.974749 0.173336 0.874796
0.974707 0.171025 0.874729
0.974665 0.168714 0.874663
0.974622 0.166403 0.874596
0.97458 0.164092 0.87453
0.974537 0.161782 0.874463
0.974495 0.159471 0.874397
0.974452 0.15716 0.87433
0.97441 0.154849 0.874264
0.974367 0.152538 0.874197
0.974325 0.150227 0.874131
0.974283 0.147916 0.874064
0.97424 0.145605 0.873998
0.974198 0.143294 0.873931
0.974155 0.140983 0.873865
0.974113 0.138672 0.873798
0.977088 0.136174 0.873179
0.977046 0.133858 0.873113
0.977003 0.131542 0.873046
0.976961 0.129226 0.872979
0.976918 0.12691 0.872913
0.978887 0.124451 0.872478
0.978845 0.122131 0.872411
0.978802 0.119812 0.872344
0.978759 0.117492 0.872277
0.978717 0.115172 0.872211
0.966418 0.535142 0.885646
0.966376 0.532856 0.88558
0.966334 0.530569 0.885514
0.969324 0.528996 0.884917
0.969282 0.526704 0.884851
0.96924 0.524412 0.884785
0.971219 0.522585 0.884365
0.971177 0.52029 0.884299
0.971135 0.517995 0.884233
0.971093 0.5157 0.884167
0.971051 0.513405 0.884101
0.971008 0.51111 0.884035
0.970966 0.508814 0.883969
0.973956 0.507179 0.88337
0.973913 0.504879 0.883304
0.973871 0.502578 0.883238
0.973829 0.500278 0.883171
0.976818 0.498617 0.882572
0.976775 0.496311 0.882506
0.976733 0.494005 0.882439
0.976691 0.4917 0.882373
0.976648 0.489394 0.882307
0.976606 0.487088 0.88224
0.976564 0.484783 0.882174
0.976521 0.482477 0.882107
0.976479 0.480171 0.882041
0.976437 0.477866 0.881975
0.976394 0.47556 0.881908
0.976352 0.473254 0.881842
0.976309 0.470949 0.881776
0.976267 0.468643 0.881709
0.976225 0.466337 0.881643
0.973153 0.463471 0.882112
0.973111 0.461171 0.882046
0.973068 0.458871 0.88198
0.973026 0.45657 0.881913
0.972984 0.45427 0.881847
0.972942 0.451969 0.881781
0.972899 0.449669 0.881715
0.972857 0.447369 0.881649
0.972815 0.445068 0.881582
0.972773 0.442768 0.881516
0.97273 0.440467 0.88145
0.972688 0.438167 0.881384
0.972646 0.435866 0.881318
0.972603 0.433566 0.881251
0.972561 0.431266 0.881185
0.972519 0.428965 0.881119
0.972477 0.426665 0.881053
0.972434 0.424364 0.880987
0.972392 0.422064 0.88092
0.97235 0.419764 0.880854
0.972308 0.417463 0.880788
0.972265 0.415163 0.880722
0.972223 0.412862 0.880656
0.972181 0.410562 0.880589
0.972139 0.408261 0.880523
0.972096 0.405961 0.880457
0.969027 0.403237 0.88093
0.968985 0.400942 0.880864
0.968943 0.398647 0.880798
0.968901 0.396352 0.880732
0.968858 0.394057 0.880666
0.968816 0.391762 0.8806
0.968774 0.389466 0.880534
0.968732 0.387171 0.880468
0.96869 0.384876 0.880402
0.968648 0.382581 0.880336
0.968606 0.380286 0.88027
0.968563 0.377991 0.880203
0.968521 0.375695 0.880137
0.968479 0.3734 0.880071
0.968437 0.371105 0.880005
0.968395 0.36881 0.879939
0.968353 0.366515 0.879873
0.96831 0.36422 0.879807
0.971294 0.362253 0.879199
0.971251 0.359953 0.879133
0.971209 0.357652 0.879067
0.971167 0.355352 0.879
0.971125 0.353052 0.878934
0.971082 0.350751 0.878868
0.97104 0.348451 0.878802
0.970998 0.34615 0.878736
0.970956 0.34385 0.878669
0.970913 0.341549 0.878603
0.973896 0.339525 0.877993
0.973853 0.337219 0.877927
0.970787 0.334648 0.878405
0.970744 0.332348 0.878338
0.970702 0.330047 0.878272
0.97066 0.327747 0.878206
0.970618 0.325447 0.87814
0.970575 0.323146 0.878074
0.970533 0.320846 0.878007
0.970491 0.318545 0.877941
0.970449 0.316245 0.877875
0.970406 0.313944 0.877809
0.970364 0.311644 0.877742
0.970322 0.309344 0.877676
0.97028 0.307043 0.87761
0.970237 0.304743 0.877544
0.970195 0.302442 0.877478
0.973176 0.300329 0.876865
0.973133 0.298023 0.876799
0.973091 0.295717 0.876733
0.976071 0.293583 0.87612
0.976029 0.291272 0.876053
0.979008 0.289121 0.87544
0.980981 0.286908 0.875008
0.980938 0.284588 0.874941
0.980895 0.282269 0.874875
0.983875 0.280088 0.87426
0.983832 0.277763 0.874193
0.986811 0.275567 0.873579
0.986768 0.273237 0.873512
0.986725 0.270907 0.873445
0.986683 0.268577 0.873378
0.98664 0.266246 0.87331
0.986597 0.263916 0.873243
0.986554 0.261586 0.873176
0.98349 0.259164 0.873658
0.983448 0.256839 0.873591
0.983405 0.254514 0.873524
0.980342 0.252113 0.874007
0.980299 0.249793 0.87394
0.980256 0.247473 0.873873
0.9782 0.245113 0.874173
0.978158 0.242797 0.874106
0.975095 0.240431 0.87459
0.975052 0.23812 0.874523
0.97501 0.235809 0.874457
0.971948 0.233464 0.874941
0.971905 0.231158 0.874875
0.971863 0.228853 0.874808
0.968801 0.226529 0.875293
0.968759 0.224228 0.875227
0.968716 0.221928 0.87516
0.968674 0.219628 0.875094
0.971651 0.217324 0.874476
0.971609 0.215019 0.87441
0.971566 0.212713 0.874344
0.971524 0.210407 0.874277
0.971482 0.208102 0.874211
0.971439 0.205796 0.874145
0.971397 0.20349 0.874078
0.974373 0.201145 0.873459
0.974331 0.198834 0.873393
0.974288 0.196523 0.873326
0.974246 0.194212 0.87326
0.977222 0.191841 0.87264
0.977179 0.189525 0.872573
0.977137 0.187208 0.872507
0.977094 0.184892 0.87244
0.977051 0.182576 0.872373
0.977009 0.18026 0.872307
0.976966 0.177944 0.87224
0.976924 0.175627 0.872173
0.976881 0.173311 0.872107
0.976839 0.170995 0.87204
0.976796 0.168679 0.871973
0.976754 0.166363 0.871907
0.976711 0.164046 0.87184
0.976669 0.16173 0.871773
0.976626 0.159414 0.871707
0.976583 0.157098 0.87164
0.976541 0.154782 0.871573
0.976498 0.152466 0.871507
0.976456 0.150149 0.87144
0.978424 0.147726 0.871003
0.978382 0.145406 0.870936
0.978339 0.143087 0.870869
0.978296 0.140767 0.870802
0.978254 0.138447 0.870736
0.978211 0.136128 0.870669
0.978169 0.133808 0.870602
0.978126 0.131488 0.870535
0.981099 0.128966 0.869911
0.981056 0.126641 0.869844
0.981014 0.124316 0.869777
0.980971 0.121991 0.86971
0.980928 0.119666 0.869643
0.980885 0.117341 0.869577
0.980843 0.115016 0.86951
0.968572 0.535948 0.882998
0.96853 0.533656 0.882932
0.968488 0.531364 0.882866
0.968446 0.529073 0.8828
0.968404 0.526781 0.882734
0.970382 0.524958 0.882311
0.97034 0.522662 0.882245
0.970297 0.520367 0.882179
0.970255 0.518072 0.882113
0.970213 0.515777 0.882047
0.970171 0.513482 0.881981
0.973158 0.511857 0.881378
0.973116 0.509557 0.881311
0.973074 0.507257 0.881245
0.973032 0.504956 0.881179
0.972989 0.502656 0.881113
0.972947 0.500355 0.881047
0.975934 0.498694 0.880442
0.975892 0.496388 0.880376
0.975849 0.494083 0.88031
0.975807 0.491777 0.880243
0.975765 0.489471 0.880177
0.975722 0.487166 0.88011
0.97568 0.48486 0.880044
0.975638 0.482554 0.879978
0.975595 0.480249 0.879911
0.975553 0.477943 0.879845
0.97551 0.475637 0.879779
0.975468 0.473332 0.879712
0.975426 0.471026 0.879646
0.975383 0.46872 0.87958
0.975341 0.466415 0.879513
0.972271 0.463549 0.879987
0.972229 0.461248 0.879921
0.972187 0.458948 0.879855
0.972144 0.456648 0.879789
0.972102 0.454347 0.879722
0.97206 0.452047 0.879656
0.972018 0.449746 0.87959
0.971975 0.447446 0.879524
0.971933 0.445145 0.879458
0.974918 0.443358 0.87885
0.974875 0.441052 0.878783
0.974833 0.438747 0.878717
0.974791 0.436441 0.878651
0.974748 0.434135 0.878584
0.974706 0.43183 0.878518
0.974664 0.429524 0.878452
0.974621 0.427218 0.878385
0.974579 0.424913 0.878319
0.974536 0.422607 0.878253
0.974494 0.420301 0.878186
0.974452 0.417996 0.87812
0.974409 0.41569 0.878053
0.974367 0.413384 0.877987
0.974325 0.411079 0.877921
0.974282 0.408773 0.877854
0.97424 0.406467 0.877788
0.971173 0.403738 0.878266
0.97113 0.401438 0.8782
0.971088 0.399137 0.878133
0.971046 0.396837 0.878067
0.971004 0.394536 0.878001
0.970961 0.392236 0.877935
0.970919 0.389936 0.877869
0.970877 0.387635 0.877802
0.970835 0.385335 0.877736
0.970792 0.383034 0.87767
0.97075 0.380734 0.877604
0.970708 0.378433 0.877538
0.967642 0.375773 0.878017
0.967599 0.373477 0.877951
0.967557 0.371182 0.877885
0.970539 0.369232 0.877273
0.970497 0.366931 0.877207
0.970454 0.364631 0.87714
0.970412 0.362331 0.877074
0.97037 0.36003 0.877008
0.973351 0.358048 0.876395
0.973308 0.355742 0.876328
0.973266 0.353437 0.876262
0.973224 0.351131 0.876195
0.973181 0.348825 0.876129
0.973139 0.34652 0.876063
0.976119 0.344501 0.875448
0.973054 0.341908 0.87593
0.973012 0.339603 0.875864
0.975992 0.337568 0.875249
0.975949 0.335257 0.875182
0.972885 0.332686 0.875665
0.972842 0.33038 0.875598
0.9728 0.328074 0.875532
0.972758 0.325769 0.875466
0.972715 0.323463 0.875399
0.972673 0.321157 0.875333
0.972631 0.318852 0.875266
0.972588 0.316546 0.8752
0.972546 0.31424 0.875134
0.972504 0.311935 0.875067
0.972461 0.309629 0.875001
0.972419 0.307323 0.874935
0.975398 0.305215 0.874318
0.975355 0.302904 0.874251
0.975313 0.300593 0.874185
0.97527 0.298282 0.874118
0.978248 0.296147 0.8735
0.978206 0.293831 0.873434
0.978163 0.291515 0.873367
0.980134 0.289306 0.872932
0.983112 0.287141 0.872314
0.983069 0.284816 0.872247
0.986046 0.282636 0.871628
0.986004 0.280306 0.87156
0.985961 0.277976 0.871493
0.988938 0.275775 0.870874
0.988895 0.273439 0.870806
0.988852 0.271104 0.870739
0.988809 0.268768 0.870672
0.988766 0.266433 0.870605
0.988723 0.264097 0.870538
0.98868 0.261762 0.87047
0.988637 0.259426 0.870403
0.985576 0.257004 0.87089
0.985533 0.254674 0.870823
0.982471 0.252267 0.87131
0.982429 0.249942 0.871243
0.979367 0.247551 0.871731
0.979325 0.245232 0.871664
0.979282 0.242912 0.871597
0.977227 0.240559 0.8719
0.977185 0.238243 0.871834
0.977142 0.235926 0.871767
0.974082 0.233576 0.872256
0.974039 0.231265 0.872189
0.973997 0.228954 0.872123
0.967919 0.226606 0.873168
0.967877 0.224306 0.873102
0.967835 0.222005 0.873036
0.967792 0.219705 0.872969
0.970767 0.217402 0.872347
0.970725 0.215096 0.87228
0.970683 0.212791 0.872214
0.97064 0.210485 0.872148
0.970598 0.208179 0.872081
0.970556 0.205874 0.872015
0.970513 0.203568 0.871949
0.973487 0.201223 0.871325
0.973445 0.198912 0.871258
0.973403 0.196601 0.871192
0.97336 0.19429 0.871125
0.976334 0.191919 0.870501
0.976291 0.189603 0.870434
0.976249 0.187286 0.870367
0.976206 0.18497 0.870301
0.976164 0.182654 0.870234
0.976121 0.180338 0.870167
0.976079 0.178022 0.870101
0.976036 0.175705 0.870034
0.975994 0.173389 0.869967
0.975951 0.171073 0.869901
0.975908 0.168757 0.869834
0.975866 0.166441 0.869767
0.975823 0.164124 0.869701
0.975781 0.161808 0.869634
0.975738 0.159492 0.869567
0.975696 0.157176 0.869501
0.975653 0.15486 0.869434
0.975611 0.152543 0.869367
0.975568 0.150227 0.869301
0.977535 0.147804 0.86886
0.977493 0.145484 0.868793
0.97745 0.143165 0.868726
0.977407 0.140845 0.86866
0.977365 0.138525 0.868593
0.977322 0.136206 0.868526
0.97728 0.133886 0.868459
0.977237 0.131566 0.868393
0.980208 0.129044 0.867764
0.980165 0.126719 0.867697
0.980123 0.124394 0.86763
0.98008 0.122069 0.867563
0.980037 0.119744 0.867496
0.979994 0.117419 0.867429
0.979952 0.115094 0.867362
0.967694 0.536025 0.880882
0.967652 0.533733 0.880816
0.96761 0.531441 0.88075
0.967567 0.52915 0.880684
0.967525 0.526858 0.880618
0.969502 0.525035 0.880191
0.96946 0.52274 0.880125
0.969418 0.520444 0.880059
0.969376 0.518149 0.879993
0.969333 0.515854 0.879927
0.969291 0.513559 0.879861
0.972277 0.511935 0.879253
0.972235 0.509634 0.879187
0.972192 0.507334 0.87912
0.97215 0.505034 0.879054
0.972108 0.502733 0.878988
0.972065 0.500433 0.878922
0.97505 0.498772 0.878313
0.975008 0.496466 0.878246
0.974966 0.49416 0.87818
0.974923 0.491855 0.878114
0.974881 0.489549 0.878047
0.974839 0.487243 0.877981
0.974796 0.484938 0.877914
0.974754 0.482632 0.877848
0.974712 0.480326 0.877782
0.974669 0.478021 0.877715
0.974627 0.475715 0.877649
0.974584 0.473409 0.877583
0.974542 0.471104 0.877516
0.9745 0.468798 0.87745
0.974457 0.466492 0.877384
0.971389 0.463626 0.877862
0.971347 0.461326 0.877796
0.971305 0.459025 0.87773
0.971263 0.456725 0.877664
0.97122 0.454424 0.877598
0.971178 0.452124 0.877531
0.971136 0.449824 0.877465
0.971094 0.447523 0.877399
0.971051 0.445223 0.877333
0.974034 0.443435 0.87672
0.973992 0.44113 0.876654
0.973949 0.438824 0.876587
0.973907 0.436518 0.876521
0.973865 0.434213 0.876455
0.973822 0.431907 0.876388
0.97378 0.429601 0.876322
0.973737 0.427296 0.876256
0.973695 0.42499 0.876189
0.973653 0.422684 0.876123
0.97361 0.420379 0.876056
0.973568 0.418073 0.87599
0.973526 0.415767 0.875924
0.973483 0.413462 0.875857
0.973441 0.411156 0.875791
0.973399 0.40885 0.875725
0.973356 0.406545 0.875658
0.970291 0.403815 0.876141
0.970249 0.401515 0.876075
0.970206 0.399215 0.876009
0.970164 0.396914 0.875942
0.970122 0.394614 0.875876
0.97008 0.392313 0.87581
0.970037 0.390013 0.875744
0.969995 0.387712 0.875678
0.969953 0.385412 0.875611
0.969911 0.383112 0.875545
0.969868 0.380811 0.875479
0.969826 0.378511 0.875413
0.966762 0.37585 0.875898
0.96672 0.373555 0.875832
0.966678 0.371259 0.875765
0.969657 0.369309 0.875148
0.969615 0.367009 0.875082
0.969573 0.364708 0.875016
0.96953 0.362408 0.874949
0.969488 0.360107 0.874883
0.972467 0.358126 0.874265
0.972425 0.35582 0.874198
0.972382 0.353514 0.874132
0.97234 0.351209 0.874066
0.972298 0.348903 0.873999
0.972255 0.346597 0.873933
0.975233 0.344578 0.873314
0.972171 0.341986 0.8738
0.972128 0.33968 0.873734
0.975106 0.337646 0.873114
0.975064 0.335335 0.873048
0.972001 0.332763 0.873535
0.971959 0.330457 0.873469
0.971916 0.328152 0.873402
0.971874 0.325846 0.873336
0.971832 0.32354 0.87327
0.971789 0.321235 0.873203
0.971747 0.318929 0.873137
0.971705 0.316623 0.87307
0.971662 0.314318 0.873004
0.97162 0.312012 0.872938
0.971578 0.309706 0.872871
0.971535 0.307401 0.872805
0.974512 0.305293 0.872183
0.974469 0.302982 0.872117
0.974427 0.300671 0.87205
0.974384 0.29836 0.871984
0.977361 0.296225 0.871361
0.977318 0.293909 0.871294
0.977276 0.291593 0.871228
0.979245 0.289384 0.87079
0.982221 0.28722 0.870166
0.982178 0.284895 0.870099
0.985153 0.282715 0.869475
0.98511 0.280384 0.869408
0.985068 0.278054 0.869341
0.988043 0.275853 0.868716
0.988 0.273518 0.868649
0.987957 0.271182 0.868582
0.987914 0.268847 0.868515
0.987871 0.266511 0.868448
0.987828 0.264176 0.86838
0.987785 0.26184 0.868313
0.987742 0.259505 0.868246
0.984682 0.257082 0.868738
0.98464 0.254752 0.86867
0.98158 0.252345 0.869163
0.981537 0.25002 0.869096
0.978478 0.247629 0.869588
0.978436 0.24531 0.869521
0.978393 0.24299 0.869455
0.97634 0.240637 0.869761
0.976297 0.23832 0.869694
0.976254 0.236004 0.869628
0.973196 0.233654 0.870121
0.973154 0.231343 0.870055
0.973111 0.229032 0.869988
0.970053 0.226702 0.870483
0.970011 0.224396 0.870416
0.969968 0.222091 0.87035
0.969926 0.219785 0.870283
0.972899 0.217477 0.869656
0.972856 0.215166 0.869589
0.972814 0.212855 0.869523
0.972772 0.210544 0.869456
0.972729 0.208233 0.86939
0.975701 0.205894 0.868761
0.975659 0.203578 0.868694
0.975616 0.201261 0.868628
0.975574 0.198945 0.868561
0.975531 0.196629 0.868494
0.977498 0.194276 0.868053
0.977456 0.191956 0.867986
0.977413 0.189637 0.867919
0.97737 0.187317 0.867852
0.977328 0.184997 0.867786
0.977285 0.182678 0.867719
0.977243 0.180358 0.867652
0.9772 0.178038 0.867585
0.977157 0.175719 0.867519
0.977115 0.173399 0.867452
0.977072 0.171079 0.867385
0.97703 0.168759 0.867318
0.976987 0.16644 0.867251
0.976944 0.16412 0.867185
0.976902 0.1618 0.867118
0.976859 0.159481 0.867051
0.976817 0.157161 0.866984
0.979787 0.154697 0.866352
0.979744 0.152372 0.866285
0.979701 0.150047 0.866218
0.979658 0.147722 0.866151
0.979616 0.145397 0.866085
0.979573 0.143072 0.866018
0.97953 0.140747 0.865951
0.979488 0.138422 0.865884
0.979445 0.136097 0.865817
0.979402 0.133772 0.86575
0.982371 0.13125 0.865116
0.982328 0.12892 0.865049
0.982286 0.12659 0.864982
0.982243 0.12426 0.864915
0.9822 0.121929 0.864848
0.982157 0.119599 0.864781
0.982114 0.117269 0.864714
0.982072 0.114939 0.864647
0.968833 0.536588 0.878401
0.968791 0.534293 0.878335
0.968749 0.531997 0.878269
0.968707 0.529702 0.878203
0.968665 0.527407 0.878137
0.968622 0.525112 0.878071
0.96858 0.522817 0.878005
0.968538 0.520522 0.877939
0.971522 0.518913 0.877327
0.97148 0.516613 0.87726
0.971437 0.514313 0.877194
0.971395 0.512012 0.877128
0.971353 0.509712 0.877062
0.971311 0.507411 0.876996
0.971268 0.505111 0.876929
0.971226 0.50281 0.876863
0.974209 0.501155 0.876249
0.974167 0.498849 0.876183
0.974124 0.496544 0.876117
0.974082 0.494238 0.87605
0.97404 0.491932 0.875984
0.973997 0.489627 0.875918
0.973955 0.487321 0.875851
0.973913 0.485015 0.875785
0.97387 0.482709 0.875718
0.973828 0.480404 0.875652
0.973785 0.478098 0.875586
