ply
format ascii 1.0
comment Created by Open3D
element vertex 1709
property double x
property double y
property double z
end_header
0.791125 -0.190545 0.914317
0.791077 -0.192526 0.914324
0.79103 -0.194506 0.91433
0.790983 -0.196486 0.914336
0.790935 -0.198466 0.914342
0.790888 -0.200446 0.914348
0.790841 -0.202426 0.914354
0.790793 -0.204406 0.91436
0.790746 -0.206386 0.914367
0.790699 -0.208367 0.914373
0.790651 -0.210347 0.914379
0.790604 -0.212327 0.914385
0.790557 -0.214307 0.914391
0.790509 -0.216287 0.914397
0.790462 -0.218267 0.914403
0.790415 -0.220247 0.91441
0.791358 -0.222631 0.914233
0.791311 -0.224613 0.914239
0.791264 -0.226595 0.914245
0.792207 -0.228985 0.914069
0.79216 -0.230969 0.914075
0.792112 -0.232952 0.914081
0.793055 -0.23535 0.913905
0.793008 -0.237335 0.913911
0.792961 -0.239321 0.913917
0.793904 -0.241725 0.91374
0.793856 -0.243712 0.913746
0.793809 -0.245699 0.913753
0.794752 -0.248111 0.913576
0.794704 -0.2501 0.913582
0.794657 -0.252089 0.913589
0.794609 -0.254078 0.913595
0.795552 -0.256498 0.913418
0.795504 -0.258488 0.913424
0.795457 -0.260479 0.913431
0.796399 -0.262906 0.913254
0.796352 -0.264899 0.91326
0.796304 -0.266891 0.913266
0.797246 -0.269326 0.91309
0.797199 -0.27132 0.913096
0.797151 -0.273314 0.913102
0.798093 -0.275755 0.912926
0.798046 -0.277751 0.912932
0.797998 -0.279747 0.912938
0.79894 -0.282195 0.912762
0.798892 -0.284193 0.912768
0.798845 -0.286191 0.912774
0.799787 -0.288646 0.912598
0.799739 -0.290645 0.912604
0.799691 -0.292645 0.912611
0.799643 -0.294644 0.912617
0.800585 -0.297108 0.91244
0.800537 -0.29911 0.912447
0.800489 -0.301111 0.912453
0.801431 -0.303582 0.912277
0.801383 -0.305585 0.912283
0.801335 -0.307588 0.912289
0.802276 -0.310066 0.912113
0.802228 -0.312071 0.912119
0.802181 -0.314075 0.912125
0.803122 -0.31656 0.911949
0.803074 -0.318567 0.911955
0.803026 -0.320573 0.911961
0.803967 -0.323065 0.911785
0.803919 -0.325074 0.911791
0.803871 -0.327082 0.911798
0.803823 -0.32909 0.911804
0.803775 -0.331098 0.91181
0.803727 -0.333106 0.911816
0.803679 -0.335115 0.911822
0.80462 -0.337621 0.911646
0.804572 -0.339631 0.911652
0.804523 -0.341641 0.911659
0.805464 -0.344154 0.911483
0.805416 -0.346166 0.911489
0.805368 -0.348177 0.911495
0.806308 -0.350698 0.911319
0.80626 -0.352711 0.911325
0.815057 0.00348114 0.908155
0.815009 0.00146593 0.908161
0.81496 -0.000549269 0.908167
0.814912 -0.00256447 0.908173
0.813869 -0.0043728 0.908365
0.813821 -0.00638625 0.908371
0.813773 -0.00839969 0.908377
0.812729 -0.010201 0.908568
0.812681 -0.0122127 0.908574
0.812633 -0.0142244 0.908581
0.81159 -0.0160187 0.908772
0.811542 -0.0180286 0.908778
0.811494 -0.0200386 0.908784
0.810451 -0.0218259 0.908975
0.810403 -0.0238341 0.908982
0.810355 -0.0258422 0.908988
0.809313 -0.0276225 0.909179
0.809265 -0.0296289 0.909185
0.809217 -0.0316354 0.909191
0.808174 -0.0334086 0.909383
0.808126 -0.0354133 0.909389
0.808078 -0.037418 0.909395
0.808031 -0.0394227 0.909401
0.806988 -0.0411871 0.909592
0.80694 -0.0431901 0.909598
0.806892 -0.045193 0.909605
0.80585 -0.0469505 0.909796
0.805803 -0.0489516 0.909802
0.805755 -0.0509528 0.909808
0.803719 -0.0524526 0.910184
0.803671 -0.0544502 0.91019
0.803623 -0.0564479 0.910196
0.802582 -0.0581895 0.910387
0.802534 -0.0601855 0.910393
0.802486 -0.0621814 0.9104
0.800451 -0.0636548 0.910775
0.800403 -0.0656472 0.910782
0.800356 -0.0676396 0.910788
0.800308 -0.069632 0.910794
0.799267 -0.0713561 0.910985
0.799219 -0.0733468 0.910991
0.799171 -0.0753374 0.910997
0.79813 -0.0770546 0.911188
0.798083 -0.0790435 0.911194
0.798035 -0.0810324 0.9112
0.796994 -0.0827425 0.911391
0.796947 -0.0847296 0.911397
0.796899 -0.0867167 0.911404
0.795858 -0.0884199 0.911594
0.795811 -0.0904052 0.911601
0.795763 -0.0923906 0.911607
0.794723 -0.0940867 0.911798
0.794676 -0.0960703 0.911804
0.794628 -0.098054 0.91181
0.793588 -0.099743 0.912001
0.79354 -0.101725 0.912007
0.793493 -0.103707 0.912013
0.793445 -0.105689 0.912019
0.792405 -0.107369 0.91221
0.792358 -0.109349 0.912216
0.792311 -0.111329 0.912222
0.792263 -0.113309 0.912228
0.792216 -0.115289 0.912235
0.792168 -0.11727 0.912241
0.792121 -0.11925 0.912247
0.792074 -0.12123 0.912253
0.792026 -0.12321 0.912259
0.791979 -0.12519 0.912265
0.791932 -0.12717 0.912271
0.791884 -0.12915 0.912277
0.791837 -0.13113 0.912284
0.79179 -0.133111 0.91229
0.791742 -0.135091 0.912296
0.791695 -0.137071 0.912302
0.791648 -0.139051 0.912308
0.7916 -0.141031 0.912314
0.791553 -0.143011 0.91232
0.791506 -0.144991 0.912327
0.791458 -0.146971 0.912333
0.791411 -0.148952 0.912339
0.791364 -0.150932 0.912345
0.791316 -0.152912 0.912351
0.791269 -0.154892 0.912357
0.791222 -0.156872 0.912363
0.791174 -0.158852 0.91237
0.791127 -0.160832 0.912376
0.790088 -0.162462 0.912566
0.790041 -0.16444 0.912572
0.789993 -0.166419 0.912579
0.789946 -0.168397 0.912585
0.789899 -0.170375 0.912591
0.789851 -0.172354 0.912597
0.789804 -0.174332 0.912603
0.789757 -0.17631 0.912609
0.790701 -0.178654 0.912431
0.790653 -0.180634 0.912437
0.790606 -0.182614 0.912443
0.790559 -0.184594 0.912449
0.790511 -0.186574 0.912455
0.790464 -0.188554 0.912462
0.790417 -0.190534 0.912468
0.790369 -0.192514 0.912474
0.790322 -0.194495 0.91248
0.790275 -0.196475 0.912486
0.790227 -0.198455 0.912492
0.79018 -0.200435 0.912498
0.790133 -0.202415 0.912505
0.790085 -0.204395 0.912511
0.790038 -0.206375 0.912517
0.789991 -0.208355 0.912523
0.789943 -0.210336 0.912529
0.789896 -0.212316 0.912535
0.789848 -0.214296 0.912541
0.789801 -0.216276 0.912548
0.789754 -0.218256 0.912554
0.789706 -0.220236 0.91256
0.79065 -0.22262 0.912382
0.790602 -0.224601 0.912388
0.790555 -0.226583 0.912394
0.791498 -0.228974 0.912216
0.79145 -0.230957 0.912222
0.791403 -0.232941 0.912228
0.792345 -0.235339 0.91205
0.792298 -0.237324 0.912056
0.792251 -0.239309 0.912062
0.793193 -0.241714 0.911884
0.793146 -0.243701 0.91189
0.793098 -0.245688 0.911896
0.79404 -0.2481 0.911718
0.793993 -0.250088 0.911724
0.793945 -0.252077 0.911731
0.793898 -0.254066 0.911737
0.79484 -0.256487 0.911559
0.794792 -0.258477 0.911565
0.794745 -0.260468 0.911571
0.795687 -0.262895 0.911393
0.795639 -0.264888 0.911399
0.795592 -0.26688 0.911405
0.796533 -0.269314 0.911227
0.796486 -0.271308 0.911233
0.796438 -0.273303 0.91124
0.79738 -0.275744 0.911062
0.797332 -0.27774 0.911068
0.797284 -0.279736 0.911074
0.798226 -0.282184 0.910896
0.798178 -0.284182 0.910902
0.79813 -0.286179 0.910908
0.799072 -0.288635 0.91073
0.799024 -0.290634 0.910737
0.798976 -0.292634 0.910743
0.798928 -0.294633 0.910749
0.799869 -0.297097 0.910571
0.799821 -0.299098 0.910577
0.799774 -0.301099 0.910583
0.800714 -0.303571 0.910405
0.800667 -0.305573 0.910412
0.800619 -0.307576 0.910418
0.801559 -0.310055 0.91024
0.801512 -0.312059 0.910246
0.801464 -0.314064 0.910252
0.802404 -0.316549 0.910074
0.802356 -0.318556 0.910081
0.802308 -0.320562 0.910087
0.803249 -0.323054 0.909909
0.803201 -0.325062 0.909915
0.803153 -0.32707 0.909922
0.803105 -0.329079 0.909928
0.803057 -0.331087 0.909934
0.803009 -0.333095 0.90994
0.802961 -0.335103 0.909946
0.803901 -0.337609 0.909769
0.803853 -0.339619 0.909775
0.803805 -0.341629 0.909781
0.804745 -0.344143 0.909603
0.804696 -0.346154 0.90961
0.804648 -0.348166 0.909616
0.805588 -0.350686 0.909438
0.80554 -0.3527 0.909444
0.815331 0.00329268 0.906086
0.815282 0.00127573 0.906092
0.815234 -0.000741229 0.906098
0.815186 -0.00275819 0.906104
0.814143 -0.00456828 0.906297
0.814095 -0.00658348 0.906303
0.814047 -0.00859868 0.90631
0.813004 -0.0104018 0.906502
0.812956 -0.0124152 0.906509
0.812908 -0.0144287 0.906515
0.811866 -0.0162247 0.906708
0.811818 -0.0182364 0.906714
0.811769 -0.0202481 0.90672
0.810727 -0.0220372 0.906913
0.810679 -0.0240471 0.906919
0.810631 -0.026057 0.906925
0.809589 -0.0278391 0.907118
0.809541 -0.0298473 0.907124
0.809493 -0.0318554 0.907131
0.808451 -0.0336305 0.907323
0.808403 -0.0356369 0.90733
0.808355 -0.0376433 0.907336
0.808307 -0.0396498 0.907342
0.807266 -0.041416 0.907535
0.807218 -0.0434207 0.907541
0.80717 -0.0454254 0.907547
0.806128 -0.0471846 0.90774
0.80608 -0.0491875 0.907746
0.806033 -0.0511905 0.907752
0.803998 -0.0526919 0.908131
0.80395 -0.0546914 0.908137
0.803902 -0.0566908 0.908144
0.802861 -0.0584343 0.908336
0.802813 -0.0604319 0.908342
0.802766 -0.0624296 0.908349
0.800731 -0.0639047 0.908728
0.800684 -0.0658989 0.908734
0.800636 -0.0678931 0.90874
0.800588 -0.0698872 0.908746
0.799548 -0.0716131 0.908939
0.7995 -0.0736055 0.908945
0.799452 -0.075598 0.908951
0.798412 -0.0773168 0.909144
0.798364 -0.0793075 0.90915
0.798317 -0.0812981 0.909156
0.798269 -0.0832888 0.909162
0.798222 -0.0852794 0.909168
0.798174 -0.0872701 0.909175
0.797134 -0.0889767 0.909367
0.797086 -0.0909656 0.909373
0.797039 -0.0929545 0.909379
0.795999 -0.0946541 0.909572
0.795951 -0.0966412 0.909578
0.795904 -0.0986284 0.909584
0.794864 -0.100321 0.909777
0.794816 -0.102306 0.909783
0.794769 -0.104292 0.909789
0.794721 -0.106277 0.909795
0.793682 -0.107961 0.909988
0.793634 -0.109945 0.909994
0.793587 -0.111928 0.91
0.793539 -0.113912 0.910006
0.793492 -0.115895 0.910012
0.793444 -0.117879 0.910018
0.793397 -0.119863 0.910024
0.79335 -0.121846 0.910031
0.793302 -0.12383 0.910037
0.793255 -0.125814 0.910043
0.793207 -0.127797 0.910049
0.79316 -0.129781 0.910055
0.793112 -0.131765 0.910061
0.793065 -0.133748 0.910068
0.793018 -0.135732 0.910074
0.79297 -0.137715 0.91008
0.792923 -0.139699 0.910086
0.792875 -0.141683 0.910092
0.792828 -0.143666 0.910098
0.79278 -0.14565 0.910104
0.792733 -0.147634 0.910111
0.792686 -0.149617 0.910117
0.792638 -0.151601 0.910123
0.792591 -0.153584 0.910129
0.792543 -0.155568 0.910135
0.792496 -0.157552 0.910141
0.792448 -0.159535 0.910147
0.792401 -0.161519 0.910154
0.791362 -0.163152 0.910346
0.791315 -0.165134 0.910352
0.791268 -0.167116 0.910358
0.79122 -0.169098 0.910364
0.791173 -0.17108 0.91037
0.791126 -0.173061 0.910377
0.791078 -0.175043 0.910383
0.791031 -0.177025 0.910389
0.790983 -0.179007 0.910395
0.790936 -0.180989 0.910401
0.790889 -0.182971 0.910407
0.790841 -0.184953 0.910413
0.790794 -0.186935 0.91042
0.790746 -0.188916 0.910426
0.790699 -0.190898 0.910432
0.790652 -0.19288 0.910438
0.790604 -0.194862 0.910444
0.790557 -0.196844 0.91045
0.790509 -0.198826 0.910456
0.790462 -0.200808 0.910463
0.790415 -0.20279 0.910469
0.790367 -0.204771 0.910475
0.79032 -0.206753 0.910481
0.790273 -0.208735 0.910487
0.790225 -0.210717 0.910493
0.790178 -0.212699 0.910499
0.79013 -0.214681 0.910506
0.791073 -0.217061 0.910326
0.791025 -0.219044 0.910332
0.790978 -0.221028 0.910338
0.79192 -0.223415 0.910158
0.791873 -0.2254 0.910164
0.791825 -0.227386 0.910171
0.792768 -0.22978 0.909991
0.79272 -0.231767 0.909997
0.792673 -0.233754 0.910003
0.793615 -0.236155 0.909823
0.793567 -0.238144 0.909829
0.793519 -0.240133 0.909836
0.794461 -0.242541 0.909656
0.794414 -0.244531 0.909662
0.794366 -0.246522 0.909668
0.794318 -0.248513 0.909674
0.794271 -0.250503 0.909681
0.794223 -0.252494 0.909687
0.794176 -0.254485 0.909693
0.795117 -0.256907 0.909513
0.79507 -0.258899 0.909519
0.795022 -0.260891 0.909525
0.795963 -0.263321 0.909346
0.795916 -0.265315 0.909352
0.795868 -0.267309 0.909358
0.796809 -0.269745 0.909178
0.796761 -0.271741 0.909185
0.796714 -0.273737 0.909191
0.797655 -0.27618 0.909011
0.797607 -0.278177 0.909017
0.797559 -0.280175 0.909024
0.7985 -0.282625 0.908844
0.798452 -0.284625 0.90885
0.798404 -0.286624 0.908856
0.799345 -0.289081 0.908677
0.799297 -0.291082 0.908683
0.799249 -0.293083 0.908689
0.799201 -0.295085 0.908695
0.800142 -0.29755 0.908516
0.800094 -0.299553 0.908522
0.800046 -0.301556 0.908528
0.800986 -0.304029 0.908349
0.800938 -0.306034 0.908355
0.800891 -0.308039 0.908361
0.801831 -0.310518 0.908181
0.801783 -0.312525 0.908188
0.801735 -0.314531 0.908194
0.802675 -0.317018 0.908014
0.802627 -0.319026 0.908021
0.802579 -0.321035 0.908027
0.803518 -0.323528 0.907847
0.80347 -0.325538 0.907854
0.803422 -0.327548 0.90786
0.804362 -0.330049 0.90768
0.804314 -0.332061 0.907687
0.804266 -0.334073 0.907693
0.804218 -0.336084 0.907699
0.805157 -0.338594 0.90752
0.805109 -0.340608 0.907526
0.805061 -0.342621 0.907532
0.806 -0.345138 0.907353
0.805952 -0.347153 0.907359
0.805904 -0.349168 0.907365
0.806843 -0.351692 0.907186
0.806794 -0.353709 0.907192
0.814609 0.00330409 0.904201
0.814561 0.00128713 0.904208
0.814513 -0.000729822 0.904214
0.814465 -0.00274678 0.90422
0.813423 -0.00455689 0.904415
0.813374 -0.00657209 0.904421
0.813326 -0.00858728 0.904427
0.812284 -0.0103904 0.904622
0.812236 -0.0124038 0.904628
0.812188 -0.0144173 0.904634
0.811146 -0.0162133 0.904828
0.811098 -0.018225 0.904835
0.81105 -0.0202367 0.904841
0.810009 -0.0220258 0.905035
0.80996 -0.0240357 0.905042
0.809912 -0.0260457 0.905048
0.808871 -0.0278277 0.905242
0.808823 -0.0298359 0.905248
0.808775 -0.0318441 0.905255
0.807734 -0.0336191 0.905449
0.807686 -0.0356255 0.905455
0.807638 -0.037632 0.905461
0.80759 -0.0396384 0.905468
0.806549 -0.0414047 0.905662
0.806501 -0.0434094 0.905668
0.806453 -0.045414 0.905674
0.805412 -0.0471733 0.905869
0.805364 -0.0491762 0.905875
0.805316 -0.0511791 0.905881
0.803283 -0.0526806 0.906264
0.803235 -0.0546801 0.90627
0.803187 -0.0566795 0.906276
0.802147 -0.058423 0.90647
0.802099 -0.0604206 0.906476
0.802051 -0.0624183 0.906483
0.800018 -0.0638935 0.906865
0.799971 -0.0658876 0.906871
0.799923 -0.0678818 0.906877
0.799875 -0.0698759 0.906883
0.798835 -0.0716019 0.907078
0.798788 -0.0735943 0.907084
0.79874 -0.0755867 0.90709
0.7977 -0.0773056 0.907284
0.797652 -0.0792962 0.90729
0.797605 -0.0812869 0.907296
0.797557 -0.0832775 0.907303
0.79751 -0.0852682 0.907309
0.797462 -0.0872588 0.907315
0.796422 -0.0889655 0.907509
0.796375 -0.0909543 0.907515
0.796327 -0.0929432 0.907521
0.795288 -0.0946429 0.907716
0.79524 -0.09663 0.907722
0.795193 -0.0986171 0.907728
0.794154 -0.10031 0.907922
0.794106 -0.102295 0.907928
0.794059 -0.10428 0.907934
0.794011 -0.106266 0.90794
0.792972 -0.10795 0.908135
0.792925 -0.109933 0.908141
0.792877 -0.111917 0.908147
0.79283 -0.113901 0.908153
0.792782 -0.115884 0.908159
0.792735 -0.117868 0.908165
0.792688 -0.119851 0.908171
0.79264 -0.121835 0.908178
0.792593 -0.123819 0.908184
0.792545 -0.125802 0.90819
0.792498 -0.127786 0.908196
0.79245 -0.12977 0.908202
0.792403 -0.131753 0.908208
0.792356 -0.133737 0.908214
0.792308 -0.135721 0.908221
0.792261 -0.137704 0.908227
0.792213 -0.139688 0.908233
0.792166 -0.141671 0.908239
0.792118 -0.143655 0.908245
0.792071 -0.145639 0.908251
0.792024 -0.147622 0.908258
0.791976 -0.149606 0.908264
0.791929 -0.15159 0.90827
0.791881 -0.153573 0.908276
0.791834 -0.155557 0.908282
0.791786 -0.157541 0.908288
0.791739 -0.159524 0.908294
0.791692 -0.161508 0.908301
0.790654 -0.163141 0.908494
0.790606 -0.165123 0.908501
0.790559 -0.167105 0.908507
0.790512 -0.169086 0.908513
0.790464 -0.171068 0.908519
0.790417 -0.17305 0.908525
0.790369 -0.175032 0.908531
0.790322 -0.177014 0.908537
0.790275 -0.178996 0.908544
0.790227 -0.180978 0.90855
0.79018 -0.18296 0.908556
0.790132 -0.184941 0.908562
0.790085 -0.186923 0.908568
0.790038 -0.188905 0.908574
0.78999 -0.190887 0.90858
0.789943 -0.192869 0.908587
0.789895 -0.194851 0.908593
0.789848 -0.196833 0.908599
0.789801 -0.198815 0.908605
0.789753 -0.200797 0.908611
0.789706 -0.202778 0.908617
0.789659 -0.20476 0.908623
0.789611 -0.206742 0.90863
0.789564 -0.208724 0.908636
0.789516 -0.210706 0.908642
0.789469 -0.212688 0.908648
0.789422 -0.21467 0.908654
0.790364 -0.21705 0.908473
0.790316 -0.219033 0.908479
0.790269 -0.221017 0.908485
0.79121 -0.223404 0.908304
0.791163 -0.225389 0.90831
0.791115 -0.227375 0.908316
0.792057 -0.229768 0.908134
0.792009 -0.231756 0.908141
0.791962 -0.233743 0.908147
0.792903 -0.236144 0.907965
0.792856 -0.238133 0.907972
0.792808 -0.240122 0.907978
0.793749 -0.242529 0.907796
0.793702 -0.24452 0.907802
0.793654 -0.246511 0.907809
0.793607 -0.248501 0.907815
0.793559 -0.250492 0.907821
0.793511 -0.252483 0.907827
0.793464 -0.254473 0.907833
0.794405 -0.256895 0.907652
0.794357 -0.258888 0.907658
0.794309 -0.26088 0.907664
0.79525 -0.263309 0.907483
0.795202 -0.265303 0.907489
0.795155 -0.267298 0.907495
0.796095 -0.269734 0.907314
0.796048 -0.271729 0.90732
0.796 -0.273725 0.907326
0.79694 -0.276168 0.907145
0.796893 -0.278166 0.907151
0.796845 -0.280164 0.907157
0.797785 -0.282614 0.906976
0.797737 -0.284613 0.906982
0.797689 -0.286613 0.906989
0.798629 -0.28907 0.906807
0.798582 -0.291071 0.906814
0.798534 -0.293072 0.90682
0.798486 -0.295073 0.906826
0.799426 -0.297539 0.906645
0.799378 -0.299542 0.906651
0.79933 -0.301545 0.906657
0.800269 -0.304018 0.906476
0.800222 -0.306023 0.906482
0.800174 -0.308027 0.906488
0.801113 -0.310507 0.906307
0.801065 -0.312513 0.906313
0.801017 -0.31452 0.90632
0.801956 -0.317007 0.906138
0.801908 -0.319015 0.906145
0.80186 -0.321023 0.906151
0.8028 -0.323517 0.90597
0.802752 -0.325527 0.905976
0.802704 -0.327537 0.905982
0.803642 -0.330038 0.905801
0.803594 -0.33205 0.905807
0.803546 -0.334061 0.905814
0.803498 -0.336073 0.90582
0.804437 -0.338583 0.905639
0.804389 -0.340596 0.905645
0.804341 -0.34261 0.905651
0.805279 -0.345126 0.90547
0.805231 -0.347142 0.905476
0.805183 -0.349157 0.905483
0.806121 -0.35168 0.905302
0.806073 -0.353697 0.905308
0.813888 0.0033155 0.902317
0.81384 0.00129854 0.902323
0.813792 -0.000718415 0.90233
0.81275 -0.00253028 0.902526
0.812702 -0.00454549 0.902532
0.812654 -0.00656069 0.902538
0.812606 -0.00857589 0.902545
0.811564 -0.010379 0.902741
0.811516 -0.0123924 0.902747
0.811468 -0.0144059 0.902753
0.810427 -0.016202 0.902949
0.810379 -0.0182137 0.902955
0.810331 -0.0202254 0.902962
0.80929 -0.0220144 0.903158
0.809242 -0.0240244 0.903164
0.809194 -0.0260343 0.90317
0.808153 -0.0278164 0.903366
0.808105 -0.0298245 0.903372
0.808057 -0.0318327 0.903379
0.807016 -0.0336078 0.903575
0.806968 -0.0356142 0.903581
0.80692 -0.0376206 0.903587
0.806872 -0.0396271 0.903593
0.805832 -0.0413933 0.903789
0.805784 -0.043398 0.903795
0.805736 -0.0454027 0.903802
0.804696 -0.0471619 0.903998
0.804648 -0.0491649 0.904004
0.8046 -0.0511678 0.90401
0.802568 -0.0526693 0.904396
0.80252 -0.0546687 0.904402
0.802472 -0.0566682 0.904408
0.801432 -0.0584117 0.904604
0.801385 -0.0604093 0.90461
0.801337 -0.062407 0.904616
0.799305 -0.0638822 0.905002
0.799257 -0.0658764 0.905008
0.79921 -0.0678705 0.905014
0.799162 -0.0698647 0.905021
0.798123 -0.0715906 0.905216
0.798075 -0.073583 0.905223
0.798027 -0.0755754 0.905229
0.796988 -0.0772943 0.905425
0.796941 -0.079285 0.905431
0.796893 -0.0812756 0.905437
0.796845 -0.0832663 0.905443
0.796798 -0.0852569 0.905449
0.79675 -0.0872475 0.905455
0.795711 -0.0889542 0.905651
0.795664 -0.0909431 0.905657
0.795616 -0.092932 0.905664
0.794577 -0.0946316 0.905859
0.79453 -0.0966187 0.905865
0.794482 -0.0986059 0.905872
0.793444 -0.100298 0.906067
0.793396 -0.102284 0.906074
0.793349 -0.104269 0.90608
0.793301 -0.106255 0.906086
0.792263 -0.107938 0.906282
0.792215 -0.109922 0.906288
0.792168 -0.111906 0.906294
0.792121 -0.113889 0.9063
0.792073 -0.115873 0.906306
0.792026 -0.117857 0.906312
0.791978 -0.11984 0.906318
0.791931 -0.121824 0.906325
0.791883 -0.123808 0.906331
0.791836 -0.125791 0.906337
0.791789 -0.127775 0.906343
0.791741 -0.129758 0.906349
0.791694 -0.131742 0.906355
0.791646 -0.133726 0.906361
0.791599 -0.135709 0.906368
0.791551 -0.137693 0.906374
0.791504 -0.139677 0.90638
0.791457 -0.14166 0.906386
0.791409 -0.143644 0.906392
0.791362 -0.145628 0.906398
0.791314 -0.147611 0.906404
0.791267 -0.149595 0.906411
0.791219 -0.151578 0.906417
0.791172 -0.153562 0.906423
0.791124 -0.155546 0.906429
0.791077 -0.157529 0.906435
0.79103 -0.159513 0.906441
0.790982 -0.161497 0.906448
0.789945 -0.16313 0.906643
0.789898 -0.165111 0.906649
0.78985 -0.167093 0.906655
0.789803 -0.169075 0.906662
0.789755 -0.171057 0.906668
0.789708 -0.173039 0.906674
0.789661 -0.175021 0.90668
0.789613 -0.177003 0.906686
0.789566 -0.178985 0.906692
0.789518 -0.180966 0.906698
0.789471 -0.182948 0.906705
0.789424 -0.18493 0.906711
0.789376 -0.186912 0.906717
0.789329 -0.188894 0.906723
0.789282 -0.190876 0.906729
0.789234 -0.192858 0.906735
0.789187 -0.19484 0.906741
0.789139 -0.196822 0.906748
0.789092 -0.198803 0.906754
0.789045 -0.200785 0.90676
0.788997 -0.202767 0.906766
0.78895 -0.204749 0.906772
0.788902 -0.206731 0.906778
0.788855 -0.208713 0.906784
0.788808 -0.210695 0.906791
0.78876 -0.212677 0.906797
0.788713 -0.214658 0.906803
0.789654 -0.217038 0.90662
0.789607 -0.219022 0.906626
0.789559 -0.221006 0.906632
0.7905 -0.223393 0.906449
0.790453 -0.225378 0.906455
0.790405 -0.227363 0.906461
0.791346 -0.229757 0.906278
0.791299 -0.231744 0.906284
0.791251 -0.233732 0.90629
0.792192 -0.236132 0.906107
0.792144 -0.238121 0.906114
0.792097 -0.24011 0.90612
0.793037 -0.242518 0.905937
0.79299 -0.244509 0.905943
0.792942 -0.2465 0.905949
0.792895 -0.24849 0.905955
0.792847 -0.250481 0.905961
0.7928 -0.252471 0.905967
0.792752 -0.254462 0.905974
0.793692 -0.256884 0.905791
0.793645 -0.258877 0.905797
0.793597 -0.260869 0.905803
0.794537 -0.263298 0.90562
0.794489 -0.265292 0.905626
0.794442 -0.267286 0.905632
0.795382 -0.269722 0.905449
0.795334 -0.271718 0.905456
0.795286 -0.273714 0.905462
0.796226 -0.276157 0.905279
0.796178 -0.278155 0.905285
0.79613 -0.280152 0.905291
0.79707 -0.282603 0.905108
0.797022 -0.284602 0.905115
0.796974 -0.286601 0.905121
0.797914 -0.289058 0.904938
0.797866 -0.29106 0.904944
0.797818 -0.293061 0.90495
0.79777 -0.295062 0.904956
0.798709 -0.297528 0.904774
0.798661 -0.299531 0.90478
0.798614 -0.301534 0.904786
0.799553 -0.304006 0.904603
0.799505 -0.306011 0.904609
0.799457 -0.308016 0.904616
0.800396 -0.310496 0.904433
0.800348 -0.312502 0.904439
0.8003 -0.314509 0.904445
0.801238 -0.316995 0.904262
0.80119 -0.319004 0.904269
0.801142 -0.321012 0.904275
0.802081 -0.323506 0.904092
0.802033 -0.325516 0.904098
0.801985 -0.327526 0.904105
0.802923 -0.330027 0.903922
0.802875 -0.332038 0.903928
0.802827 -0.33405 0.903934
0.802779 -0.336062 0.903941
0.803717 -0.338571 0.903758
0.803669 -0.340585 0.903764
0.803621 -0.342598 0.90377
0.804559 -0.345115 0.903588
0.80451 -0.34713 0.903594
0.804462 -0.349145 0.9036
0.8054 -0.351669 0.903417
0.805352 -0.353686 0.903424
0.813167 0.0033269 0.900433
0.813119 0.00130995 0.900439
0.81307 -0.000707008 0.900446
0.812029 -0.00251888 0.900643
0.811981 -0.00453409 0.90065
0.811933 -0.00654929 0.900656
0.811885 -0.00856449 0.900662
0.810844 -0.0103676 0.90086
0.810796 -0.0123811 0.900866
0.810748 -0.0143945 0.900872
0.809707 -0.0161906 0.90107
0.809659 -0.0182023 0.901076
0.809611 -0.020214 0.901082
0.808571 -0.022003 0.90128
0.808523 -0.024013 0.901286
0.808475 -0.0260229 0.901293
0.807435 -0.027805 0.90149
0.807387 -0.0298132 0.901496
0.807339 -0.0318214 0.901503
0.806299 -0.0335964 0.9017
0.806251 -0.0356029 0.901706
0.806203 -0.0376093 0.901713
0.806155 -0.0396157 0.901719
0.805115 -0.041382 0.901917
0.805067 -0.0433867 0.901923
0.805019 -0.0453913 0.901929
0.803979 -0.0471506 0.902127
0.803932 -0.0491535 0.902133
0.803884 -0.0511565 0.902139
0.802844 -0.0529087 0.902337
0.802796 -0.0549099 0.902343
0.802749 -0.0569111 0.902349
0.801709 -0.0586563 0.902547
0.801662 -0.0606557 0.902553
0.801614 -0.0626551 0.902559
0.799583 -0.0641321 0.902948
0.799536 -0.0661281 0.902954
0.799488 -0.068124 0.90296
0.798449 -0.0698534 0.903158
0.798401 -0.0718475 0.903164
0.798354 -0.0738417 0.90317
0.798306 -0.0758359 0.903176
0.797267 -0.0775565 0.903374
0.79722 -0.0795489 0.90338
0.797172 -0.0815414 0.903386
0.797124 -0.0835337 0.903392
0.797077 -0.0855262 0.903398
0.797029 -0.0875186 0.903405
0.795991 -0.089227 0.903602
0.795943 -0.0912176 0.903608
0.795895 -0.0932083 0.903614
0.794857 -0.0949096 0.903812
0.79481 -0.0968985 0.903818
0.794762 -0.0988874 0.903824
0.794715 -0.100876 0.90383
0.794667 -0.102865 0.903836
0.794619 -0.104854 0.903843
0.794572 -0.106843 0.903849
0.793534 -0.10853 0.904046
0.793487 -0.110518 0.904052
0.793439 -0.112505 0.904058
0.793392 -0.114492 0.904065
0.793344 -0.116479 0.904071
0.793296 -0.118466 0.904077
0.793249 -0.120453 0.904083
0.793201 -0.12244 0.904089
0.793154 -0.124427 0.904095
0.793106 -0.126415 0.904102
0.793059 -0.128402 0.904108
0.793011 -0.130389 0.904114
0.792964 -0.132376 0.90412
0.792916 -0.134363 0.904126
0.792869 -0.13635 0.904132
0.792821 -0.138337 0.904138
0.792774 -0.140325 0.904145
0.792726 -0.142312 0.904151
0.792679 -0.144299 0.904157
0.792631 -0.146286 0.904163
0.792584 -0.148273 0.904169
0.792536 -0.15026 0.904175
0.792489 -0.152247 0.904182
0.792441 -0.154235 0.904188
0.792394 -0.156222 0.904194
0.792346 -0.158209 0.9042
0.792299 -0.160196 0.904206
0.792251 -0.162183 0.904212
0.791214 -0.16382 0.90441
0.791167 -0.165805 0.904416
0.79112 -0.16779 0.904422
0.791072 -0.169776 0.904428
0.791025 -0.171761 0.904434
0.790977 -0.173747 0.90444
0.79093 -0.175732 0.904447
0.789893 -0.177354 0.904644
0.789846 -0.179338 0.90465
0.789799 -0.181322 0.904656
0.789751 -0.183305 0.904662
0.789704 -0.185289 0.904668
0.789656 -0.187273 0.904674
0.789609 -0.189256 0.904681
0.789561 -0.19124 0.904687
0.789514 -0.193224 0.904693
0.789467 -0.195207 0.904699
0.789419 -0.197191 0.904705
0.789372 -0.199174 0.904711
0.789324 -0.201158 0.904717
0.789277 -0.203142 0.904724
0.789229 -0.205125 0.90473
0.789182 -0.207109 0.904736
0.790123 -0.209484 0.904551
0.790075 -0.211469 0.904557
0.790028 -0.213454 0.904563
0.78998 -0.21544 0.90457
0.790921 -0.217823 0.904385
0.790873 -0.21981 0.904391
0.790826 -0.221797 0.904397
0.791766 -0.224188 0.904212
0.791719 -0.226177 0.904219
0.791671 -0.228166 0.904225
0.792611 -0.230563 0.90404
0.792564 -0.232554 0.904046
0.792516 -0.234544 0.904052
0.792468 -0.236535 0.904059
0.792421 -0.238526 0.904065
0.792373 -0.240516 0.904071
0.793313 -0.242926 0.903886
0.793266 -0.244918 0.903892
0.793218 -0.246911 0.903899
0.79317 -0.248903 0.903905
0.793123 -0.250896 0.903911
0.793075 -0.252888 0.903917
0.793027 -0.25488 0.903923
0.793967 -0.257304 0.903739
0.793919 -0.259298 0.903745
0.793871 -0.261292 0.903751
0.794811 -0.263723 0.903566
0.794763 -0.265719 0.903573
0.794715 -0.267715 0.903579
0.795655 -0.270153 0.903394
0.795607 -0.27215 0.9034
0.795559 -0.274148 0.903407
0.796498 -0.276593 0.903222
0.79645 -0.278592 0.903228
0.796403 -0.280592 0.903234
0.797342 -0.283044 0.90305
0.797294 -0.285045 0.903056
0.797246 -0.287046 0.903062
0.798185 -0.289505 0.902878
0.798137 -0.291508 0.902884
0.798089 -0.293511 0.90289
0.798041 -0.295514 0.902896
0.798979 -0.297981 0.902712
0.798932 -0.299986 0.902718
0.798884 -0.30199 0.902724
0.799822 -0.304465 0.90254
0.799774 -0.306472 0.902546
0.799726 -0.308478 0.902552
0.800664 -0.31096 0.902368
0.800616 -0.312968 0.902374
0.800568 -0.314976 0.90238
0.801506 -0.317465 0.902196
0.801458 -0.319475 0.902202
0.80141 -0.321484 0.902208
0.802348 -0.32398 0.902024
0.8023 -0.325992 0.90203
0.802252 -0.328003 0.902036
0.803189 -0.330506 0.901852
0.803141 -0.33252 0.901858
0.803093 -0.334533 0.901864
0.803045 -0.336547 0.901871
0.803983 -0.339058 0.901686
0.803934 -0.341073 0.901693
0.803886 -0.343088 0.901699
0.804823 -0.345607 0.901515
0.804775 -0.347624 0.901521
0.804727 -0.349641 0.901527
0.805664 -0.352166 0.901343
0.805616 -0.354185 0.901349
0.805568 -0.356204 0.901355
0.812445 0.00333831 0.898549
0.812397 0.00132136 0.898555
0.812349 -0.000695601 0.898561
0.811309 -0.00250748 0.898761
0.811261 -0.0045227 0.898767
0.811212 -0.00653789 0.898773
0.811164 -0.00855309 0.898779
0.810124 -0.0103562 0.898979
0.810076 -0.0123697 0.898985
0.810028 -0.0143831 0.898991
0.808988 -0.0161792 0.899191
0.80894 -0.0181909 0.899197
0.808892 -0.0202026 0.899203
0.807852 -0.0219917 0.899402
0.807804 -0.0240016 0.899409
0.807756 -0.0260116 0.899415
0.806717 -0.0277936 0.899614
0.806668 -0.0298018 0.89962
0.80662 -0.03181 0.899627
0.805581 -0.0335851 0.899826
0.805533 -0.0355915 0.899832
0.805485 -0.0375979 0.899838
0.805437 -0.0396044 0.899845
0.804398 -0.0413707 0.900044
0.80435 -0.0433753 0.90005
0.804302 -0.04538 0.900056
0.803263 -0.0471393 0.900256
0.803215 -0.0491422 0.900262
0.803167 -0.0511452 0.900268
0.802129 -0.0528974 0.900467
0.802081 -0.0548986 0.900473
0.802033 -0.0568997 0.90048
0.800994 -0.058645 0.900679
0.800946 -0.0606444 0.900685
0.800899 -0.0626438 0.900691
0.79887 -0.0641208 0.901083
0.798822 -0.0661168 0.901089
0.798774 -0.0681127 0.901096
0.797736 -0.0698421 0.901295
0.797688 -0.0718363 0.901301
0.79764 -0.0738304 0.901307
0.797593 -0.0758246 0.901313
0.796555 -0.0775453 0.901512
0.796507 -0.0795377 0.901519
0.79646 -0.0815301 0.901525
0.796412 -0.0835225 0.901531
0.796364 -0.0855149 0.901537
0.796317 -0.0875073 0.901543
0.795279 -0.0892157 0.901742
0.795231 -0.0912064 0.901749
0.795184 -0.093197 0.901755
0.794146 -0.0948984 0.901954
0.794098 -0.0968873 0.90196
0.794051 -0.0988762 0.901966
0.794003 -0.100865 0.901972
0.793956 -0.102854 0.901978
0.793908 -0.104843 0.901985
0.793861 -0.106832 0.901991
0.792823 -0.108519 0.90219
0.792776 -0.110506 0.902196
0.792728 -0.112493 0.902202
0.792681 -0.114481 0.902208
0.792633 -0.116468 0.902214
0.792586 -0.118455 0.902221
0.792538 -0.120442 0.902227
0.792491 -0.122429 0.902233
0.792443 -0.124416 0.902239
0.792396 -0.126403 0.902245
0.792348 -0.128391 0.902251
0.792301 -0.130378 0.902258
0.792253 -0.132365 0.902264
0.792206 -0.134352 0.90227
0.792158 -0.136339 0.902276
0.792111 -0.138326 0.902282
0.792063 -0.140313 0.902288
0.792016 -0.142301 0.902294
0.791968 -0.144288 0.902301
0.791921 -0.146275 0.902307
0.791873 -0.148262 0.902313
0.791826 -0.150249 0.902319
0.791778 -0.152236 0.902325
0.791731 -0.154223 0.902331
0.791683 -0.156211 0.902338
0.791636 -0.158198 0.902344
0.791588 -0.160185 0.90235
0.791541 -0.162172 0.902356
0.790504 -0.163808 0.902555
0.790457 -0.165794 0.902561
0.79041 -0.167779 0.902567
0.790362 -0.169765 0.902573
0.790315 -0.17175 0.90258
0.790267 -0.173735 0.902586
0.79022 -0.175721 0.902592
0.789184 -0.177343 0.902791
0.789137 -0.179327 0.902797
0.789089 -0.181311 0.902803
0.789042 -0.183294 0.902809
0.788994 -0.185278 0.902815
0.788947 -0.187261 0.902821
0.788899 -0.189245 0.902828
0.788852 -0.191229 0.902834
0.788805 -0.193212 0.90284
0.788757 -0.195196 0.902846
0.78871 -0.19718 0.902852
0.788662 -0.199163 0.902858
0.788615 -0.201147 0.902864
0.788567 -0.20313 0.902871
0.78852 -0.205114 0.902877
0.788473 -0.207098 0.902883
0.789413 -0.209472 0.902696
0.789365 -0.211458 0.902703
0.789318 -0.213443 0.902709
0.78927 -0.215429 0.902715
0.79021 -0.217812 0.902529
0.790163 -0.219799 0.902535
0.790115 -0.221786 0.902541
0.791055 -0.224177 0.902354
0.791007 -0.226165 0.902361
0.79096 -0.228154 0.902367
0.791899 -0.230552 0.90218
0.791852 -0.232542 0.902187
0.791804 -0.234533 0.902193
0.791757 -0.236524 0.902199
0.791709 -0.238514 0.902205
0.791661 -0.240505 0.902211
0.792601 -0.242915 0.902025
0.792553 -0.244907 0.902031
0.792505 -0.2469 0.902037
0.792458 -0.248892 0.902044
0.79241 -0.250884 0.90205
0.792362 -0.252877 0.902056
0.792315 -0.254869 0.902062
0.793254 -0.257293 0.901876
0.793206 -0.259287 0.901882
0.793158 -0.261281 0.901888
0.794097 -0.263712 0.901702
0.794049 -0.265708 0.901708
0.794002 -0.267704 0.901714
0.79494 -0.270142 0.901528
0.794893 -0.272139 0.901534
0.794845 -0.274137 0.90154
0.795783 -0.276582 0.901354
0.795735 -0.278581 0.90136
0.795688 -0.28058 0.901367
0.796626 -0.283032 0.90118
0.796578 -0.285033 0.901187
0.79653 -0.287035 0.901193
0.797468 -0.289493 0.901007
0.79742 -0.291496 0.901013
0.797373 -0.293499 0.901019
0.797325 -0.295502 0.901025
0.798263 -0.29797 0.900839
0.798215 -0.299974 0.900845
0.798167 -0.301979 0.900852
0.799104 -0.304454 0.900665
0.799057 -0.30646 0.900672
0.799009 -0.308467 0.900678
0.799946 -0.310948 0.900492
0.799898 -0.312956 0.900498
0.79985 -0.314965 0.900504
0.800787 -0.317453 0.900318
0.800739 -0.319463 0.900324
0.800691 -0.321473 0.900331
0.801628 -0.323969 0.900145
0.80158 -0.32598 0.900151
0.801532 -0.327992 0.900157
0.802469 -0.330495 0.899971
0.802421 -0.332508 0.899977
0.802373 -0.334522 0.899984
0.802325 -0.336535 0.89999
0.803262 -0.339047 0.899804
0.803214 -0.341062 0.89981
0.803166 -0.343077 0.899816
0.804102 -0.345595 0.89963
0.804054 -0.347612 0.899637
0.804006 -0.349629 0.899643
0.804942 -0.352155 0.899457
0.804894 -0.354173 0.899463
0.804846 -0.356192 0.899469
0.811724 0.00334972 0.896665
0.811676 0.00133276 0.896671
0.811628 -0.000684195 0.896677
0.810588 -0.00249609 0.896878
0.81054 -0.0045113 0.896884
0.810492 -0.0065265 0.896891
0.810444 -0.0085417 0.896897
0.809404 -0.0103448 0.897098
0.809356 -0.0123583 0.897104
0.809308 -0.0143717 0.89711
0.808269 -0.0161678 0.897311
0.80822 -0.0181795 0.897318
0.808172 -0.0201912 0.897324
0.807133 -0.0219803 0.897525
0.807085 -0.0239903 0.897531
0.807037 -0.0260002 0.897537
0.805998 -0.0277823 0.897738
0.80595 -0.0297905 0.897744
0.805902 -0.0317987 0.897751
0.804864 -0.0335737 0.897952
0.804816 -0.0355802 0.897958
0.804768 -0.0375866 0.897964
0.80472 -0.039593 0.89797
0.803681 -0.0413593 0.898171
0.803633 -0.043364 0.898177
0.803585 -0.0453687 0.898184
0.802547 -0.0471279 0.898384
0.802499 -0.0491309 0.898391
0.802451 -0.0511338 0.898397
0.801413 -0.0528861 0.898598
0.801365 -0.0548872 0.898604
0.801317 -0.0568884 0.89861
0.800279 -0.0586337 0.898811
0.800231 -0.0606331 0.898817
0.800184 -0.0626325 0.898823
0.798156 -0.0641095 0.899219
0.798108 -0.0661055 0.899225
0.79806 -0.0681014 0.899231
0.797023 -0.0698308 0.899432
0.796975 -0.071825 0.899438
0.796927 -0.0738192 0.899444
0.79688 -0.0758133 0.89945
0.795842 -0.077534 0.899651
0.795795 -0.0795264 0.899657
0.795747 -0.0815188 0.899664
0.795699 -0.0835112 0.89967
0.795652 -0.0855036 0.899676
0.795604 -0.087496 0.899682
0.794567 -0.0892044 0.899883
0.794519 -0.0911951 0.899889
0.794472 -0.0931857 0.899895
0.793435 -0.0948871 0.900096
0.793387 -0.096876 0.900102
0.79334 -0.0988649 0.900108
0.793292 -0.100854 0.900114
0.793244 -0.102843 0.900121
0.793197 -0.104832 0.900127
0.793149 -0.106821 0.900133
0.792113 -0.108508 0.900333
0.792065 -0.110495 0.90034
0.792018 -0.112482 0.900346
0.79197 -0.114469 0.900352
0.791923 -0.116456 0.900358
0.791875 -0.118444 0.900364
0.791828 -0.120431 0.90037
0.79178 -0.122418 0.900377
0.791733 -0.124405 0.900383
0.791685 -0.126392 0.900389
0.791638 -0.128379 0.900395
0.79159 -0.130366 0.900401
0.791543 -0.132354 0.900407
0.791495 -0.134341 0.900414
0.791448 -0.136328 0.90042
0.7914 -0.138315 0.900426
0.791353 -0.140302 0.900432
0.791305 -0.142289 0.900438
0.791258 -0.144276 0.900444
0.79121 -0.146264 0.90045
0.791163 -0.148251 0.900457
0.791115 -0.150238 0.900463
0.791067 -0.152225 0.900469
0.79102 -0.154212 0.900475
0.790972 -0.156199 0.900481
0.790925 -0.158186 0.900487
0.790877 -0.160174 0.900494
0.79083 -0.162161 0.9005
0.789794 -0.163797 0.9007
0.789747 -0.165783 0.900706
0.7897 -0.167768 0.900713
0.789652 -0.169753 0.900719
0.789605 -0.171739 0.900725
0.789557 -0.173724 0.900731
0.78951 -0.17571 0.900737
0.788475 -0.177332 0.900938
0.788427 -0.179316 0.900944
0.78838 -0.181299 0.90095
0.788332 -0.183283 0.900956
0.788285 -0.185267 0.900962
0.788237 -0.18725 0.900968
0.78819 -0.189234 0.900974
0.788143 -0.191217 0.900981
0.788095 -0.193201 0.900987
0.788048 -0.195185 0.900993
0.788 -0.197168 0.900999
0.787953 -0.199152 0.901005
0.787905 -0.201136 0.901011
0.787858 -0.203119 0.901018
0.787811 -0.205103 0.901024
0.787763 -0.207087 0.90103
0.788703 -0.209461 0.900842
0.788655 -0.211447 0.900848
0.788608 -0.213432 0.900854
0.78856 -0.215417 0.90086
0.7895 -0.217801 0.900672
0.789452 -0.219788 0.900678
0.789404 -0.221775 0.900685
0.790344 -0.224165 0.900497
0.790296 -0.226154 0.900503
0.790248 -0.228143 0.900509
0.791187 -0.230541 0.900321
0.79114 -0.232531 0.900327
0.791092 -0.234522 0.900333
0.791045 -0.236513 0.900339
0.790997 -0.238503 0.900346
0.790949 -0.240494 0.900352
0.791888 -0.242903 0.900164
0.791841 -0.244896 0.90017
0.791793 -0.246888 0.900176
0.791745 -0.248881 0.900182
0.791698 -0.250873 0.900188
0.79165 -0.252866 0.900195
0.791602 -0.254858 0.900201
0.792541 -0.257282 0.900013
0.792493 -0.259276 0.900019
0.792445 -0.26127 0.900025
0.793383 -0.263701 0.899837
0.793336 -0.265697 0.899844
0.793288 -0.267693 0.89985
0.794226 -0.27013 0.899662
0.794178 -0.272128 0.899668
0.79413 -0.274126 0.899674
0.795068 -0.27657 0.899486
0.79502 -0.27857 0.899493
0.794973 -0.280569 0.899499
0.79591 -0.283021 0.899311
0.795862 -0.285022 0.899317
0.795815 -0.287023 0.899323
0.796752 -0.289482 0.899136
0.796704 -0.291485 0.899142
0.796656 -0.293488 0.899148
0.796608 -0.295491 0.899154
0.797546 -0.297958 0.898966
0.797498 -0.299963 0.898973
0.79745 -0.301968 0.898979
0.798387 -0.304442 0.898791
0.798339 -0.306449 0.898797
0.798291 -0.308455 0.898804
0.799228 -0.310937 0.898616
0.79918 -0.312945 0.898622
0.799132 -0.314953 0.898628
0.800069 -0.317442 0.898441
0.800021 -0.319452 0.898447
0.799973 -0.321462 0.898453
0.800909 -0.323957 0.898265
0.800861 -0.325969 0.898272
0.800813 -0.327981 0.898278
0.801749 -0.330483 0.89809
0.801701 -0.332497 0.898096
0.801653 -0.33451 0.898103
0.801605 -0.336524 0.898109
0.802541 -0.339035 0.897921
0.802493 -0.34105 0.897928
0.802445 -0.343066 0.897934
0.803381 -0.345584 0.897746
0.803333 -0.347601 0.897752
0.803284 -0.349618 0.897759
0.80422 -0.352143 0.897571
0.804172 -0.354162 0.897577
0.804124 -0.356181 0.897584
0.811994 0.00316134 0.894584
0.811946 0.00114263 0.89459
0.811897 -0.000876088 0.894597
0.810858 -0.00268974 0.894799
0.81081 -0.0047067 0.894806
0.810762 -0.00672366 0.894812
0.810713 -0.00874061 0.894818
0.809675 -0.0105455 0.895021
0.809627 -0.0125607 0.895027
0.809578 -0.0145759 0.895033
0.80854 -0.0163738 0.895236
0.808492 -0.0183872 0.895242
0.808443 -0.0204007 0.895248
0.807405 -0.0221916 0.895451
0.807357 -0.0242032 0.895457
0.807309 -0.0262149 0.895463
0.80627 -0.0279988 0.895666
0.806222 -0.0300087 0.895672
0.806174 -0.0320187 0.895678
0.805136 -0.0337955 0.895881
0.805088 -0.0358037 0.895887
0.80504 -0.0378119 0.895893
0.804992 -0.0398201 0.8959
0.803954 -0.0415881 0.896102
0.803906 -0.0435946 0.896108
0.803858 -0.045601 0.896115
0.80282 -0.047362 0.896317
0.802773 -0.0493667 0.896323
0.802725 -0.0513714 0.89633
0.801687 -0.0531254 0.896532
0.801639 -0.0551283 0.896538
0.801591 -0.0571313 0.896544
0.800554 -0.0588783 0.896747
0.800506 -0.0608794 0.896753
0.800458 -0.0628806 0.896759
0.798431 -0.0643595 0.897158
0.798384 -0.0663571 0.897164
0.798336 -0.0683548 0.89717
0.797299 -0.070086 0.897373
0.797251 -0.0720819 0.897379
0.797203 -0.0740778 0.897385
0.797156 -0.0760737 0.897391
0.796119 -0.0777962 0.897594
0.796071 -0.0797903 0.8976
0.796023 -0.0817845 0.897606
0.795976 -0.0837787 0.897612
0.795928 -0.0857728 0.897619
0.79588 -0.087767 0.897625
0.795833 -0.0897611 0.897631
0.795785 -0.0917553 0.897637
0.795737 -0.0937494 0.897643
0.794701 -0.0954544 0.897846
0.794653 -0.0974468 0.897852
0.794606 -0.0994392 0.897858
0.793569 -0.101137 0.89806
0.793522 -0.103128 0.898066
0.793474 -0.105118 0.898073
0.793427 -0.107109 0.898079
0.793379 -0.1091 0.898085
0.793331 -0.11109 0.898091
0.793284 -0.113081 0.898097
0.793236 -0.115072 0.898103
0.793189 -0.117062 0.89811
0.793141 -0.119053 0.898116
0.793093 -0.121044 0.898122
0.793046 -0.123034 0.898128
0.792998 -0.125025 0.898134
0.791963 -0.126698 0.898337
0.791915 -0.128687 0.898343
0.791867 -0.130676 0.898349
0.79182 -0.132665 0.898355
0.791772 -0.134654 0.898361
0.791725 -0.136643 0.898367
0.791677 -0.138632 0.898374
0.79163 -0.14062 0.89838
0.791582 -0.142609 0.898386
0.791535 -0.144598 0.898392
0.791487 -0.146587 0.898398
0.791439 -0.148576 0.898404
0.791392 -0.150565 0.89841
0.791344 -0.152554 0.898417
0.791297 -0.154543 0.898423
0.791249 -0.156532 0.898429
0.791202 -0.158521 0.898435
0.791154 -0.160509 0.898441
0.791107 -0.162498 0.898447
0.791059 -0.164487 0.898454
0.791011 -0.166476 0.89846
0.790964 -0.168465 0.898466
0.790916 -0.170454 0.898472
0.790869 -0.172443 0.898478
0.790821 -0.174432 0.898484
0.789787 -0.176059 0.898687
0.789739 -0.178047 0.898693
0.789692 -0.180034 0.898699
0.789644 -0.182021 0.898705
0.78861 -0.18364 0.898907
0.788562 -0.185625 0.898913
0.788515 -0.187611 0.898919
0.788467 -0.189596 0.898926
0.78842 -0.191581 0.898932
0.788372 -0.193567 0.898938
0.788325 -0.195552 0.898944
0.788277 -0.197538 0.89895
0.78823 -0.199523 0.898956
0.788182 -0.201508 0.898962
0.788135 -0.203494 0.898969
0.788088 -0.205479 0.898975
0.78804 -0.207465 0.898981
0.788979 -0.209841 0.898791
0.788931 -0.211828 0.898797
0.788884 -0.213815 0.898804
0.788836 -0.215802 0.89881
0.789775 -0.218187 0.89862
0.789727 -0.220176 0.898626
0.78968 -0.222165 0.898632
0.790618 -0.224557 0.898443
0.790571 -0.226548 0.898449
0.790523 -0.228539 0.898455
0.791461 -0.230938 0.898265
0.791414 -0.23293 0.898272
0.791366 -0.234923 0.898278
0.791319 -0.236915 0.898284
0.791271 -0.238907 0.89829
0.791223 -0.2409 0.898296
0.792161 -0.243311 0.898107
0.792114 -0.245305 0.898113
0.792066 -0.2473 0.898119
0.792018 -0.249294 0.898125
0.79197 -0.251288 0.898132
0.791923 -0.253282 0.898138
0.791875 -0.255276 0.898144
0.792813 -0.257702 0.897954
0.792765 -0.259698 0.897961
0.792717 -0.261693 0.897967
0.793655 -0.264126 0.897777
0.793607 -0.266124 0.897783
0.793559 -0.268121 0.89779
0.794497 -0.270561 0.8976
0.794449 -0.27256 0.897606
0.794401 -0.27456 0.897612
0.795338 -0.277006 0.897423
0.79529 -0.279007 0.897429
0.795242 -0.281008 0.897435
0.796179 -0.283462 0.897246
0.796132 -0.285465 0.897252
0.796084 -0.287468 0.897258
0.79702 -0.289928 0.897069
0.796973 -0.291933 0.897075
0.796925 -0.293938 0.897081
0.796877 -0.295942 0.897088
0.797813 -0.298412 0.896898
0.797765 -0.300418 0.896904
0.797717 -0.302425 0.896911
0.798654 -0.304901 0.896721
0.798606 -0.306909 0.896727
0.798558 -0.308917 0.896734
0.799494 -0.311401 0.896544
0.799446 -0.313411 0.896551
0.799398 -0.315421 0.896557
0.800334 -0.317911 0.896367
0.800286 -0.319923 0.896374
0.800238 -0.321934 0.89638
0.802158 -0.324917 0.895995
0.80211 -0.326933 0.896001
0.801077 -0.328459 0.896203
0.801029 -0.330472 0.896209
0.800981 -0.332485 0.896216
0.800933 -0.334499 0.896222
0.800885 -0.336512 0.896228
0.801821 -0.339024 0.896039
0.801772 -0.341039 0.896045
0.801724 -0.343054 0.896051
0.80266 -0.345573 0.895862
0.802611 -0.34759 0.895868
0.802563 -0.349606 0.895875
0.803498 -0.352132 0.895685
0.80345 -0.354151 0.895692
0.803402 -0.356169 0.895698
0.811272 0.00317276 0.892698
0.811224 0.00115404 0.892705
0.811175 -0.000864671 0.892711
0.810137 -0.00267834 0.892915
0.810089 -0.00469529 0.892921
0.81004 -0.00671225 0.892928
0.809992 -0.00872921 0.892934
0.808954 -0.0105341 0.893138
0.808906 -0.0125493 0.893144
0.808858 -0.0145645 0.893151
0.80782 -0.0163624 0.893355
0.807772 -0.0183758 0.893361
0.807723 -0.0203893 0.893367
0.806685 -0.0221802 0.893572
0.806637 -0.0241919 0.893578
0.806589 -0.0262036 0.893584
0.805552 -0.0279874 0.893788
0.805504 -0.0299974 0.893795
0.805456 -0.0320073 0.893801
0.804418 -0.0337841 0.894005
0.80437 -0.0357923 0.894011
0.804322 -0.0378005 0.894017
0.804274 -0.0398087 0.894024
0.803237 -0.0415768 0.894228
0.803189 -0.0435832 0.894234
0.803141 -0.0455896 0.89424
0.802104 -0.0473507 0.894444
0.802056 -0.0493554 0.894451
0.802008 -0.0513601 0.894457
0.800971 -0.0531141 0.894661
0.800923 -0.055117 0.894667
0.800875 -0.0571199 0.894673
0.799838 -0.058867 0.894877
0.79979 -0.0608681 0.894884
0.799742 -0.0628693 0.89489
0.797717 -0.0643482 0.895292
0.797669 -0.0663458 0.895298
0.797622 -0.0683435 0.895304
0.796585 -0.0700747 0.895508
0.796537 -0.0720706 0.895514
0.79649 -0.0740665 0.895521
0.796442 -0.0760624 0.895527
0.795406 -0.0777849 0.895731
0.795358 -0.0797791 0.895737
0.79531 -0.0817732 0.895743
0.795263 -0.0837674 0.895749
0.795215 -0.0857615 0.895756
0.795167 -0.0877557 0.895762
0.79512 -0.0897499 0.895768
0.795072 -0.091744 0.895774
0.795024 -0.0937382 0.89578
0.793988 -0.0954431 0.895984
0.793941 -0.0974355 0.89599
0.793893 -0.0994279 0.895997
0.792858 -0.101126 0.896201
0.79281 -0.103116 0.896207
0.792762 -0.105107 0.896213
0.792715 -0.107098 0.896219
0.792667 -0.109088 0.896225
0.79262 -0.111079 0.896231
0.792572 -0.11307 0.896238
0.792524 -0.11506 0.896244
0.792477 -0.117051 0.89625
0.792429 -0.119042 0.896256
0.792382 -0.121032 0.896262
0.792334 -0.123023 0.896269
0.792286 -0.125014 0.896275
0.791251 -0.126687 0.896479
0.791204 -0.128676 0.896485
0.791156 -0.130665 0.896491
0.791109 -0.132654 0.896497
0.791061 -0.134643 0.896503
0.791013 -0.136631 0.896509
0.790966 -0.13862 0.896516
0.790918 -0.140609 0.896522
0.790871 -0.142598 0.896528
0.790823 -0.144587 0.896534
0.790776 -0.146576 0.89654
0.790728 -0.148565 0.896546
0.790681 -0.150554 0.896553
0.790633 -0.152543 0.896559
0.790585 -0.154531 0.896565
0.790538 -0.15652 0.896571
0.79049 -0.158509 0.896577
0.790443 -0.160498 0.896583
0.790395 -0.162487 0.89659
0.790348 -0.164476 0.896596
0.7903 -0.166465 0.896602
0.790253 -0.168454 0.896608
0.790205 -0.170443 0.896614
0.790157 -0.172432 0.89662
0.79011 -0.17442 0.896627
0.789076 -0.176048 0.89683
0.789029 -0.178035 0.896836
0.788981 -0.180023 0.896843
0.788934 -0.18201 0.896849
0.7879 -0.183629 0.897052
0.787852 -0.185614 0.897059
0.787805 -0.187599 0.897065
0.787757 -0.189585 0.897071
0.78771 -0.19157 0.897077
0.787662 -0.193556 0.897083
0.787615 -0.195541 0.897089
0.787567 -0.197526 0.897096
0.78752 -0.199512 0.897102
0.787472 -0.201497 0.897108
0.787425 -0.203483 0.897114
0.787378 -0.205468 0.89712
0.78733 -0.207453 0.897126
0.788268 -0.20983 0.896935
0.788221 -0.211817 0.896941
0.788173 -0.213804 0.896947
0.788126 -0.215791 0.896953
0.789064 -0.218176 0.896762
0.789016 -0.220165 0.896768
0.788969 -0.222154 0.896774
0.789906 -0.224546 0.896583
0.789859 -0.226537 0.896589
0.789811 -0.228527 0.896596
0.790749 -0.230927 0.896404
0.790701 -0.232919 0.89641
0.790654 -0.234911 0.896417
0.790606 -0.236904 0.896423
0.790558 -0.238896 0.896429
0.790511 -0.240889 0.896435
0.791448 -0.2433 0.896244
0.7914 -0.245294 0.89625
0.791353 -0.247288 0.896256
0.791305 -0.249282 0.896262
0.791257 -0.251277 0.896269
0.79121 -0.253271 0.896275
0.791162 -0.255265 0.896281
0.792099 -0.25769 0.89609
0.792051 -0.259686 0.896096
0.792004 -0.261682 0.896102
0.79294 -0.264115 0.895911
0.792893 -0.266112 0.895917
0.792845 -0.26811 0.895923
0.793782 -0.270549 0.895732
0.793734 -0.272549 0.895738
0.793686 -0.274548 0.895745
0.794623 -0.276995 0.895554
0.794575 -0.278996 0.89556
0.794527 -0.280997 0.895566
0.795463 -0.283451 0.895375
0.795415 -0.285454 0.895381
0.795367 -0.287456 0.895387
0.796304 -0.289917 0.895196
0.796256 -0.291922 0.895202
0.796208 -0.293926 0.895209
0.79616 -0.295931 0.895215
0.797096 -0.2984 0.895024
0.797048 -0.300407 0.89503
0.797 -0.302413 0.895036
0.797936 -0.30489 0.894845
0.797888 -0.306898 0.894851
0.79784 -0.308906 0.894858
0.798775 -0.311389 0.894667
0.798727 -0.313399 0.894673
0.798679 -0.315409 0.894679
0.799615 -0.3179 0.894488
0.799566 -0.319911 0.894494
0.799518 -0.321923 0.894501
0.801437 -0.324906 0.894113
0.801389 -0.326921 0.894119
0.801341 -0.328936 0.894125
0.802276 -0.331442 0.893934
0.802228 -0.333459 0.89394
0.802179 -0.335476 0.893947
0.802131 -0.337493 0.893953
0.803066 -0.340008 0.893762
0.803018 -0.342027 0.893768
0.80297 -0.344046 0.893774
0.803904 -0.346568 0.893584
0.803856 -0.348588 0.89359
0.803808 -0.350608 0.893596
0.804742 -0.353137 0.893405
0.804694 -0.35516 0.893412
0.804645 -0.357182 0.893418
0.81055 0.00318417 0.890812
0.810502 0.00116546 0.890819
0.810453 -0.000853255 0.890825
0.809416 -0.00266693 0.891031
0.809367 -0.00468389 0.891037
0.809319 -0.00670084 0.891043
0.809271 -0.0087178 0.89105
0.808233 -0.0105227 0.891256
0.808185 -0.0125379 0.891262
0.808137 -0.0145531 0.891268
0.8071 -0.016351 0.891474
0.807051 -0.0183645 0.89148
0.807003 -0.0203779 0.891486
0.805966 -0.0221688 0.891692
0.805918 -0.0241805 0.891699
0.80587 -0.0261922 0.891705
0.804833 -0.027976 0.891911
0.804785 -0.029986 0.891917
0.804737 -0.0319959 0.891923
0.8037 -0.0337728 0.892129
0.803652 -0.035781 0.892135
0.803604 -0.0377892 0.892141
0.803556 -0.0397973 0.892148
0.802519 -0.0415654 0.892353
