ply
format ascii 1.0
comment Created by Open3D
element vertex 1713
property double x
property double y
property double z
end_header
0.946489 0.12948 0.726901
0.944449 -0.0138331 0.730824
0.952692 -0.113562 0.723526
0.949336 -0.0713605 0.726642
0.955671 -0.117402 0.726226
0.946796 -0.0490369 0.726633
0.950052 -0.0973058 0.726865
0.95268 -0.0391881 0.723179
0.952591 -0.034113 0.72433
0.947841 0.0176986 0.726606
0.95167 -0.0938909 0.723599
0.951096 -0.0837746 0.724764
0.95068 0.147241 0.726442
0.944778 -0.0579754 0.732705
0.944639 0.0486217 0.724286
0.954763 0.139256 0.727033
0.943807 -0.0329895 0.728068
0.955527 0.12482 0.722561
0.946401 0.0751683 0.724102
0.946499 -0.148254 0.727912
0.948865 -0.0588736 0.728504
0.947285 -0.145744 0.722454
0.950867 0.0464093 0.728735
0.94937 0.00946608 0.71849
0.944579 -0.0908613 0.720588
0.948322 0.018022 0.720309
0.952609 -0.122029 0.723888
0.953435 -0.0299992 0.727002
0.94616 0.105747 0.726101
0.945168 0.00756325 0.726064
0.944217 0.0259398 0.721855
0.95582 0.125274 0.729074
0.950065 -0.0620599 0.721517
0.953142 -0.114078 0.727403
0.949445 0.102214 0.728355
0.955233 -0.0321761 0.725224
0.954012 -0.0534028 0.723278
0.95008 -0.0279705 0.729759
0.954825 0.0106582 0.723809
0.948254 -0.128941 0.724553
0.950252 -0.0762814 0.725681
0.958348 0.110036 0.724929
0.946336 0.135663 0.724287
0.952632 0.0839887 0.725003
0.94562 -0.112527 0.72482
0.943425 -0.098493 0.725233
0.948643 -0.123304 0.728338
0.95051 -0.050755 0.728188
0.952704 -0.0444051 0.721776
0.948098 -0.141773 0.726258
0.94523 -0.146569 0.725724
0.948448 0.0698855 0.722646
0.951427 0.00535577 0.722188
0.947727 -0.0851767 0.726842
0.947989 0.0780722 0.723656
0.950385 0.0753336 0.719694
0.945839 0.0605752 0.727724
0.952773 0.142719 0.721801
0.946323 0.0347719 0.720756
0.950735 -0.0999067 0.723098
0.951783 -0.0880931 0.724112
0.952432 -0.112827 0.718852
0.951886 0.00323405 0.724301
0.953338 -0.0173438 0.721837
0.950209 -0.0750025 0.724052
0.953508 -0.137936 0.721978
0.955378 -0.00999095 0.724408
0.946985 -0.133573 0.726547
0.953125 -0.00153424 0.730147
0.944384 -0.0655256 0.730021
0.949632 0.0604473 0.723769
0.949481 -0.0202847 0.719686
0.949597 -0.0373028 0.720308
0.945628 0.0680793 0.727108
0.951997 0.0981147 0.717815
0.945013 -0.0263908 0.725242
0.952035 -0.00918933 0.723046
0.950556 -0.00431694 0.72171
0.947248 0.00890641 0.720288
0.952599 0.0934847 0.726818
0.951544 -0.00931052 0.716566
0.949343 -0.145418 0.726271
0.948801 -0.0873152 0.72576
0.948804 0.11979 0.72222
0.947763 0.101855 0.726872
0.952678 -0.0357083 0.718916
0.955071 -0.096022 0.726962
0.946764 0.000137745 0.729269
0.948222 -0.0406838 0.714684
0.953622 0.00543595 0.721863
0.950172 -0.00980599 0.722123
0.946925 -0.123513 0.721381
0.954132 0.0460405 0.730922
0.947799 0.0204686 0.723982
0.948202 -0.0558602 0.722233
0.951067 0.0375443 0.723096
0.950493 0.0744654 0.723496
0.952858 -0.0719827 0.72211
0.950426 -0.114472 0.721897
0.952355 0.0366678 0.724058
0.957247 -0.0469351 0.722902
0.948965 0.122751 0.716204
0.95262 0.0597247 0.723195
0.945496 0.11276 0.721547
0.951226 -0.0736822 0.723067
0.953887 0.104869 0.725743
0.947701 -0.0810899 0.726527
0.948707 0.0253758 0.718269
0.952141 -0.0792826 0.723365
0.945521 -0.0803358 0.722566
0.948171 0.0164592 0.726236
0.953576 0.000472389 0.731041
0.950837 -0.0745454 0.728516
0.954501 -0.0889635 0.721241
0.948927 -0.148401 0.722712
0.955751 -0.0271185 0.724003
0.94636 -0.0174015 0.722835
0.952444 -0.0191562 0.726241
0.949845 -0.1371 0.723547
0.948148 0.101784 0.725057
0.949963 0.115946 0.724421
0.950886 -0.00102238 0.721957
0.943786 -0.00284741 0.723454
0.955474 0.000171413 0.719845
0.948213 -0.0120024 0.720757
0.956622 -0.0632324 0.726523
0.947231 -0.0129466 0.725158
0.94998 -0.0415909 0.719891
0.953496 0.0680655 0.717484
0.950063 -0.121581 0.724977
0.94849 0.0179347 0.719869
0.956285 0.14729 0.720996
0.951401 -0.00409724 0.721987
0.955154 -0.00978584 0.7212
0.958126 0.122102 0.71689
0.949007 0.122156 0.72445
0.951674 -0.0093293 0.72538
0.950502 -0.0228171 0.721595
0.953944 -0.107816 0.724106
0.951622 0.0794872 0.722826
0.950659 -0.023524 0.721694
0.945823 0.0984256 0.722344
0.948494 0.134368 0.721687
0.950807 -0.106392 0.723794
0.949059 -0.151191 0.725878
0.953534 0.0303122 0.723921
0.952335 0.105349 0.724954
0.956688 0.0218764 0.719556
0.950964 0.0767947 0.72075
0.951937 0.00497823 0.724563
0.947567 0.0877319 0.717548
0.955551 0.0114708 0.723159
0.951846 0.0146494 0.723978
0.956102 -0.134899 0.730268
0.947307 -0.129519 0.7183
0.949293 -0.131552 0.719525
0.948099 -0.0790718 0.722759
0.953194 -0.0501597 0.722512
0.949215 -0.00474882 0.724657
0.955549 -0.0586074 0.722541
0.948766 0.0519907 0.719639
0.945638 0.105619 0.724221
0.95384 -0.00630741 0.721641
0.952445 0.000700224 0.721097
0.949023 -0.000693175 0.721125
0.950581 -0.0832949 0.725868
0.95318 0.0781579 0.722145
0.946844 0.0129657 0.719386
0.949479 -0.122158 0.721763
0.945659 0.105178 0.722387
0.947773 0.0996051 0.718868
0.946172 -0.00402924 0.721615
0.953595 -0.115728 0.723057
0.94841 -0.142245 0.718729
0.951195 0.0646663 0.721216
0.953523 0.0920272 0.72204
0.952798 -0.094187 0.721935
0.944527 0.0896278 0.723123
0.952747 0.0768502 0.727867
0.948124 -0.124738 0.722779
0.951467 -0.0310033 0.721953
0.947688 0.108899 0.725175
0.952297 -0.129178 0.719554
0.949653 -0.108869 0.718261
0.947877 -0.0893308 0.718981
0.948123 -0.0378642 0.72366
0.949606 0.00714408 0.718374
0.947266 0.0251785 0.72113
0.948509 -0.0925392 0.720612
0.949894 -0.0700862 0.717855
0.95144 0.0677434 0.716915
0.949171 0.0911602 0.721567
0.944457 0.0747756 0.717699
0.948853 -0.0377842 0.720636
0.945614 0.0678922 0.72575
0.952011 0.0370598 0.72427
0.949553 0.0800779 0.716872
0.949732 0.0850795 0.721816
0.94504 0.139454 0.717092
0.951223 0.0799852 0.718249
0.950951 0.00853515 0.725895
0.954876 0.0324297 0.720914
0.951102 -0.0984788 0.71942
0.94685 0.0898958 0.722529
0.947082 0.0905555 0.720783
0.952503 -0.134481 0.717262
0.948025 -0.0102412 0.716427
0.952105 -0.131014 0.723541
0.948161 -0.129948 0.714234
0.950652 0.127196 0.719143
0.949645 0.0564581 0.724384
0.950099 -0.114352 0.723065
0.954409 0.0855211 0.718639
0.949916 0.0208191 0.717239
0.950398 0.0394354 0.720031
0.946861 -0.0139395 0.722909
0.953803 -0.0535439 0.722253
0.949724 0.0719954 0.730071
0.947514 0.0495093 0.718279
0.952481 -0.0421787 0.724097
0.950745 -0.0693072 0.725199
0.948378 0.0816479 0.719046
0.951565 -0.0470611 0.717321
0.951192 0.0937946 0.715586
0.950353 -0.0904188 0.718374
0.95071 -0.0515809 0.717428
0.945552 -0.152136 0.722308
0.948149 0.14503 0.72452
0.949199 0.0904833 0.720431
0.946529 0.0445427 0.716519
0.946332 0.00880346 0.716088
0.949424 0.104725 0.721666
0.953354 0.104329 0.715861
0.953029 0.135114 0.722135
0.95349 -0.108393 0.720773
0.950812 -0.141576 0.713806
0.951441 -0.151603 0.719827
0.946911 -0.0666416 0.717451
0.951825 -0.102181 0.720328
0.947957 -0.0840954 0.721033
0.950308 0.0879268 0.716846
0.950023 -0.0797715 0.721496
0.944938 -0.0711495 0.722054
0.956152 0.120762 0.717457
0.950794 -0.0686501 0.720148
0.951541 -0.0208932 0.718168
0.956496 -0.0249919 0.721605
0.95307 -0.0940063 0.718669
0.952701 0.0619587 0.721519
0.949008 -0.137395 0.719719
0.949555 -0.0633039 0.721464
0.954423 -0.00496634 0.714519
0.952473 -0.088919 0.721196
0.951055 0.0567573 0.716239
0.949121 0.0260316 0.716636
0.945905 0.14494 0.722112
0.954876 -0.0287301 0.71865
0.950296 -0.088253 0.717225
0.949262 -0.127672 0.723441
0.948669 0.035132 0.716511
0.946832 -0.0841234 0.716451
0.95179 0.148759 0.71215
0.950879 -0.0648006 0.723442
0.951189 -0.101106 0.719305
0.95306 0.00637438 0.716342
0.950001 0.103084 0.72051
0.947822 -0.0815191 0.719329
0.947396 0.025974 0.71647
0.953122 0.0102594 0.715529
0.951471 0.0691217 0.71686
0.952786 -0.0275769 0.721863
0.945942 -0.0514803 0.712964
0.953859 0.0228027 0.718041
0.952599 -0.149715 0.722218
0.950521 -0.0707768 0.719387
0.949649 -0.0288765 0.718734
0.95324 -0.116752 0.714316
0.953671 0.12671 0.725278
0.947789 -0.031647 0.717682
0.948157 0.0850934 0.720834
0.946814 -0.00793215 0.715469
0.95608 -0.0411013 0.716976
0.947181 -0.0352869 0.726998
0.953893 0.0429925 0.7173
0.951509 -0.135588 0.717757
0.954236 -0.0550391 0.71648
0.95415 0.0457681 0.720961
0.946967 0.000217197 0.717936
0.950077 -0.0463241 0.720548
0.951857 -0.129085 0.718213
0.951921 -0.0850351 0.720322
0.951998 0.0287103 0.716896
0.950238 0.0440458 0.717806
0.949185 -0.068024 0.72456
0.95401 -0.124594 0.718131
0.948794 0.0590129 0.713422
0.951388 0.074853 0.7196
0.949731 0.0339418 0.720436
0.95284 0.0812284 0.719819
0.951702 -0.0684959 0.716308
0.950302 0.0409664 0.721397
0.951953 -0.0922352 0.715158
0.949311 -0.106161 0.720077
0.949905 0.0514439 0.720642
0.951025 0.0251705 0.716777
0.951063 -0.135562 0.719311
0.948032 0.0229803 0.720191
0.953019 0.105191 0.717929
0.94969 -0.00994252 0.718128
0.946619 0.101567 0.714983
0.949483 -0.0631095 0.719536
0.950315 -0.00879847 0.715756
0.950457 -0.0829493 0.718896
0.951063 0.0529718 0.715341
0.951824 0.0291618 0.717925
0.951288 -0.0910309 0.717814
0.952043 0.12026 0.71485
0.946491 0.145568 0.715505
0.950708 -0.142425 0.714284
0.950353 0.0877047 0.718111
0.951983 0.111656 0.71643
0.950648 -0.104018 0.717222
0.945297 0.0979789 0.715532
0.946569 -0.0920978 0.716315
0.948784 -0.107629 0.717991
0.947686 0.0809791 0.722033
0.951852 0.0103862 0.715378
0.946722 0.0211773 0.713269
0.950134 0.0643876 0.713631
0.954818 -4.52489e-05 0.716182
0.949759 0.0923883 0.717427
0.946842 0.109608 0.716899
0.946981 -0.0412562 0.716313
0.944297 0.116021 0.713073
0.946863 0.115784 0.712367
0.954807 -0.0616723 0.716817
0.956908 0.0764305 0.719269
0.950259 0.104694 0.714782
0.949806 -0.118736 0.714652
0.951501 0.145341 0.716157
0.951793 -0.0331774 0.716707
0.947398 0.101445 0.716651
0.94124 0.048454 0.717491
0.955803 0.00480429 0.713326
0.949186 -0.106115 0.71743
0.9511 0.104643 0.714238
0.949302 -0.144208 0.720062
0.954722 0.0800495 0.713488
0.951264 -0.116743 0.719847
0.951492 -0.072672 0.716512
0.948782 0.106799 0.717691
0.954386 0.0371111 0.713146
0.954208 -0.112086 0.714161
0.956799 -0.0445935 0.720672
0.947636 0.0971547 0.717105
0.954953 -0.04385 0.718246
0.950052 0.0270466 0.715793
0.95547 0.0953896 0.718023
0.950991 0.0238112 0.714689
0.94804 -0.0335367 0.716757
0.949052 0.0676719 0.712511
0.954976 0.123359 0.716853
0.948903 -0.0987443 0.7183
0.951012 0.113513 0.718028
0.954044 0.139138 0.713483
0.946928 -0.00937795 0.721477
0.945363 0.0177429 0.719955
0.949114 -0.00988641 0.712107
0.952577 0.0652889 0.719405
0.958006 -0.0544102 0.714818
0.950565 -0.0472267 0.718465
0.950429 0.0519783 0.716354
0.947101 -0.0227607 0.716322
0.951232 -0.0141606 0.714916
0.95041 -0.107165 0.707797
0.953494 -0.0761162 0.714236
0.956187 0.0191975 0.71277
0.951516 -0.0712518 0.721267
0.946283 -0.139405 0.718793
0.95296 0.143102 0.712234
0.953085 -0.126474 0.713474
0.951153 -0.138362 0.716106
0.949221 0.0101949 0.715294
0.95082 0.031106 0.716382
0.951218 0.0329081 0.712969
0.952603 0.0920279 0.714937
0.946659 -0.0828034 0.711983
0.945522 -0.0933027 0.717213
0.94852 -0.133297 0.714604
0.948443 0.0534584 0.712266
0.953022 -0.0275643 0.719579
0.952234 -0.0969427 0.718644
0.95248 0.0751691 0.714223
0.950712 0.103138 0.713559
0.953642 -0.00740521 0.714196
0.952419 0.0413253 0.712165
0.947795 -0.0452135 0.710308
0.951506 -0.11253 0.718418
0.950413 -0.0561113 0.709915
0.950593 -0.039285 0.711456
0.949328 0.0116408 0.713609
0.951655 -0.0745219 0.71281
0.956291 -0.0983706 0.713158
0.950878 0.0461049 0.717019
0.951004 0.000245432 0.712483
0.957093 0.108266 0.717369
0.951358 -0.0589769 0.720676
0.955858 0.0440624 0.716925
0.949286 0.102912 0.712672
0.949663 -0.0990992 0.712038
0.953094 0.078702 0.721328
0.950474 0.0750322 0.717542
0.94926 -0.111859 0.711438
0.951708 0.025796 0.717584
0.951637 -0.14028 0.716496
0.948597 0.0243315 0.71017
0.950807 -0.0818594 0.712232
0.949733 -0.139914 0.712067
0.948053 0.0656162 0.713907
0.956556 0.0317281 0.710701
0.954171 0.0929879 0.713978
0.957959 0.0919491 0.713359
0.954934 0.0577066 0.713647
0.949577 0.0493679 0.715116
0.95495 -0.100202 0.718579
0.954479 0.0922094 0.714693
0.956914 -0.0818019 0.715971
0.94935 -0.140157 0.708013
0.951341 0.0787943 0.710459
0.950996 -0.111424 0.713795
0.955052 -0.141078 0.713001
0.948794 0.0824732 0.71421
0.951993 0.0580207 0.714668
0.948197 0.122349 0.713379
0.953118 0.0658708 0.710522
0.948746 0.129277 0.722238
0.950278 0.0777682 0.717431
0.950086 0.110775 0.711304
0.953631 0.105897 0.709235
0.955574 0.0129427 0.718648
0.952719 -0.0889892 0.713302
0.955843 -0.137867 0.7109
0.956229 -0.138009 0.709853
0.953083 0.0320684 0.708533
0.948757 -0.0226155 0.721173
0.950554 0.0136844 0.716402
0.947909 -0.0078805 0.707463
0.947159 0.0917731 0.713728
0.952872 0.0805363 0.714472
0.953258 0.107519 0.712169
0.953101 -0.127569 0.713621
0.949935 0.0644535 0.710948
0.957332 -0.116712 0.709293
0.947896 -0.146838 0.714266
0.944959 -0.0478568 0.712362
0.952377 0.00488481 0.714637
0.9573 -0.138757 0.713279
0.951348 -0.0398606 0.711721
0.94924 0.00991788 0.711408
0.956479 -0.0759923 0.7168
0.950277 0.082776 0.711777
0.948717 -0.0768496 0.711431
0.953346 -0.068838 0.712465
0.953116 0.0454486 0.709579
0.950025 -0.0633263 0.713768
0.956421 0.0113417 0.713306
0.948957 0.000395487 0.712601
0.951759 0.103815 0.71181
0.948835 -0.00727899 0.71181
0.954248 0.00151867 0.712509
0.954599 -0.0274347 0.716172
0.947591 0.0284339 0.714042
0.95213 -0.0990812 0.707234
0.956468 0.147773 0.709892
0.95529 -0.0903652 0.71012
0.953007 -0.0352017 0.710839
0.957865 -0.0143068 0.70609
0.947609 -0.122463 0.71646
0.953857 -0.000919644 0.714153
0.954514 0.108026 0.711197
0.954352 -0.118847 0.708935
0.953056 -0.0402273 0.71365
0.954532 -0.0990175 0.711901
0.951696 -0.0393003 0.712639
0.95599 -0.128166 0.717251
0.951267 -0.131479 0.714039
0.949047 0.127752 0.712155
0.948888 -0.0846968 0.709727
0.955134 0.122741 0.71009
0.950203 -0.118029 0.716758
0.951874 -0.125674 0.708934
0.950515 0.00680041 0.713781
0.954897 0.143791 0.712904
0.951564 -0.0173386 0.70615
0.948714 0.0109209 0.710995
0.955986 0.086737 0.709646
0.953029 0.0474184 0.70455
0.954298 -0.0993776 0.713162
0.952433 -0.148251 0.710493
0.951218 0.134803 0.711964
0.955277 0.0475114 0.712379
0.950988 -0.13189 0.706173
0.94665 -0.113783 0.709737
0.947451 0.0758427 0.7106
0.951933 0.116264 0.710559
0.952605 0.137783 0.711582
0.953174 0.00626436 0.714353
0.947694 0.0405758 0.707516
0.958465 -0.0678643 0.711479
0.951247 -0.122005 0.709739
0.950271 0.0401751 0.711568
0.952618 -0.0251389 0.717014
0.957065 0.0821903 0.711594
0.948477 0.0968851 0.711434
0.946574 0.00731266 0.704731
0.95069 -0.0953291 0.713384
0.954447 0.043756 0.711101
0.947373 -0.0710546 0.709534
0.950389 0.0942187 0.709342
0.951924 -0.114472 0.712791
0.954105 -0.134968 0.717462
0.953278 0.0629363 0.712241
0.956919 0.010447 0.709199
0.952738 0.0095614 0.713005
0.958984 -0.118062 0.708426
0.948225 -0.14903 0.711692
0.953759 0.128527 0.711224
0.95216 0.029033 0.71274
0.952808 0.00211825 0.713323
0.95322 0.0203643 0.709274
0.950611 -0.0304335 0.708556
0.95258 -0.109758 0.711414
0.95227 -0.103504 0.712974
0.958564 0.105485 0.711036
0.954738 -0.104866 0.713516
0.955513 0.0293617 0.709597
0.948345 -0.0955926 0.717148
0.959192 0.113367 0.71575
0.948354 -0.0169376 0.708074
0.950274 -0.0650986 0.710113
0.952617 0.0196047 0.710853
0.946659 0.016318 0.715084
0.951128 0.128437 0.707983
0.953629 -0.0789763 0.706302
0.959814 0.104787 0.705968
0.948291 -0.0558081 0.70809
0.950921 -0.0998089 0.71336
0.952739 -0.0230662 0.714018
0.952008 -0.112885 0.70742
0.954359 0.123066 0.710119
0.94972 -0.0844548 0.710894
0.954692 0.119859 0.712066
0.951549 0.102265 0.705339
0.951552 0.0364047 0.713749
0.950993 0.146364 0.709618
0.949515 0.0124324 0.709118
0.956494 0.0348755 0.705738
0.952611 -0.14429 0.713721
0.949545 -0.107462 0.713241
0.951937 -0.0379865 0.712707
0.95142 -0.0818144 0.7071
0.953767 0.104015 0.712488
0.949961 0.0888476 0.709388
0.952395 0.0900209 0.709736
0.955862 -0.0651487 0.713799
0.956413 0.132823 0.705787
0.958896 -0.0442247 0.711124
0.953653 -0.11993 0.705522
0.958554 -0.0305104 0.706342
0.951787 0.0447534 0.705531
0.951481 0.000669217 0.708183
0.952158 -0.0165941 0.713782
0.950616 -0.0180754 0.710296
0.953457 0.00914863 0.716511
0.952544 -0.09153 0.70993
0.952546 -0.062827 0.715187
0.953536 -0.0305653 0.718312
0.953076 0.131864 0.712331
0.947943 -0.065961 0.711566
0.952265 -0.0641868 0.713811
0.956878 -0.076112 0.709749
0.951804 -0.130232 0.71416
0.954786 0.0986081 0.70634
0.950239 -0.149364 0.713787
0.951056 0.0647983 0.709441
0.95568 -0.0359264 0.709701
0.951363 -0.0566763 0.710804
0.95103 -0.0130559 0.711076
0.954172 -0.0577829 0.71345
0.950309 -0.121066 0.70913
0.957467 -0.130641 0.70659
0.944566 0.0527441 0.713297
0.948488 0.120169 0.703905
0.953503 -0.0984709 0.707235
0.950952 0.0383068 0.704467
0.952126 -0.0340799 0.711691
0.954294 0.142611 0.71089
0.955181 -0.0570094 0.710169
0.953838 -0.0680832 0.714215
0.950367 -0.0126221 0.706598
0.954734 -0.131631 0.705502
0.953228 -0.10608 0.709054
0.953665 0.0474898 0.705745
0.956836 -0.0530978 0.708573
0.95604 -0.0131183 0.716113
0.950988 0.109895 0.71043
0.953359 0.0910483 0.70722
0.952389 0.0678572 0.709344
0.956664 -0.0838832 0.708445
0.954434 0.0832766 0.709516
0.949936 -0.130305 0.70331
0.951331 -0.0168443 0.711616
0.951622 -0.10145 0.710246
0.9533 0.0976702 0.707958
0.949879 -0.0176392 0.712729
0.951269 0.147116 0.703997
0.953964 0.132266 0.707723
0.952754 0.129296 0.704015
0.950463 0.0568615 0.705326
0.946953 0.0224912 0.706049
0.95543 0.146602 0.709103
0.952521 0.0712577 0.710265
0.950212 0.0479195 0.708199
0.950572 0.0669172 0.707092
0.955558 -0.105348 0.707702
0.953796 0.0254487 0.701381
0.952715 0.0430335 0.70162
0.95159 -0.0563584 0.70715
0.953634 -0.0268607 0.71077
0.951945 0.11802 0.703662
0.952346 0.150845 0.714319
0.953971 0.133204 0.705348
0.952164 0.0646632 0.705427
0.953188 0.00388542 0.701611
0.954276 -0.0416733 0.701579
0.954726 -0.0882428 0.711248
0.952779 0.100446 0.713741
0.946298 -0.0255983 0.703169
0.955852 -0.00604156 0.711028
0.953151 -0.035566 0.703099
0.953467 -0.11392 0.706875
0.956768 0.0584826 0.705216
0.94842 0.137012 0.706196
0.951343 -0.00434507 0.7067
0.949998 -0.101015 0.701306
0.950638 -0.0313005 0.706811
0.956866 0.0318957 0.709627
0.958686 0.046253 0.709009
0.951209 -0.00267509 0.703526
0.952855 0.129285 0.707867
0.956758 -0.124916 0.705376
0.950338 0.118624 0.705767
0.95552 -0.0837021 0.708304
0.952267 0.135021 0.715046
0.946922 0.0171082 0.705681
0.951803 0.0504608 0.704478
0.960605 -0.0295358 0.704418
0.955927 0.0349375 0.70314
0.954888 0.0436735 0.707266
0.953827 0.122163 0.707272
0.95419 0.11237 0.706629
0.956306 -0.00159176 0.708005
0.957026 -0.0644316 0.709475
0.953512 0.0840238 0.704448
0.95343 0.104079 0.703479
0.953171 -0.112268 0.707714
0.952559 0.103093 0.705009
0.950052 -0.117198 0.704223
0.953893 0.130153 0.703755
0.950033 -0.0130689 0.706903
0.956686 0.120156 0.708449
0.951071 0.116661 0.704862
0.953973 -0.0628102 0.706233
0.954746 -0.0329433 0.707506
0.954649 0.101408 0.70475
0.957234 -0.148276 0.702914
0.951429 -0.129832 0.707521
0.948855 0.0512067 0.706431
0.955597 0.0326463 0.704819
0.948118 0.124883 0.711148
0.951837 0.0632187 0.705691
0.95158 0.0315566 0.710377
0.952402 -0.114464 0.705102
0.950838 0.142337 0.706774
0.95687 -0.145495 0.703666
0.951977 0.0896514 0.709195
0.95675 0.154791 0.705673
0.956288 0.0346228 0.703012
0.954215 -0.146302 0.704093
0.958373 0.121041 0.706653
0.951841 -0.110244 0.705494
0.949919 0.0489802 0.709853
0.945032 0.0739045 0.709866
0.954245 0.063706 0.705135
0.950025 0.0262261 0.707979
0.956932 -0.140539 0.704537
0.954607 -0.115987 0.702154
0.956893 0.0370996 0.702473
0.954076 -0.0673633 0.708681
0.95508 -0.0730369 0.70092
0.951314 -0.00369653 0.70579
0.954101 0.0645775 0.70612
0.95205 0.0147958 0.706359
0.951367 0.00423145 0.706655
0.960794 0.125277 0.699178
0.953897 -0.032487 0.702784
0.954064 0.0382429 0.707828
0.954169 -0.0434848 0.706341
0.958719 -0.146788 0.700936
0.955901 -0.0246457 0.707188
0.956799 -0.0060064 0.704533
0.955101 0.0687399 0.706357
0.949691 -0.0294146 0.703893
0.953949 0.0838629 0.703035
0.954154 -0.0663712 0.705058
0.952398 -0.130358 0.699234
0.954909 0.0868688 0.699504
0.955042 -0.0217264 0.704882
0.950415 0.00778995 0.704059
0.957106 0.0700446 0.70439
0.952891 0.0400378 0.705952
0.961701 -0.141601 0.706431
0.960071 -0.144545 0.709245
0.957002 0.0824038 0.707402
0.953884 0.0308695 0.703217
0.959803 -0.0455554 0.708271
0.956919 0.119193 0.704055
0.954841 0.0632523 0.704421
0.949275 0.0463469 0.708334
0.956856 0.080951 0.704248
0.959945 -0.098125 0.707915
0.950797 0.0022707 0.701557
0.953785 -0.0837257 0.702745
0.954282 -0.0711171 0.705997
0.955371 0.105449 0.70276
0.962632 0.0263439 0.700517
0.952334 0.0723171 0.701897
0.955542 -0.00571189 0.705078
0.956713 -0.138286 0.710255
0.958503 -0.00915404 0.705832
0.952688 0.0781326 0.703548
0.950233 -0.137545 0.698943
0.96237 -0.0486212 0.705846
0.962671 0.110306 0.700747
0.95561 -0.0971013 0.709757
0.95222 -0.00698584 0.704745
0.952577 0.108289 0.702612
0.950445 -0.05623 0.706369
0.958825 0.0699116 0.696898
0.948819 0.00893892 0.704528
0.955507 0.104161 0.704215
0.957653 0.0828795 0.702641
0.954312 -0.144219 0.707129
0.956144 0.0645854 0.708155
0.956307 0.0751772 0.706153
0.95397 -0.0879755 0.705566
0.956708 -0.031157 0.701719
0.953225 0.0389928 0.701655
0.953965 -0.0598501 0.702049
0.950321 0.00965673 0.705048
0.949071 -0.0924506 0.701329
0.957188 0.0876892 0.701996
0.95597 -0.0463969 0.702135
0.954588 0.0961121 0.696621
0.954193 -0.0776166 0.702254
0.953898 -0.111516 0.706444
0.960273 -0.101141 0.70109
0.953895 -0.120993 0.700274
0.953212 -0.0116217 0.705369
0.953249 0.119235 0.700603
0.959607 0.136567 0.697206
0.955394 -0.136292 0.702107
0.949991 0.0993391 0.700311
0.953021 0.0416611 0.704632
0.952116 0.062474 0.701053
0.956705 0.0599397 0.698969
0.953702 -0.113767 0.704605
0.95851 0.0735922 0.70419
0.950809 0.0285081 0.704078
0.957092 -0.0463496 0.699545
0.953341 0.0784378 0.703992
0.953229 -0.0544614 0.703398
0.951617 -0.0135149 0.704721
0.955274 -0.136441 0.698673
0.954652 -0.0179643 0.703349
0.953733 -0.103506 0.70469
0.956932 0.0416841 0.696106
0.954891 -0.0507923 0.7017
0.950016 -0.0217291 0.700636
0.95181 0.0741946 0.707874
0.953085 0.0720562 0.703105
0.957125 0.143215 0.705204
0.95147 -0.126791 0.701289
0.950172 -0.129175 0.703883
0.951988 0.119381 0.698917
0.960252 0.0565128 0.703693
0.960618 -0.0098107 0.706492
0.954817 0.0815429 0.703947
0.954302 -0.0674669 0.702024
0.958517 0.0559703 0.701128
0.956713 0.0717032 0.705114
0.957735 0.0606271 0.703209
0.955622 0.0446515 0.704595
0.952254 -0.0684238 0.704252
0.959506 0.0330179 0.703375
0.950212 -0.120449 0.705207
0.954387 -0.121039 0.702245
0.953772 -0.123547 0.702278
0.955395 0.0978077 0.701013
0.957582 0.0690722 0.702121
0.953404 -0.105653 0.706973
0.947903 0.00116663 0.700998
0.958067 0.0548683 0.700726
0.953794 0.0953209 0.700675
0.954727 -0.116492 0.700027
0.955348 -0.0467057 0.699791
0.948085 -0.0383902 0.70622
0.950984 0.00152624 0.704669
0.951139 0.0580776 0.702897
0.956396 -0.121298 0.703115
0.957017 -0.104077 0.705007
0.95706 0.136421 0.703272
0.955684 0.125641 0.705361
0.956102 -0.0271307 0.706177
0.95711 0.0809583 0.696021
0.958476 0.117106 0.699422
0.95822 0.0389458 0.703934
0.956891 -0.0729047 0.699676
0.954501 -0.081427 0.699227
0.954965 -0.0717302 0.701233
0.956868 0.0877159 0.700174
0.955875 0.145436 0.70586
0.959987 0.0416625 0.702699
0.953246 0.118713 0.702471
0.954445 -0.151183 0.697757
0.955185 0.0555775 0.702318
0.950457 0.123667 0.703512
0.948774 -0.103752 0.703704
0.950367 -0.0421605 0.706633
0.958459 -0.082992 0.702069
0.955966 -0.0656522 0.70272
0.957751 0.135127 0.706946
0.961876 0.0990519 0.700828
0.954287 -0.105694 0.702166
0.956905 0.0581789 0.698895
0.960662 0.141679 0.703271
0.956627 0.0531641 0.697943
0.95749 0.0994586 0.701313
0.957513 0.0599356 0.695173
0.959254 -0.0690539 0.70247
0.957211 0.0289721 0.701158
0.953992 0.128804 0.703299
0.95679 -0.105888 0.703113
0.959014 0.124639 0.696938
0.95939 -0.0106081 0.701878
0.955731 -0.151508 0.701893
0.964239 -0.114428 0.70166
0.959216 -0.0312926 0.700272
0.957841 0.0124307 0.708226
0.960814 0.0879481 0.702536
0.955609 0.0811644 0.702564
0.955139 0.116045 0.700688
0.952419 0.061318 0.706281
0.956104 -0.141073 0.699051
0.953664 -0.113724 0.705341
0.952528 -0.060643 0.698062
0.955843 0.0655811 0.701018
0.962429 -0.0759306 0.702432
0.950824 -0.117382 0.706954
0.95602 -0.103425 0.701362
0.95046 0.128645 0.697702
0.957312 0.0136338 0.703748
0.957041 -0.0520481 0.697286
0.958627 -0.101974 0.699256
0.957902 0.0913299 0.699907
0.956131 -0.0761946 0.703823
0.952776 -0.0203995 0.707374
0.958378 0.13671 0.699328
0.958196 0.029234 0.701252
0.952796 -0.0823665 0.698041
0.959156 -0.110275 0.695931
0.958256 0.0801089 0.699436
0.958075 0.00722317 0.697118
0.952524 1.58077e-05 0.698015
0.951196 0.070355 0.69734
0.957819 -0.0452828 0.69575
0.955923 0.00163351 0.702538
0.962495 0.0903989 0.705257
0.958632 0.00943208 0.702916
0.951072 -0.0924296 0.703082
0.95226 0.0709753 0.702431
0.958443 0.0828204 0.694946
0.95107 0.019683 0.69906
0.95723 0.0671486 0.697009
0.950141 -0.105547 0.70313
0.957726 0.0898973 0.695191
0.957614 0.120675 0.699283
0.959935 -0.105618 0.702546
0.959323 -0.0118051 0.70163
0.95528 0.0418562 0.696865
0.954168 -0.124447 0.700367
0.958072 0.109075 0.702436
0.955558 -0.110768 0.696821
0.956694 -0.0806557 0.699715
0.954878 0.0242932 0.70157
0.958143 -0.130577 0.694367
0.958067 0.0578427 0.694812
0.957704 -0.0519216 0.698554
0.952108 -0.0169222 0.696734
0.9576 -0.00835037 0.692336
0.956011 0.061888 0.698136
0.954295 0.033492 0.698912
0.955395 -0.148986 0.697646
0.955704 -0.144916 0.700149
0.958954 -0.099329 0.69626
0.959681 -0.117093 0.693505
0.956204 -0.122525 0.695614
0.956683 -0.0740603 0.698739
0.956271 0.00192972 0.700466
0.953788 0.0906836 0.701114
0.958411 -0.0129505 0.70025
0.953561 -0.0166031 0.699023
0.957429 -0.125064 0.69809
0.952351 -0.0432562 0.69765
0.959545 0.0114641 0.699427
0.958757 -0.142545 0.694377
0.960998 -0.00903801 0.699461
0.958749 -0.0123722 0.700273
0.952848 -0.143728 0.701032
0.952702 -0.00964028 0.694873
0.958684 -0.134675 0.695968
0.958283 0.00633217 0.697228
0.95685 -0.111284 0.697189
0.951108 0.124121 0.698249
0.957227 0.134151 0.701227
0.952971 -0.129667 0.699743
0.958335 -0.0506919 0.69804
0.95844 0.0953984 0.696801
0.961334 0.0082916 0.700203
0.960468 -0.0842983 0.692243
0.956915 0.111902 0.699594
0.95807 -0.0161548 0.697817
0.956166 0.00495532 0.697751
0.959268 0.0966708 0.692902
0.959637 -0.113772 0.695867
0.95922 -0.0609608 0.695987
0.95807 0.021396 0.698489
0.955224 0.0774614 0.691812
0.957719 0.131789 0.700655
0.960642 0.021764 0.697841
0.957641 0.13921 0.70109
0.958693 -0.0815885 0.700315
0.958918 0.118743 0.699671
0.957342 -0.0588852 0.701668
0.955045 -0.0691811 0.697637
0.96119 0.00035078 0.694501
0.961811 -0.0744517 0.699321
0.954495 0.0595092 0.696606
0.967807 -0.0134408 0.695553
0.959308 0.140638 0.702723
0.960834 -0.0395589 0.69492
0.955771 -0.0889309 0.699009
0.960776 -0.106656 0.701565
0.960421 -0.143857 0.701149
0.956145 -0.0114371 0.696092
0.956666 0.091644 0.700933
0.955571 0.0863147 0.695639
0.958397 0.0179928 0.699777
0.963797 0.118551 0.692137
0.960822 -0.101189 0.699925
0.960821 0.0949748 0.690629
0.960645 -0.110916 0.699586
0.964624 0.0741381 0.694585
0.955008 -0.0387973 0.700176
0.958313 0.132422 0.698231
0.958645 0.0957996 0.697319
0.957195 0.0106252 0.696863
0.958034 0.011043 0.694012
0.96185 0.134052 0.700468
0.963587 -0.0458331 0.697647
0.958701 0.043217 0.696162
0.955687 -0.047608 0.700598
0.955953 -0.0574775 0.702328
0.958634 -0.146508 0.698293
0.965148 0.0185936 0.695173
0.96253 -0.0950457 0.698413
0.954427 -0.134088 0.699541
0.957714 0.0450104 0.693762
0.94645 0.0997071 0.692805
0.955812 -0.0943626 0.698781
0.965056 -0.114284 0.698367
0.961475 -0.0299233 0.695717
0.952388 -0.0121928 0.69786
0.959357 0.09644 0.698053
0.956761 -0.0049405 0.690538
0.956044 -0.0703301 0.697543
0.956468 -0.0192481 0.687036
0.958852 0.150799 0.692398
0.956033 0.115428 0.689434
0.960751 -0.0106945 0.7017
0.957702 0.0982709 0.695322
0.962035 0.0134081 0.698215
0.961522 -0.0284985 0.697481
0.96111 -0.0545556 0.697486
0.954369 -0.0362707 0.69986
0.956593 0.0504337 0.696495
0.960954 -0.0323418 0.69692
0.962083 0.0794565 0.691025
0.959431 0.0411026 0.693636
0.957902 0.120577 0.69677
0.959206 -0.105601 0.691681
0.960304 0.0574112 0.690994
0.957896 -0.0401672 0.699258
0.952969 0.13609 0.696934
0.966869 -0.0433327 0.692692
0.956458 0.0116671 0.698456
0.954338 0.0174385 0.69364
0.95888 0.105409 0.69597
0.962191 0.135961 0.696314
0.961022 -0.0476552 0.693281
0.962575 -0.106563 0.695981
0.95805 -0.136684 0.693816
0.958717 0.019191 0.696271
0.96148 0.087166 0.695889
0.96443 -0.10106 0.698487
0.959127 0.0472787 0.697884
0.955699 -0.0769234 0.693668
0.959099 0.00652608 0.696906
0.959998 -0.127062 0.696074
0.962831 -0.141487 0.694299
0.955878 -0.10361 0.692831
0.962699 -0.0247093 0.695611
0.961397 -0.103377 0.696181
0.956706 -0.105745 0.693314
0.958829 -0.0692408 0.697358
0.954682 -0.055479 0.691685
0.956839 0.13104 0.692479
0.958332 0.0475356 0.695711
0.961942 -0.00774886 0.692181
0.960542 0.0600305 0.690354
0.959812 0.0762412 0.69322
0.960736 -0.034856 0.700549
0.961332 0.0779806 0.700432
0.960822 0.0495403 0.693017
0.964419 -0.088245 0.696709
0.954629 0.133289 0.694548
0.959614 0.00704922 0.689481
0.952007 -0.0794355 0.694753
0.963553 -0.149389 0.696311
0.958564 -0.0371643 0.692406
0.961762 -0.122542 0.692498
0.954591 0.0354104 0.691035
0.96149 -0.0684286 0.699765
0.959269 0.0472878 0.695062
0.961189 -0.029829 0.693227
0.955229 0.0101537 0.693
0.960074 -0.0910682 0.693893
0.957509 -0.0290483 0.697394
0.957593 -0.0887844 0.699424
0.959046 0.0964124 0.696233
0.957975 0.0598058 0.694716
0.955217 -0.109056 0.695605
0.962759 -0.0288536 0.692118
0.955078 -0.124491 0.691534
0.956902 -0.109138 0.69178
0.959806 -0.0332241 0.693609
0.957627 -0.10486 0.693728
0.958351 -0.0438193 0.693649
0.960693 -0.144503 0.697523
0.952085 -0.0573724 0.693445
0.960917 0.102205 0.695231
0.96032 0.127241 0.695854
0.962311 0.0371065 0.689615
0.962045 0.0164344 0.700968
0.965609 -0.061783 0.69702
0.963009 -0.0312248 0.700747
0.959439 0.0343962 0.691615
0.957662 -0.040762 0.696974
0.961923 0.149636 0.695044
0.958144 0.0441099 0.69396
0.962332 0.105549 0.696095
0.95684 0.103023 0.68843
0.962499 -0.0321688 0.693303
0.957704 0.0805892 0.698176
0.965271 0.072793 0.690657
0.96304 -0.0570116 0.699155
0.955863 0.062711 0.689802
0.956337 -0.070596 0.689616
0.959966 0.0714911 0.694452
0.961063 -0.103345 0.69301
0.957676 0.107362 0.697025
0.959839 0.0354012 0.692187
0.961742 0.13447 0.687925
0.960368 0.0231428 0.690424
0.961002 -0.0306462 0.694011
0.960945 -0.042922 0.694221
0.96348 -0.107859 0.691854
0.96058 0.042316 0.692484
0.96109 -0.0107866 0.690739
0.959599 -0.0592365 0.689448
0.963108 0.00130958 0.695237
0.95903 -0.0177578 0.687935
0.96022 0.134252 0.692034
0.964118 0.124663 0.691404
0.959421 0.0738066 0.695648
0.964446 0.126373 0.699803
0.959276 -0.0968738 0.693335
0.959989 0.0921683 0.693643
0.957576 0.122934 0.694929
0.962276 -0.0674789 0.696946
0.967259 -0.107848 0.694026
0.95946 -0.0874359 0.686225
0.957377 0.0836788 0.696058
0.954265 -0.138033 0.696141
0.95944 0.0708114 0.698531
0.963556 -0.0056899 0.691169
0.964416 0.0596716 0.691628
0.956146 0.0796701 0.688604
0.956215 0.133585 0.690284
0.957214 0.00792019 0.695424
0.961005 0.0210097 0.691833
0.959683 0.0298792 0.684235
0.960463 0.0657427 0.692193
0.960998 -0.0243558 0.691233
0.957608 0.0729485 0.692753
0.956967 0.116411 0.688084
0.959401 0.00616505 0.690857
0.958412 -0.0969073 0.696968
0.962076 -0.117277 0.692555
0.959351 -0.0140098 0.696434
0.962086 -0.131511 0.697233
0.958925 -0.045323 0.689739
0.954826 0.0960051 0.692007
0.966859 0.116553 0.693665
0.964068 -0.0550867 0.68982
0.955785 -0.100754 0.695049
0.963564 0.0893515 0.691938
0.964729 -0.0343014 0.691631
0.963581 -0.0798359 0.689884
0.964236 0.11194 0.69558
0.962688 -0.0614294 0.690095
0.964642 -0.0217748 0.692692
0.962197 -0.0765092 0.692481
0.962906 0.0434629 0.689038
0.964835 -0.141313 0.689606
0.964361 0.113409 0.691211
0.961399 0.0960666 0.68916
0.956644 -0.0326575 0.691572
0.96143 0.0651816 0.686292
0.960085 -0.151939 0.690247
0.969503 0.031755 0.691494
0.962579 0.129704 0.691593
0.967815 0.0367775 0.68862
0.95889 0.0264468 0.689186
0.959881 0.0175589 0.687958
0.958471 -0.0239431 0.698879
0.958603 -0.0707299 0.68972
0.96028 -0.0489441 0.693709
0.961558 0.0906158 0.691935
0.960776 0.0145832 0.690892
0.959079 0.128015 0.686819
0.957141 0.0558697 0.693562
0.961557 0.0428834 0.694219
0.964326 -0.027815 0.690406
0.965539 0.105031 0.690783
0.962143 -0.0373581 0.696668
0.955248 0.0188293 0.688658
0.966738 -0.0331236 0.692768
0.962351 -0.118804 0.691628
0.959856 -0.0535306 0.6909
0.961898 0.0525287 0.683178
0.96502 0.108507 0.691775
0.964018 0.101795 0.699297
0.964706 -0.0185727 0.6889
0.959333 -0.0148849 0.693961
0.963716 0.0383564 0.685455
0.964601 0.0583996 0.691082
0.962889 0.0890717 0.690622
0.964465 0.0437282 0.687655
0.964314 -0.00175282 0.687625
0.96019 0.0426606 0.693673
0.962987 -0.0967791 0.690221
0.957922 -0.148782 0.695216
0.962239 0.0955797 0.687078
0.96248 -0.121835 0.688056
0.961271 -0.141626 0.690777
0.961142 0.0105971 0.690568
0.963075 0.0323822 0.691768
0.962732 0.0523561 0.692701
0.959903 -0.115687 0.689858
0.957862 0.103136 0.689411
0.958826 0.00314319 0.687905
0.962353 0.0240618 0.690487
0.959576 -0.0999511 0.690797
0.959998 -0.0118053 0.690815
0.96349 -0.148447 0.684214
0.968316 -0.146213 0.687125
0.960481 0.124964 0.688182
0.964144 0.104554 0.690938
0.969054 0.0210897 0.694851
0.960901 -0.0381011 0.689932
0.969789 0.0823545 0.694137
0.965515 0.0218259 0.693421
0.969387 -0.0357622 0.684101
0.962609 -0.053937 0.691624
0.961577 0.145453 0.693215
0.959623 -0.0775167 0.69182
0.959951 0.03622 0.688144
0.962706 0.0410283 0.690665
0.966274 -0.0751272 0.688046
0.961693 0.119073 0.695688
0.959636 -0.00493858 0.690509
0.960497 0.0768037 0.69414
0.965557 -0.135722 0.691463
0.958709 -0.0844051 0.6897
0.966994 0.088733 0.687099
0.96486 -0.0681516 0.691119
0.962332 0.128518 0.692215
0.957019 -0.106869 0.686038
0.963267 0.123495 0.691177
0.963165 0.102845 0.690979
0.960521 -0.0869001 0.686432
0.969819 0.13238 0.694421
0.96351 -0.098334 0.689149
0.969599 -0.116987 0.690207
0.964183 -0.0319296 0.692512
0.968338 -0.0682942 0.687196
0.963317 -0.0503051 0.687993
0.958129 0.0104189 0.690845
0.962121 -0.0370248 0.690822
0.962077 -0.0543132 0.690659
0.961924 -0.00715258 0.690199
0.962292 -0.110321 0.689596
0.959095 0.070942 0.68954
0.962335 0.0493229 0.689898
0.964122 -0.0944678 0.686169
0.964844 0.0222297 0.692674
0.962058 0.0753851 0.688652
0.962679 0.0591455 0.688916
0.970726 -0.0572927 0.694482
0.96342 0.117867 0.684455
0.963512 0.127738 0.690059
0.960574 0.128012 0.688412
0.960388 -0.0963635 0.690946
0.966639 0.0220752 0.686462
0.967123 0.0295771 0.691509
0.961494 -0.0374801 0.691791
0.967779 0.067627 0.685102
0.962922 -0.044108 0.692247
0.963828 -0.123959 0.692732
0.962718 0.0318132 0.683429
0.964363 -0.116419 0.692503
0.964188 -0.0827224 0.690098
0.965609 0.0220574 0.685868
0.963844 -0.0281471 0.685812
0.965637 0.0218671 0.689973
0.964965 0.044656 0.690711
0.962593 -0.133939 0.6871
0.967888 -0.0655902 0.684233
0.956486 0.137642 0.690621
0.970305 -0.0782644 0.691012
0.967759 -0.0403544 0.684932
0.964486 0.0103513 0.688509
0.9686 0.140006 0.689889
0.959412 0.0951138 0.687285
0.964651 0.119722 0.686578
0.96295 0.0216072 0.683872
0.961767 -0.0349139 0.686649
0.95988 -0.0671982 0.696013
0.966512 -0.033202 0.687645
0.966955 0.0343832 0.688673
0.964549 -0.0596983 0.690612
0.964842 0.00725198 0.693947
0.960334 -0.0979388 0.695805
0.962435 0.116485 0.690578
0.966307 -0.0610399 0.686797
0.965377 -0.0786422 0.690357
0.964393 -0.0650986 0.687806
0.959713 -0.0268626 0.692098
0.964832 0.0647579 0.693777
0.966485 0.0662719 0.68833
0.967033 0.108357 0.680253
0.966621 -0.105607 0.689191
0.965092 0.0274864 0.692506
0.965392 -0.143797 0.691321
0.964647 -0.0535948 0.684869
0.960758 -0.0224965 0.690733
0.963795 -0.136705 0.686835
0.962869 0.0837557 0.689248
0.968171 -0.103727 0.688153
0.961258 -0.0377958 0.693459
0.962774 -0.0864606 0.693329
0.963779 -0.103806 0.689607
0.965269 -0.0571281 0.689174
0.965653 0.00524109 0.687118
0.958908 0.136282 0.683876
0.964787 0.0357547 0.685097
0.965088 -0.0215682 0.692699
0.956974 -0.0763314 0.687197
0.968239 0.0965255 0.692163
0.9631 -0.0523219 0.684376
0.964679 -0.0824049 0.689594
0.964499 -0.04047 0.684629
0.964226 -0.0582783 0.686092
0.958308 -0.0663283 0.690173
0.964354 -0.026829 0.688795
0.965137 0.0474729 0.689033
0.965342 0.0592388 0.685819
0.966965 0.124214 0.686548
0.958327 0.129854 0.689952
0.965248 -0.0698845 0.678209
0.967218 0.0605507 0.68977
0.966595 0.0463128 0.685854
0.967095 -0.143113 0.683554
0.96111 -0.134526 0.687236
0.964103 -0.151795 0.687888
0.967747 0.0660085 0.691593
0.964252 0.134366 0.68898
0.965898 -0.139935 0.689622
0.961784 0.0836178 0.687448
0.968232 0.139886 0.685349
0.962395 0.071314 0.680916
0.967947 -0.0165867 0.690363
0.965433 0.0227807 0.685612
0.968112 0.0432705 0.685697
0.96604 -0.0531437 0.684828
0.963723 -0.127908 0.684097
0.969902 -0.0510451 0.685832
0.966514 -0.0665274 0.685424
0.966075 0.0881989 0.688097
0.965567 0.126165 0.686582
0.966218 0.008917 0.68998
0.966113 0.062063 0.68493
0.965688 0.0316054 0.681583
0.964034 -0.0488708 0.69013
0.965045 0.0959259 0.687566
0.964393 -0.0109697 0.689598
0.965664 -0.0150727 0.688223
0.971624 -0.0872356 0.689475
0.967874 -0.102799 0.692921
0.967237 0.103317 0.684465
0.964095 0.0664326 0.68069
0.965168 0.00910867 0.686771
0.966213 0.119647 0.683309
0.961378 0.056048 0.686432
0.967913 0.11206 0.687345
0.96212 0.0636858 0.679937
0.964168 0.0255512 0.684758
0.966523 -0.109 0.68622
0.966265 0.0548436 0.681576
0.967127 0.028243 0.683129
0.965755 -0.0573031 0.690373
0.962103 -0.0646602 0.684579
0.965616 -0.0173965 0.680597
0.965671 -0.138766 0.689163
0.965283 -0.0191408 0.685558
0.968646 0.000484357 0.6889
0.967041 0.123037 0.694451
0.969875 0.0303193 0.687114
0.965603 -0.144384 0.680911
0.967047 0.0603713 0.68382
0.967653 0.0792327 0.683688
0.969832 -0.0115146 0.684631
0.965267 -0.135939 0.686561
0.967407 -0.114901 0.68361
0.964212 -0.0447969 0.689921
0.96726 -0.0933387 0.684049
0.969769 0.0707411 0.682399
0.963447 -0.041998 0.687035
0.961542 -0.00639816 0.685902
0.967037 0.103356 0.684199
0.964925 -0.015481 0.683424
0.965461 -0.0935402 0.691285
0.967369 0.0313927 0.687301
0.96714 0.0937628 0.687348
0.963711 -0.0368662 0.686232
0.967921 -0.129111 0.680104
0.960389 0.0243594 0.684648
0.966967 0.0995586 0.692025
0.966081 -0.135894 0.680511
0.963954 0.0623496 0.690435
0.966558 -0.0726539 0.68591
0.966104 -0.0673515 0.687766
0.969107 0.00696795 0.689423
0.967529 -0.0565575 0.681741
0.966947 0.106005 0.687977
0.965229 0.0906563 0.684681
0.96805 -0.108662 0.686675
0.964159 0.137635 0.681147
0.971365 -0.105321 0.682066
0.966125 -0.111943 0.683886
0.963715 -0.112993 0.682577
0.965639 0.0967256 0.685489
0.971029 -0.0283761 0.680055
0.968832 0.0138048 0.679853
0.968465 0.106239 0.687352
0.964512 -0.0942148 0.683112
0.96315 0.00317783 0.68887
0.967068 0.0132781 0.689526
0.96824 -0.10297 0.683837
0.972207 -0.0577858 0.685422
0.96573 -0.14343 0.682817
0.963697 -0.0585257 0.682593
0.965127 0.1217 0.691581
0.966753 0.122837 0.680631
0.968947 0.154418 0.685874
0.96288 0.00350114 0.684304
0.963877 -0.0562246 0.682072
0.964864 -0.0144854 0.687078
0.968521 -0.0330717 0.6927
0.966902 0.0613157 0.680025
0.964215 0.102425 0.681592
0.962946 -0.0145541 0.682284
0.969235 -0.124789 0.684171
0.967892 -0.0282929 0.68248
0.964437 0.139665 0.6847
0.965352 -0.0341832 0.683549
0.966078 -0.135203 0.679888
0.962372 -0.045957 0.686699
0.969517 0.0632552 0.686251
0.970128 -0.00721992 0.685391
0.96873 -0.0546771 0.683639
0.969708 -0.0231233 0.682582
0.969387 -0.00173162 0.684068
0.963837 -0.0309471 0.686677
0.966974 0.0213146 0.68462
0.965244 -0.0461698 0.68201
0.964586 0.109048 0.687538
0.966866 0.124452 0.682025
0.969548 -0.0101392 0.681306
0.96971 -0.0773048 0.68057
0.966288 -0.0306745 0.683925
0.96623 -0.0747219 0.686035
0.964554 -0.053215 0.685863
0.970672 0.00709275 0.684299
0.968417 -0.125511 0.686403
0.970049 -0.0154279 0.681974
0.965401 0.145632 0.688893
0.967603 -0.0226746 0.682759
0.965822 0.0751366 0.680013
0.962288 0.0856633 0.679515
0.964078 0.0113996 0.680537
0.962816 0.125123 0.680266
0.97267 -0.00477636 0.684877
0.967808 -0.0330994 0.686706
0.962661 0.0867175 0.683312
0.9689 0.0231077 0.680384
0.962404 -0.122262 0.681904
0.968147 0.130779 0.688264
0.970541 -0.00757291 0.684423
0.96582 -0.147659 0.679346
0.965856 -0.140436 0.683352
0.971228 -0.0875023 0.679701
0.967811 0.147058 0.680065
0.962869 0.0534726 0.678541
0.972658 -0.0294592 0.682841
0.965603 0.073348 0.680235
0.970323 0.118929 0.682607
0.969126 -0.137689 0.681353
0.972076 -0.0319215 0.682673
0.973227 -0.0847604 0.678215
0.966984 0.050202 0.679423
0.972469 0.0119736 0.683493
0.969344 0.12836 0.683917
0.964775 0.143302 0.682186
0.966368 -0.0719477 0.68127
0.965765 0.0123548 0.681966
0.971517 -0.133184 0.684574
0.969973 -0.139678 0.67945
0.971143 0.0342394 0.685643
0.963811 0.0523405 0.687759
0.967413 0.0381955 0.689664
0.968509 -0.104098 0.679323
0.965843 0.150652 0.684475
0.96939 -0.0553369 0.68193
0.969497 0.122881 0.681754
0.963502 -0.0666815 0.681438
0.967176 -0.0439343 0.684307
0.97185 -0.0844538 0.679121
0.969251 0.121464 0.680084
0.971722 -0.0595047 0.68479
0.967217 -0.00673047 0.679105
0.967261 0.105984 0.681089
0.966642 -0.04443 0.684001
0.964892 -0.07198 0.681136
0.964225 -0.0747432 0.682017
0.971909 -0.0030006 0.681537
0.96439 0.0998658 0.678666
0.965605 -0.131261 0.681777
0.965304 0.0919899 0.682074
0.973778 0.13334 0.68269
0.971625 -0.0284587 0.678077
0.965685 0.107041 0.689361
0.971027 -0.0404015 0.678312
0.972623 -0.0917395 0.683861
0.968 0.0065315 0.678208
0.967006 0.100736 0.679555
0.97555 -0.0627558 0.682265
0.966537 -0.0579 0.685678
0.970101 0.0491693 0.679491
0.972069 0.017719 0.677088
0.971481 0.0936202 0.682499
0.969109 -0.0408827 0.680859
0.964051 0.0755689 0.677789
0.96427 -0.0593984 0.683582
0.971037 -0.00208569 0.680893
0.971687 0.118211 0.679832
0.973351 -0.148538 0.682284
0.971787 -0.0127394 0.682053
0.969067 0.0180626 0.679223
0.963834 -0.0568421 0.683053
0.968851 0.051896 0.67937
0.977679 0.117826 0.6812
0.973042 -0.0322012 0.68352
0.96969 -0.143445 0.687578
0.9699 -0.00807868 0.680586
0.965203 0.0294951 0.680294
0.967378 -0.0158182 0.681271
0.972543 0.133891 0.681219
0.971337 0.143649 0.675921
0.975922 0.106105 0.680639
0.972745 -0.127665 0.682116
0.96708 0.00762176 0.688577
0.96649 0.137329 0.680108
0.966933 -0.0862657 0.679458
0.973173 -0.0515013 0.680653
0.974919 0.0470954 0.678804
0.9681 -0.0650006 0.686218
0.969143 0.0438755 0.683779
0.970564 0.108782 0.68275
0.972872 -0.051079 0.681121
0.972645 -0.122521 0.685636
0.968415 -0.0699029 0.677956
0.9728 0.0848725 0.681641
0.969083 0.117999 0.683827
0.968847 0.0525973 0.681186
0.974682 -0.0611749 0.675848
0.97423 -0.116106 0.684553
0.972108 -0.0924617 0.680194
0.962396 0.138369 0.681334
0.97037 0.0902216 0.679492
0.968459 0.145385 0.673977
0.974828 -0.0155671 0.679609
0.969258 0.0693302 0.677169
0.969024 -0.0477413 0.679573
0.966735 0.0841353 0.685517
0.970353 -0.0368348 0.674799
0.973077 0.130313 0.677378
0.971096 0.00322707 0.676546
0.965568 -0.142118 0.679977
0.973546 -0.066014 0.682646
0.969668 0.063741 0.678521
0.970568 -0.0126535 0.679127
0.974255 -0.116941 0.679803
0.971366 -0.0228739 0.67688
0.970023 -0.0713202 0.681646
0.970135 0.0342633 0.679112
0.966114 0.144537 0.682478
0.975489 0.136777 0.683763
0.972365 0.0295361 0.680582
0.97215 0.0469283 0.685522
0.971281 0.148299 0.684522
0.969079 -0.0666751 0.684568
0.967931 -0.0282333 0.681554
0.97112 0.130782 0.680815
0.970845 -0.127156 0.680712
0.96634 0.115127 0.679921
0.965469 0.0255647 0.673568
0.969401 0.00181349 0.678269
0.969408 -0.141171 0.680498
0.965415 0.121048 0.681355
0.968979 0.022263 0.683482
0.970617 0.105474 0.679469
0.96807 -0.132198 0.674917
0.970075 -0.0999167 0.675746
0.970876 -0.0924627 0.673234
0.972449 0.0852776 0.673617
0.967655 0.0840388 0.681232
0.971575 -0.144331 0.684375
0.973629 0.136886 0.682277
0.971154 0.0928949 0.677669
0.97693 -0.112298 0.683211
0.975723 -0.0776636 0.678055
0.965852 0.0296945 0.683404
0.970623 0.0830144 0.674437
0.974278 0.105937 0.680038
0.970298 -0.154597 0.678021
0.969566 -0.111383 0.678607
0.968821 0.0616961 0.679251
0.973918 -0.115089 0.677454
0.976424 -0.0689889 0.684919
0.972711 0.0846273 0.681593
0.967412 -0.122508 0.677291
0.972267 -0.140082 0.676526
0.973211 0.0561126 0.678052
0.974467 0.043711 0.677245
0.973263 -0.00735238 0.679593
0.966809 -0.100733 0.67417
0.97147 0.0507471 0.676582
0.97625 -0.131222 0.676898
0.972482 -0.00969427 0.68174
0.976283 0.141545 0.679671
0.969188 0.0901144 0.681032
0.972319 -0.0010634 0.682418
0.971383 0.108026 0.677984
0.972616 0.00708394 0.680691
0.967668 -0.0852191 0.677854
0.972382 -0.0872481 0.6771
0.970788 -0.110195 0.679071
0.967654 0.0286896 0.680641
0.969322 0.150439 0.673587
0.973211 0.097228 0.680803
0.974886 -0.0272322 0.683219
0.97629 -0.0433447 0.680834
0.974614 -0.00660007 0.67514
0.975761 0.137039 0.678841
0.970924 0.111271 0.682801
0.974372 -0.0559958 0.681325
0.971859 -0.131854 0.681256
0.974205 0.147963 0.679089
0.970325 -0.059127 0.683068
0.974038 -0.138729 0.675648
0.973234 0.112709 0.671395
0.970903 0.0963586 0.677811
0.971288 -0.0633994 0.679606
0.974231 -0.0655284 0.675808
0.973163 -0.144056 0.68416
0.974499 -0.149642 0.674987
0.972223 0.124213 0.674319
0.978698 -0.109792 0.682807
0.973647 -0.0342825 0.676963
0.970613 0.0420647 0.680104
0.970648 -0.131541 0.682259
0.96948 -0.0203022 0.674521
0.971095 0.120376 0.680258
0.968938 0.0308757 0.678526
0.969032 0.121152 0.676009
0.974332 -0.0817443 0.683001
0.973885 -0.0219114 0.678419
0.972122 -0.139213 0.676896
0.971782 -0.0464547 0.681844
0.966188 -0.0534417 0.675799
0.979654 -0.095112 0.676132
0.977063 0.123743 0.673735
0.983788 0.0548953 0.681783
0.973542 -0.0407757 0.67694
0.973932 -0.0131733 0.676673
0.975831 -0.0221695 0.675079
0.972257 -0.124203 0.685756
0.975429 0.0720775 0.676574
0.971027 -0.0997799 0.67511
0.978197 0.101679 0.676255
0.976562 0.118586 0.674409
0.9665 0.0832969 0.673719
0.981009 -0.149773 0.672731
0.975321 -0.104803 0.680556
0.976364 0.0415545 0.675633
0.969525 -0.0583495 0.68276
0.978096 0.124987 0.675837
0.975284 -0.0462987 0.679488
0.973745 -0.0837406 0.678902
0.975855 0.0719903 0.675845
0.975792 0.0980145 0.674014
0.97481 -0.0354602 0.675197
0.971709 -0.061166 0.673068
0.971407 -0.10631 0.675308
0.975894 0.0588313 0.678698
0.973929 -0.027574 0.676914
0.970893 0.0308401 0.676527
0.973164 0.142777 0.680185
0.974442 0.0178609 0.680927
0.973516 0.0249936 0.67639
0.975193 0.141534 0.67236
0.972356 -0.128492 0.677628
0.973011 -0.015627 0.676933
0.970817 0.147093 0.67855
0.970822 0.0579055 0.680827
0.976709 0.0880118 0.672227
0.972922 0.00621379 0.672838
0.974013 -0.0771911 0.676859
0.979296 -0.133168 0.678453
0.972567 -0.0741006 0.672727
0.975706 -0.0389364 0.675299
0.974488 -0.14345 0.672776
0.970932 -0.0560598 0.67894
0.976644 0.047365 0.681751
0.973266 0.129743 0.679113
0.973168 0.0301813 0.671168
0.972746 -0.0175404 0.67891
0.972593 -0.0531268 0.6744
0.970789 0.00108481 0.675514
0.97197 0.116717 0.67345
0.974335 -0.0870725 0.677722
0.977201 -0.021695 0.67216
0.974536 -0.149566 0.67717
0.981676 0.0870466 0.678537
0.974364 0.0720871 0.671505
0.977411 0.013359 0.673573
0.980649 -0.0435081 0.668854
0.969246 -0.0651723 0.674263
0.968084 0.0238839 0.67547
0.977012 -0.0393807 0.673022
0.971754 0.0211892 0.675391
0.971691 -0.11386 0.675025
0.977042 -0.0924207 0.673842
0.974531 0.143537 0.677569
0.975366 0.0498876 0.673205
0.973906 -0.0201587 0.677306
0.979152 0.134367 0.667635
0.976958 -0.144278 0.673932
0.974845 0.104643 0.679659
0.976756 0.035919 0.673325
0.976197 0.0289355 0.671003
