ply
format ascii 1.0
comment Created by Open3D
element vertex 1792
property double x
property double y
property double z
end_header
1.01766 0.0303869 0.711342
1.01679 0.0280091 0.711512
1.01704 0.025478 0.711355
1.01747 0.0229184 0.711141
1.01709 0.0204755 0.711169
1.01666 0.0180409 0.711211
1.01676 0.015529 0.711097
1.01628 0.0131035 0.711154
1.01643 0.0105843 0.711025
1.01571 0.00819782 0.711153
1.01431 0.00591871 0.711481
1.01427 0.00343219 0.711409
1.01364 0.00103768 0.711509
1.01244 -0.00126161 0.71178
1.01206 -0.00369002 0.711809
1.01105 -0.00601414 0.712023
1.011 -0.00849514 0.711952
1.00903 -0.0106518 0.712452
1.00822 -0.0129981 0.712609
1.00817 -0.0154742 0.712538
1.00639 -0.0176489 0.712981
1.00635 -0.0201219 0.71291
1.00553 -0.022458 0.713068
1.00443 -0.0247396 0.713311
1.00438 -0.0272093 0.71324
1.00284 -0.0294057 0.713613
1.0015 -0.0316324 0.713928
1.00145 -0.0340969 0.713857
1.00093 -0.0364707 0.71393
1.00088 -0.0389344 0.713859
1.00006 -0.04125 0.714017
0.998865 -0.0434882 0.71429
0.998819 -0.0459483 0.714219
0.997908 -0.0482373 0.714406
0.996563 -0.0504367 0.714722
0.996518 -0.0528929 0.714652
0.995463 -0.0551438 0.714882
0.995417 -0.0575981 0.714811
0.994506 -0.0598734 0.714999
0.993547 -0.0621354 0.715201
0.993646 -0.064617 0.715087
0.99288 -0.0669151 0.715232
0.99192 -0.0691694 0.715434
0.992212 -0.0716906 0.715263
0.992023 -0.0741081 0.715236
0.991978 -0.0765569 0.715165
0.991596 -0.0789311 0.715196
0.991551 -0.0813792 0.715125
0.991843 -0.0839031 0.714954
0.991654 -0.0863192 0.714927
0.991464 -0.0887346 0.714899
0.992141 -0.0913492 0.714613
0.991904 -0.093754 0.7146
0.992436 -0.0963384 0.714357
0.992247 -0.0987546 0.71433
0.99225 -0.101216 0.714245
0.992493 -0.103735 0.714088
0.992304 -0.106151 0.714061
0.992451 -0.108648 0.713933
0.99255 -0.111134 0.713819
0.992361 -0.113549 0.713792
0.992316 -0.116 0.713721
0.991935 -0.118366 0.713751
0.992322 -0.120926 0.713551
0.993239 -0.123621 0.713192
0.993194 -0.126074 0.713122
0.992957 -0.128477 0.713109
0.992911 -0.130929 0.713038
0.992866 -0.133381 0.712968
0.992821 -0.135834 0.712897
0.992632 -0.138248 0.71287
0.992635 -0.140712 0.712785
0.99259 -0.143165 0.712714
0.992209 -0.145525 0.712745
0.991875 -0.147898 0.712761
0.99183 -0.150349 0.71269
0.991785 -0.1528 0.71262
0.991884 -0.155291 0.712506
0.991839 -0.157742 0.712435
0.991314 -0.160058 0.712509
0.991413 -0.162549 0.712395
0.991368 -0.165 0.712325
0.991467 -0.167492 0.712211
0.991758 -0.17004 0.712039
0.991713 -0.172492 0.711969
0.992149 -0.175084 0.711754
0.99196 -0.177494 0.711726
0.992203 -0.180031 0.711569
0.992158 -0.182484 0.711498
0.989327 -0.1841 0.712267
0.989282 -0.186548 0.712197
0.986835 -0.188265 0.71285
0.984916 -0.190136 0.713345
0.984872 -0.192575 0.713274
0.982906 -0.194421 0.713783
1.04902 0.407677 0.71246
1.05314 0.405693 0.711187
1.05309 0.403148 0.711114
1.0557 0.400947 0.710273
1.0574 0.39862 0.709697
1.05735 0.396066 0.709623
1.05866 0.393681 0.709159
1.06002 0.391297 0.70868
1.05823 0.388528 0.70911
1.05837 0.385996 0.70898
1.0578 0.383378 0.70906
1.05751 0.380796 0.709057
1.05799 0.378302 0.708829
1.05761 0.375709 0.708854
1.05741 0.373138 0.708822
1.058 0.370652 0.708567
1.05761 0.368061 0.708591
1.05771 0.365521 0.708476
1.05694 0.362892 0.708612
1.05626 0.360274 0.70872
1.05621 0.357722 0.708647
1.05481 0.355038 0.708966
1.05428 0.352442 0.709032
1.05424 0.349892 0.708959
1.05404 0.34733 0.708928
1.054 0.344781 0.708854
1.05351 0.342193 0.708907
1.05318 0.33962 0.708918
1.05352 0.337105 0.708732
1.05255 0.334481 0.708925
1.05197 0.331891 0.709006
1.05193 0.329345 0.708933
1.05188 0.326799 0.70886
1.05198 0.324264 0.708744
1.05193 0.321718 0.708671
1.0514 0.319138 0.708738
1.05155 0.316606 0.708609
1.05102 0.314028 0.708676
1.05078 0.31147 0.708659
1.05093 0.308938 0.70853
1.05054 0.306372 0.708555
1.05117 0.30387 0.708285
1.05059 0.301293 0.708366
1.04996 0.298715 0.708462
1.05045 0.296202 0.708234
1.05026 0.29365 0.708203
1.04987 0.291088 0.708228
1.05016 0.288562 0.708056
1.0493 0.285978 0.708222
1.04954 0.283449 0.708065
1.0492 0.280893 0.708076
1.04916 0.278351 0.708003
1.05046 0.275864 0.707535
1.04993 0.2733 0.707603
1.04974 0.27075 0.707572
1.04984 0.268212 0.707456
1.04979 0.265668 0.707383
1.04975 0.263124 0.70731
1.04951 0.260574 0.707293
1.04854 0.258004 0.707488
1.04849 0.255462 0.707415
1.04797 0.252908 0.707482
1.04763 0.250361 0.707494
1.04773 0.247823 0.707379
1.04754 0.245279 0.707348
1.04749 0.242739 0.707275
1.04517 0.240163 0.707865
1.04513 0.237626 0.707792
1.04566 0.235097 0.70755
1.04561 0.232559 0.707477
1.04576 0.230023 0.707347
1.04673 0.227492 0.706977
1.04668 0.224952 0.706904
1.04683 0.222413 0.706775
1.04639 0.219872 0.706814
1.04668 0.217333 0.706642
1.04683 0.214792 0.706513
1.0464 0.212254 0.706553
1.04621 0.209715 0.706522
1.04616 0.207175 0.706449
1.04592 0.204638 0.706433
1.04616 0.202096 0.706275
1.04563 0.199563 0.706343
1.04414 0.197046 0.706695
1.04409 0.19451 0.706622
1.04356 0.191983 0.70669
1.0425 0.189469 0.706915
1.04246 0.186936 0.706842
1.04178 0.184418 0.706953
1.04174 0.181885 0.70688
1.04068 0.179382 0.707105
1.0401 0.176867 0.707188
1.04005 0.174338 0.707116
1.03909 0.171839 0.707312
1.03842 0.169334 0.707424
1.03837 0.166807 0.707351
1.03818 0.164286 0.707321
1.03842 0.161748 0.707163
1.03818 0.159229 0.707147
1.03814 0.156703 0.707075
1.03809 0.154176 0.707002
1.03775 0.151664 0.707015
1.03732 0.149157 0.707055
1.03728 0.146632 0.706983
1.03723 0.144106 0.70691
1.03771 0.141552 0.706681
1.03714 0.139056 0.706765
1.03777 0.136491 0.706493
1.0382 0.133935 0.706278
1.03787 0.131426 0.706291
1.03782 0.128899 0.706218
1.03729 0.126404 0.706288
1.03667 0.123917 0.706386
1.03662 0.121392 0.706313
1.03624 0.118892 0.70634
1.03532 0.116431 0.706524
1.03528 0.113908 0.706451
1.03475 0.111423 0.706521
1.03456 0.108912 0.706491
1.03417 0.106418 0.706518
1.0322 0.104057 0.707016
1.03215 0.101539 0.706943
1.03085 0.0991299 0.707241
1.02965 0.0967166 0.707511
1.0296 0.0942035 0.707439
1.02826 0.0918099 0.707752
1.02821 0.0892992 0.70768
1.02754 0.0868483 0.707793
1.02614 0.0844699 0.70812
1.0261 0.0819627 0.708048
1.02523 0.0795383 0.708219
1.02384 0.0771712 0.708546
1.02379 0.0746681 0.708474
1.02211 0.0723392 0.708888
1.02206 0.0698389 0.708816
1.02129 0.0674182 0.708958
1.02067 0.064984 0.709058
1.02062 0.0624861 0.708986
1.01976 0.0600829 0.709157
1.01952 0.0576091 0.709143
1.01967 0.0550902 0.709014
1.01851 0.0527279 0.709271
1.01847 0.0502335 0.709199
1.01828 0.0477572 0.70917
1.01775 0.045324 0.709241
1.0177 0.0428308 0.70917
1.01718 0.0404003 0.709241
1.01708 0.0379143 0.709184
1.01761 0.0353448 0.70894
1.01742 0.0328711 0.708911
1.01752 0.0303582 0.708797
1.0168 0.0279588 0.708925
1.01685 0.0254532 0.708825
1.01748 0.0228646 0.708553
1.01695 0.0204408 0.708624
1.01657 0.0179976 0.708653
1.01667 0.0154842 0.708538
1.01605 0.0130788 0.708639
1.016 0.0105876 0.708567
1.01533 0.00819264 0.708682
1.0148 0.00577754 0.708754
1.0149 0.00326563 0.708639
1.01389 0.000929558 0.708854
1.01308 -0.00143402 0.709013
1.01284 -0.0038889 0.708999
1.01135 -0.00613693 0.709358
1.0113 -0.00862022 0.709287
1.00957 -0.0108198 0.709718
1.00818 -0.0130705 0.710049
1.00814 -0.0155483 0.709978
1.00674 -0.0177917 0.710309
1.00636 -0.0202079 0.710338
1.00564 -0.0225629 0.710469
1.00449 -0.0248379 0.710728
1.00444 -0.0273093 0.710657
1.00296 -0.0295166 0.711018
1.00152 -0.0317274 0.711364
1.00147 -0.0341937 0.711293
1.00032 -0.0364514 0.711553
1.00042 -0.0389431 0.711439
0.999554 -0.0412504 0.711613
0.998499 -0.0435175 0.711845
0.998454 -0.0459787 0.711774
0.997158 -0.0481926 0.712078
0.995766 -0.0503829 0.71241
0.995721 -0.0528393 0.71234
0.994378 -0.0550319 0.712658
0.994333 -0.057486 0.712588
0.993422 -0.0597611 0.712777
0.992031 -0.0619326 0.71311
0.99213 -0.064413 0.712996
0.991508 -0.0667409 0.713099
0.99103 -0.0690974 0.713158
0.991178 -0.0715874 0.71303
0.990604 -0.0739211 0.713118
0.990559 -0.076369 0.713048
0.990369 -0.0787849 0.713021
0.990324 -0.0812325 0.712951
0.990424 -0.0837125 0.712837
0.990186 -0.0861168 0.712824
0.990334 -0.0886083 0.712696
0.99101 -0.0912225 0.712408
0.990965 -0.0936717 0.712338
0.991929 -0.0963574 0.711964
0.99174 -0.0987744 0.711937
0.991839 -0.101259 0.711823
0.992563 -0.103895 0.711521
0.991845 -0.106185 0.711653
0.9918 -0.108636 0.711582
0.992236 -0.111205 0.711367
0.991902 -0.113586 0.711383
0.992482 -0.116193 0.711124
0.992101 -0.118561 0.711155
0.992248 -0.121062 0.711027
0.992923 -0.123698 0.710739
0.992878 -0.126151 0.710668
0.992545 -0.128531 0.710684
0.992836 -0.131071 0.710512
0.992599 -0.133475 0.7105
0.992698 -0.135966 0.710386
0.992509 -0.138382 0.710358
0.99208 -0.140733 0.710404
0.992035 -0.143186 0.710333
0.991461 -0.145495 0.710422
0.991368 -0.147934 0.710366
0.991323 -0.150385 0.710296
0.990654 -0.152665 0.710414
0.990609 -0.155115 0.710343
0.990228 -0.157472 0.710375
0.989558 -0.159746 0.710493
0.989705 -0.162249 0.710364
0.989516 -0.164657 0.710337
0.989615 -0.167147 0.710223
0.989426 -0.169555 0.710197
0.989669 -0.172088 0.710039
0.990057 -0.174664 0.709837
0.990012 -0.177114 0.709767
0.990111 -0.179607 0.709653
0.990066 -0.182057 0.709582
0.987908 -0.183873 0.710152
0.987863 -0.18632 0.710082
0.98561 -0.188095 0.710681
0.983693 -0.189965 0.711178
0.983649 -0.192405 0.711108
0.981684 -0.19425 0.711621
1.04839 0.407808 0.710017
1.05279 0.405863 0.708653
1.05274 0.403316 0.70858
1.0555 0.401133 0.707693
1.05671 0.398743 0.707254
1.05652 0.39617 0.707223
1.05787 0.393791 0.706742
1.05923 0.391407 0.706261
1.05754 0.388649 0.706665
1.05768 0.386117 0.706535
1.05715 0.383504 0.706602
1.05706 0.380943 0.706543
1.05735 0.378426 0.706371
1.05697 0.375833 0.706396
1.05672 0.373256 0.706378
1.05716 0.370754 0.706164
1.05682 0.368167 0.706175
1.05692 0.365627 0.706059
1.05596 0.362977 0.706253
1.05596 0.360429 0.706166
1.05591 0.357875 0.706092
1.05461 0.355199 0.706385
1.05403 0.352596 0.706466
1.05398 0.350046 0.706393
1.05355 0.34746 0.706432
1.05365 0.344923 0.706317
1.05331 0.342347 0.706328
1.05312 0.339785 0.706297
1.05346 0.337268 0.706111
1.05206 0.334606 0.706432
1.05163 0.332027 0.706472
1.05172 0.329492 0.706356
1.05134 0.326919 0.706381
1.05144 0.324383 0.706266
1.05139 0.321836 0.706192
1.05101 0.319265 0.706218
1.0513 0.316742 0.706046
1.05077 0.314163 0.706114
1.05009 0.311575 0.706224
1.05063 0.309068 0.705981
1.05024 0.3065 0.706007
1.05048 0.303973 0.705849
1.04995 0.301398 0.705917
1.04967 0.29884 0.705914
1.05049 0.296343 0.705587
1.0501 0.293779 0.705612
1.04972 0.291216 0.705638
1.05011 0.288693 0.705438
1.04958 0.286124 0.705506
1.04972 0.283588 0.705376
1.04948 0.281035 0.705359
1.04944 0.27849 0.705286
1.05045 0.275989 0.704901
1.04992 0.273423 0.70497
1.04954 0.270865 0.704996
1.04949 0.26832 0.704922
1.04925 0.265768 0.704906
1.0492 0.263223 0.704833
1.04868 0.260664 0.704901
1.04834 0.258112 0.704913
1.04829 0.255568 0.70484
1.04728 0.253001 0.70505
1.0468 0.250449 0.705105
1.0469 0.247911 0.704989
1.04671 0.245368 0.704959
1.04666 0.242827 0.704885
1.04478 0.240257 0.705352
1.04493 0.237722 0.705222
1.04507 0.235187 0.705092
1.04503 0.232648 0.705019
1.04561 0.230115 0.704761
1.04609 0.227579 0.704532
1.04604 0.225039 0.704459
1.046 0.222499 0.704386
1.04595 0.219958 0.704313
1.0459 0.217418 0.704239
1.04605 0.214877 0.704109
1.04562 0.212338 0.70415
1.04572 0.209797 0.704034
1.04567 0.207257 0.703961
1.04528 0.20472 0.703988
1.04538 0.202179 0.703872
1.04485 0.199645 0.703941
1.04317 0.197131 0.704352
1.04312 0.194595 0.704279
1.04259 0.192068 0.704349
1.04192 0.189546 0.704461
1.04187 0.187012 0.704388
1.04096 0.184499 0.704572
1.04091 0.181967 0.704499
1.0399 0.179461 0.704711
1.03932 0.176947 0.704795
1.03928 0.174417 0.704722
1.03812 0.171924 0.704978
1.03788 0.169403 0.704962
1.03798 0.166871 0.704846
1.03765 0.164354 0.704859
1.03794 0.161813 0.704687
1.03789 0.159286 0.704614
1.03799 0.156751 0.704498
1.03794 0.154223 0.704426
1.0379 0.151695 0.704353
1.03785 0.149167 0.70428
1.038 0.146629 0.70415
1.03795 0.144101 0.704077
1.03834 0.141549 0.703876
1.0379 0.139042 0.703918
1.038 0.136505 0.703802
1.03849 0.133944 0.703572
1.03829 0.131423 0.703542
1.03844 0.128881 0.703412
1.03796 0.12638 0.703468
1.03729 0.123894 0.703581
1.03724 0.121366 0.703508
1.03686 0.118862 0.703536
1.03647 0.11636 0.703563
1.03643 0.113833 0.703491
1.0358 0.111351 0.70359
1.03561 0.108837 0.70356
1.03417 0.106425 0.703903
1.03292 0.104002 0.704189
1.03287 0.101481 0.704116
1.03172 0.0990564 0.704374
1.02984 0.0966992 0.704846
1.0298 0.094184 0.704774
1.02821 0.0918103 0.70516
1.02816 0.0892979 0.705088
1.02701 0.0868913 0.705346
1.02595 0.0844792 0.705575
1.02591 0.0819707 0.705503
1.02519 0.0795302 0.705631
1.02394 0.0771466 0.705918
1.02389 0.0746415 0.705846
1.02274 0.0722542 0.706105
1.02269 0.069751 0.706033
1.0213 0.0673963 0.706363
1.02096 0.0649279 0.706377
1.02106 0.0624114 0.706262
1.02024 0.06 0.70642
1.01928 0.0576083 0.706621
1.01943 0.0550881 0.706492
1.01919 0.0526137 0.706478
1.01915 0.0501164 0.706406
1.01867 0.0476731 0.706463
1.01814 0.0452374 0.706536
1.01838 0.0427047 0.706377
1.01819 0.0402273 0.706349
1.0181 0.0377378 0.706291
1.01825 0.0352162 0.706162
1.01786 0.0327657 0.706191
1.01782 0.0302701 0.706119
1.01734 0.0278349 0.706177
1.01777 0.0252722 0.705961
1.01821 0.0227078 0.705745
1.01754 0.0203018 0.705861
1.01768 0.0177782 0.705731
1.01778 0.015261 0.705616
1.01687 0.0128951 0.705804
1.01711 0.0103568 0.705645
1.01601 0.00802469 0.705891
1.0151 0.00566649 0.706079
1.01525 0.00314474 0.70595
1.01429 0.000798561 0.706152
1.01395 -0.00164504 0.706167
1.01391 -0.00413464 0.706096
1.01256 -0.00641019 0.706414
1.01252 -0.00889741 0.706343
1.01064 -0.0110767 0.70682
1.00887 -0.0132657 0.707269
1.00882 -0.0157465 0.707198
1.00777 -0.0180515 0.70743
1.00714 -0.020429 0.707532
1.00652 -0.0228044 0.707634
1.00503 -0.0250223 0.707997
1.00499 -0.0274964 0.707926
1.0035 -0.0297065 0.708289
1.00211 -0.0319291 0.708623
1.00221 -0.0344251 0.708508
1.00091 -0.0366586 0.708814
1.00072 -0.0390983 0.708786
0.999668 -0.041371 0.709019
0.998613 -0.04364 0.709253
0.998568 -0.0461031 0.709182
0.997321 -0.0483286 0.709473
0.995978 -0.0505305 0.709794
0.995933 -0.0529891 0.709723
0.99411 -0.0550862 0.710189
0.994065 -0.0575415 0.710118
0.992915 -0.0597681 0.710381
0.991812 -0.0620007 0.710629
0.991911 -0.0644825 0.710515
0.991001 -0.0667504 0.710706
0.99038 -0.0690769 0.71081
0.990527 -0.0715674 0.710681
0.990002 -0.073912 0.710756
0.989957 -0.0763606 0.710685
0.989912 -0.0788091 0.710615
0.990107 -0.0813112 0.710472
0.990206 -0.0837926 0.710358
0.989969 -0.0861982 0.710345
0.99026 -0.088724 0.710173
0.990792 -0.0913064 0.709928
0.990747 -0.0937569 0.709858
0.991278 -0.0963426 0.709613
0.991089 -0.0987601 0.709586
0.99138 -0.101291 0.709413
0.991959 -0.103893 0.709154
0.991386 -0.106218 0.709243
0.991725 -0.108764 0.709056
0.992641 -0.111453 0.708694
0.992163 -0.1138 0.708755
0.99231 -0.116302 0.708626
0.992265 -0.118756 0.708555
0.99222 -0.12121 0.708485
0.992511 -0.12375 0.708312
0.992466 -0.126204 0.708241
0.992709 -0.128733 0.708083
0.992808 -0.131226 0.707969
0.992427 -0.133594 0.708
0.992526 -0.136087 0.707886
0.992481 -0.138542 0.707815
0.992148 -0.14092 0.707832
0.992103 -0.143374 0.707761
0.990954 -0.14553 0.708026
0.990573 -0.147891 0.708058
0.990527 -0.150343 0.707987
0.989858 -0.152622 0.708107
0.989813 -0.155073 0.708036
0.989289 -0.157389 0.708112
0.98862 -0.159663 0.708231
0.988767 -0.162167 0.708102
0.988578 -0.164575 0.708076
0.988677 -0.167065 0.707961
0.988488 -0.169472 0.707935
0.988875 -0.172047 0.707732
0.989118 -0.174581 0.707574
0.989073 -0.177032 0.707504
0.989315 -0.179567 0.707345
0.98927 -0.182018 0.707275
0.987115 -0.183834 0.707848
0.98707 -0.186281 0.707778
0.984962 -0.188101 0.708337
0.982759 -0.189883 0.708925
0.982714 -0.192323 0.708855
0.980894 -0.194212 0.709327
1.04741 0.407893 0.707673
1.05181 0.405948 0.706301
1.05177 0.403402 0.706228
1.05452 0.401219 0.705336
1.05559 0.39881 0.704937
1.05554 0.396256 0.704864
1.05689 0.393877 0.704381
1.05805 0.391469 0.703954
1.05622 0.388694 0.704403
1.05637 0.386162 0.704273
1.05584 0.38355 0.704341
1.05579 0.380995 0.704267
1.05594 0.378463 0.704137
1.0557 0.375886 0.70412
1.0556 0.373326 0.704061
1.0557 0.370787 0.703945
1.05536 0.368202 0.703956
1.05546 0.365662 0.70384
1.05416 0.362979 0.704135
1.05397 0.360412 0.704104
1.05421 0.357889 0.703946
1.05363 0.355284 0.704028
1.05291 0.352668 0.704153
1.05286 0.350118 0.704079
1.05228 0.347519 0.704162
1.05238 0.344982 0.704046
1.05204 0.342407 0.704058
1.05123 0.339791 0.704211
1.05156 0.337276 0.704025
1.0505 0.334644 0.704249
1.05031 0.332086 0.704218
1.05041 0.329551 0.704102
1.05003 0.326978 0.704128
1.05012 0.324443 0.704013
1.04988 0.321883 0.703996
1.04955 0.319316 0.704008
1.04984 0.316794 0.703835
1.04921 0.314209 0.703933
1.04878 0.311638 0.703973
1.04912 0.309119 0.703786
1.04893 0.306565 0.703756
1.04936 0.30405 0.70354
1.04864 0.301464 0.703666
1.04869 0.298925 0.703564
1.04951 0.296429 0.703235
1.04913 0.293865 0.703261
1.04874 0.291302 0.703288
1.04913 0.288779 0.703086
1.0486 0.28621 0.703155
1.04875 0.283674 0.703025
1.04851 0.28112 0.703009
1.04846 0.278576 0.702936
1.04928 0.276066 0.702606
1.04895 0.273509 0.702618
1.04856 0.27095 0.702645
1.04852 0.268405 0.702572
1.04813 0.265849 0.702598
1.04808 0.263304 0.702525
1.04756 0.260745 0.702594
1.04736 0.258197 0.702564
1.04732 0.255654 0.70249
1.04631 0.253086 0.702703
1.04583 0.250535 0.702758
1.04592 0.247997 0.702642
1.04559 0.24545 0.702654
1.04554 0.24291 0.702581
1.04381 0.240343 0.703008
1.04395 0.237808 0.702878
1.0441 0.235272 0.702748
1.04391 0.232732 0.702717
1.04463 0.230201 0.702416
1.04512 0.227665 0.702185
1.04507 0.225125 0.702112
1.04502 0.222584 0.702039
1.04498 0.220044 0.701966
1.04493 0.217503 0.701893
1.04508 0.214963 0.701763
1.0445 0.212424 0.701847
1.0446 0.209884 0.701731
1.04455 0.207344 0.701658
1.04431 0.204805 0.701642
1.04426 0.202266 0.701569
1.04349 0.199736 0.701711
1.04205 0.197219 0.702053
1.042 0.194683 0.70198
1.04114 0.192163 0.70215
1.04047 0.189641 0.702264
1.04042 0.187108 0.702191
1.03984 0.184588 0.702276
1.0398 0.182056 0.702203
1.03855 0.179557 0.702488
1.03782 0.177047 0.702616
1.03778 0.174519 0.702543
1.03662 0.172027 0.702801
1.03658 0.1695 0.702728
1.03687 0.166961 0.702555
1.03653 0.164445 0.702568
1.03668 0.16191 0.702438
1.03663 0.159383 0.702365
1.03668 0.156851 0.702264
1.03664 0.154324 0.702191
1.03659 0.151797 0.702118
1.03654 0.149269 0.702046
1.03688 0.146722 0.701858
1.03684 0.144194 0.701785
1.03737 0.141634 0.70154
1.03693 0.139127 0.701582
1.03684 0.136601 0.701524
1.03752 0.134029 0.701235
1.03733 0.131508 0.701206
1.03747 0.128966 0.701075
1.03699 0.126465 0.701132
1.03632 0.123979 0.701246
1.03627 0.121451 0.701174
1.03589 0.118947 0.701202
1.03551 0.116445 0.70123
1.03546 0.113918 0.701157
1.03484 0.111436 0.701257
1.03464 0.108922 0.701228
1.0332 0.10651 0.701573
1.03195 0.104087 0.701861
1.03191 0.101566 0.701788
1.03075 0.0991411 0.702047
1.02888 0.0967838 0.702523
1.02883 0.0942686 0.70245
1.02725 0.0918948 0.70284
1.0272 0.0893824 0.702767
1.02605 0.0869757 0.703027
1.02499 0.0845636 0.703258
1.02494 0.082055 0.703186
1.02423 0.0796145 0.703316
1.02283 0.0772456 0.703648
1.02279 0.0747408 0.703576
1.02178 0.0723383 0.703793
1.02173 0.0698352 0.703721
1.02019 0.0674962 0.704096
1.01952 0.0650658 0.704212
1.01977 0.0625338 0.704054
1.01895 0.0601229 0.704213
1.01833 0.0576923 0.704315
1.01847 0.0551721 0.704185
1.01809 0.0527151 0.704214
1.01805 0.0502181 0.704143
1.01757 0.047775 0.704201
1.01718 0.0453213 0.70423
1.01728 0.0428072 0.704115
1.01709 0.04033 0.704087
1.01714 0.0378217 0.703986
1.01715 0.0353194 0.7039
1.01676 0.0328692 0.703929
1.01686 0.030354 0.703814
1.01638 0.0279188 0.703873
1.01667 0.0253765 0.703699
1.01725 0.0227917 0.703439
1.01658 0.0203857 0.703556
1.01673 0.0178621 0.703426
1.01683 0.015345 0.703311
1.01577 0.0130006 0.703543
1.01601 0.0104626 0.703385
1.01505 0.00810851 0.703588
1.01414 0.00575026 0.703778
1.01429 0.00322852 0.703648
1.01333 0.000882285 0.703852
1.013 -0.00156134 0.703868
1.01295 -0.00405093 0.703796
1.01161 -0.00632656 0.704117
1.01156 -0.00881378 0.704045
1.00969 -0.0109932 0.704526
1.00792 -0.0131823 0.704978
1.00787 -0.0156631 0.704906
1.00682 -0.0179682 0.70514
1.00619 -0.0203457 0.705243
1.00557 -0.0227211 0.705346
1.00408 -0.0249391 0.705712
1.00404 -0.0274132 0.70564
1.00255 -0.0296234 0.706006
1.00116 -0.031846 0.706342
1.00126 -0.0343421 0.706227
0.999966 -0.0365757 0.706535
0.999777 -0.0390154 0.706508
0.998723 -0.0412881 0.706743
0.997669 -0.0435572 0.706978
0.997624 -0.0460203 0.706907
0.996378 -0.0482459 0.7072
0.995036 -0.0504478 0.707523
0.994991 -0.0529064 0.707452
0.993169 -0.0550036 0.707921
0.993124 -0.057459 0.70785
0.991542 -0.0595962 0.708246
0.990873 -0.0619183 0.708365
0.990828 -0.0643697 0.708295
0.989774 -0.0666068 0.708531
0.989153 -0.0689328 0.708635
0.989444 -0.0714539 0.708463
0.988919 -0.0737983 0.708538
0.989018 -0.0762783 0.708424
0.988781 -0.0786841 0.708412
0.988976 -0.081186 0.708268
0.989075 -0.083667 0.708154
0.98903 -0.0861158 0.708084
0.98913 -0.0885976 0.707969
0.989853 -0.091224 0.707665
0.989808 -0.0936745 0.707594
0.990339 -0.0962601 0.707348
0.99015 -0.0986776 0.707322
0.990441 -0.101209 0.707149
0.990875 -0.103776 0.706932
0.990302 -0.106101 0.707022
0.990641 -0.108646 0.706834
0.991556 -0.111335 0.706471
0.991079 -0.113682 0.706532
0.991226 -0.116183 0.706403
0.991181 -0.118637 0.706332
0.991136 -0.121091 0.706262
0.991426 -0.123631 0.706089
0.991381 -0.126085 0.706018
0.991768 -0.128651 0.705815
0.991867 -0.131144 0.705701
0.991486 -0.133511 0.705733
0.991441 -0.135966 0.705662
0.991396 -0.138421 0.705592
0.991063 -0.140799 0.705609
0.991018 -0.143253 0.705538
0.98987 -0.145408 0.705805
0.989633 -0.147808 0.705793
0.989588 -0.15026 0.705723
0.988919 -0.15254 0.705843
0.988874 -0.154991 0.705772
0.988206 -0.157267 0.705893
0.987393 -0.1595 0.706057
0.98754 -0.162003 0.705928
0.987495 -0.164451 0.705858
0.987546 -0.166927 0.705758
0.987357 -0.169335 0.705731
0.987744 -0.171909 0.705529
0.988035 -0.174457 0.705355
0.987846 -0.176864 0.705329
0.988232 -0.179442 0.705126
0.988187 -0.181893 0.705055
0.985889 -0.183666 0.705676
0.9857 -0.186069 0.70565
0.983882 -0.187975 0.706124
0.98168 -0.189757 0.706717
0.981635 -0.192196 0.706646
1.04775 0.408155 0.704945
1.05137 0.406105 0.703793
1.05113 0.403532 0.703776
1.05383 0.401343 0.702894
1.05509 0.398958 0.702437
1.05504 0.396403 0.702363
1.05591 0.393963 0.70202
1.05703 0.391549 0.701605
1.05524 0.38878 0.702043
1.05519 0.386225 0.70197
1.05471 0.383619 0.702024
1.05467 0.381065 0.701951
1.05515 0.378571 0.701721
1.05491 0.375994 0.701704
1.05453 0.373401 0.70173
1.05462 0.370863 0.701614
1.05395 0.368241 0.701725
1.05409 0.365708 0.701595
1.05352 0.3631 0.701678
1.05279 0.360478 0.701804
1.05289 0.357941 0.701688
1.05236 0.355342 0.701757
1.05179 0.35274 0.70184
1.05174 0.35019 0.701767
1.05092 0.347569 0.701921
1.05121 0.345051 0.701748
1.05083 0.342472 0.701775
1.0502 0.339873 0.701872
1.05015 0.337325 0.701799
1.04962 0.334738 0.701868
1.04963 0.332195 0.701781
1.04958 0.329648 0.701708
1.04924 0.327079 0.70172
1.04953 0.324558 0.701547
1.04934 0.322 0.701516
1.04881 0.319419 0.701586
1.0491 0.316897 0.701412
1.04857 0.314317 0.701482
1.04872 0.311785 0.701352
1.04882 0.309248 0.701235
1.04843 0.306681 0.701262
1.04921 0.304185 0.700946
1.04849 0.301598 0.701073
1.04863 0.299063 0.700942
1.0495 0.296568 0.700597
1.04888 0.293989 0.700696
1.0484 0.29142 0.700751
1.04869 0.288891 0.700578
1.04849 0.286337 0.700547
1.04845 0.283791 0.700474
1.0484 0.281245 0.700401
1.04835 0.278698 0.700327
1.0498 0.276214 0.69981
1.04908 0.273638 0.699937
1.04807 0.271054 0.700151
1.04802 0.268508 0.700077
1.0473 0.265939 0.700205
1.04745 0.2634 0.700074
1.04692 0.260841 0.700144
1.04653 0.258287 0.700171
1.04649 0.255743 0.700098
1.04553 0.253177 0.700298
1.04514 0.250627 0.700325
1.04529 0.24809 0.700194
1.0449 0.245541 0.700222
1.04486 0.243 0.700148
1.04332 0.240435 0.700521
1.04317 0.237896 0.700476
1.04313 0.235357 0.700403
1.04308 0.232819 0.70033
1.04371 0.230287 0.700056
1.04414 0.22775 0.699839
1.04395 0.225209 0.699809
1.04391 0.222669 0.699736
1.04386 0.220129 0.699663
1.04367 0.217589 0.699633
1.04391 0.215048 0.699473
1.04367 0.212509 0.699458
1.04324 0.209971 0.6995
1.04338 0.20743 0.699369
1.04315 0.204893 0.699354
1.0431 0.202353 0.699281
1.04252 0.199821 0.699366
1.04098 0.197306 0.699739
1.04094 0.19477 0.699666
1.04026 0.192246 0.699781
1.03901 0.189737 0.700068
1.03897 0.187204 0.699995
1.03815 0.184691 0.700153
1.03825 0.182156 0.700037
1.03705 0.179657 0.70031
1.037 0.177128 0.700237
1.03695 0.174599 0.700164
1.03618 0.172094 0.700308
1.03561 0.169585 0.700394
1.03575 0.167051 0.700264
1.03571 0.164524 0.700191
1.03614 0.161977 0.699974
1.0359 0.159458 0.699959
1.03605 0.156921 0.699828
1.036 0.154393 0.699756
1.03576 0.151875 0.699741
1.03625 0.149321 0.699509
1.03659 0.146772 0.69932
1.03668 0.144235 0.699204
1.0375 0.141658 0.698871
1.03746 0.139126 0.698798
1.03707 0.136615 0.698827
1.0377 0.134044 0.698551
1.03765 0.131512 0.698479
1.03732 0.128999 0.698493
1.03747 0.126455 0.698362
1.03641 0.123992 0.698593
1.03636 0.121462 0.69852
1.03588 0.118963 0.698578
1.03531 0.116473 0.698664
1.03526 0.113945 0.698591
1.03444 0.111477 0.69875
1.03454 0.108939 0.698634
1.03358 0.106486 0.698837
1.03233 0.10406 0.699127
1.03229 0.101537 0.699054
1.03094 0.0991261 0.699373
1.02955 0.0967242 0.699706
1.0295 0.094206 0.699634
1.02835 0.0917894 0.699895
1.0283 0.0892732 0.699823
1.02691 0.0868856 0.700157
1.02562 0.0844935 0.700462
1.02557 0.0819821 0.700389
1.02394 0.0796308 0.700796
1.02274 0.0772409 0.701073
1.02269 0.0747345 0.701001
1.02192 0.0723048 0.701146
1.02188 0.0697997 0.701074
1.02068 0.0674215 0.701351
1.01885 0.0651176 0.701817
1.01895 0.0626014 0.701701
1.01876 0.060118 0.701673
1.01891 0.0575957 0.701543
1.01886 0.0550956 0.701471
1.01781 0.0527176 0.701704
1.0181 0.050178 0.701531
1.01752 0.047745 0.701619
1.01781 0.0452046 0.701445
1.01806 0.042669 0.701286
1.01734 0.0402575 0.701418
1.01724 0.037766 0.70136
1.0172 0.0352683 0.701288
1.01701 0.0327901 0.70126
1.01715 0.0302661 0.70113
1.01668 0.0278285 0.701189
1.01697 0.025284 0.701016
1.0174 0.0227176 0.700798
1.01692 0.0202817 0.700857
1.01659 0.0178263 0.700873
1.01683 0.0152862 0.700713
1.01616 0.0128824 0.700831
1.0164 0.0103419 0.700672
1.01568 0.00794826 0.700804
1.01458 0.00561698 0.701053
1.01492 0.00306244 0.700865
1.01363 0.000766851 0.701173
1.01296 -0.00162482 0.701291
1.0132 -0.00416308 0.701131
1.01229 -0.00651228 0.701323
1.01224 -0.00900248 0.701251
1.01023 -0.0111607 0.701779
1.00884 -0.0134182 0.702116
1.00879 -0.0159023 0.702045
1.0075 -0.0181692 0.702353
1.00688 -0.0205496 0.702457
1.00645 -0.0229622 0.702503
1.00472 -0.0251405 0.702944
1.00468 -0.0276175 0.702872
1.00377 -0.0299363 0.703065
1.00204 -0.0321007 0.703506
1.00199 -0.0345731 0.703434
1.00051 -0.0367737 0.703802
1.00032 -0.039216 0.703775
0.99893 -0.0414269 0.704114
0.997637 -0.0436515 0.704424
0.997592 -0.0461163 0.704353
0.996299 -0.0483341 0.704663
0.994958 -0.0505378 0.704988
0.994912 -0.0529979 0.704917
0.993236 -0.0551261 0.705345
0.99319 -0.0575833 0.705274
0.991514 -0.0597025 0.705702
0.990749 -0.0620063 0.705852
0.990704 -0.0644592 0.705781
0.989987 -0.0667692 0.705916
0.989558 -0.0691386 0.705963
0.989513 -0.0715895 0.705892
0.988557 -0.0738416 0.706101
0.988512 -0.0762909 0.70603
0.987939 -0.0786232 0.706121
0.988038 -0.0811036 0.706007
0.988569 -0.083682 0.70576
0.988524 -0.0861316 0.705689
0.988766 -0.0886472 0.705531
0.989345 -0.0912413 0.705269
0.9893 -0.0936926 0.705199
0.990022 -0.096324 0.704893
0.98969 -0.0987086 0.70491
0.990268 -0.101309 0.704649
0.990799 -0.103901 0.704401
0.990753 -0.106355 0.704331
0.99138 -0.108973 0.704054
0.991526 -0.111476 0.703925
0.99081 -0.113766 0.70406
0.991053 -0.116292 0.703901
0.991007 -0.118747 0.70383
0.990962 -0.121203 0.70376
0.991541 -0.123817 0.703497
0.991495 -0.126273 0.703427
0.991978 -0.128866 0.703194
0.992364 -0.131435 0.702991
0.992031 -0.133818 0.703008
0.992274 -0.136352 0.702849
0.991557 -0.138631 0.702985
0.99132 -0.141037 0.702973
0.991275 -0.143494 0.702902
0.990511 -0.145755 0.703053
0.989699 -0.148001 0.703219
0.989798 -0.150494 0.703104
0.988459 -0.15259 0.703432
0.988558 -0.155082 0.703317
0.987698 -0.157305 0.703497
0.986934 -0.159553 0.703648
0.987081 -0.162056 0.703519
0.986844 -0.164451 0.703507
0.986704 -0.166873 0.703466
0.986659 -0.169322 0.703396
0.986614 -0.171771 0.703325
0.987239 -0.174417 0.703048
0.987051 -0.176824 0.703022
0.987101 -0.179303 0.702922
0.987056 -0.181753 0.702851
0.985239 -0.18367 0.703328
0.98505 -0.186073 0.703302
0.983137 -0.187951 0.703809
0.981464 -0.189895 0.704242
0.981419 -0.192336 0.704172
1.0474 0.408326 0.702412
1.05078 0.406242 0.701326
1.05073 0.403694 0.701252
1.05305 0.401454 0.700479
1.05445 0.399087 0.699977
1.0544 0.396532 0.699904
1.05547 0.394115 0.699501
1.05619 0.391653 0.699199
1.05513 0.388971 0.699426
1.05528 0.386438 0.699295
1.05412 0.38375 0.69955
1.05422 0.381212 0.699434
1.05499 0.37875 0.699117
1.05461 0.376155 0.699144
1.05422 0.373562 0.69917
1.05451 0.371043 0.698997
1.05384 0.36842 0.699109
1.05379 0.365865 0.699036
1.05288 0.36322 0.69922
1.05244 0.360628 0.699261
1.05269 0.358103 0.699101
1.05221 0.355508 0.699157
1.05115 0.352858 0.699384
1.0511 0.350308 0.699311
1.05105 0.347757 0.699237
1.05101 0.345206 0.699164
1.05043 0.342609 0.699248
1.05019 0.340042 0.699232
1.05014 0.337493 0.699159
1.04956 0.334899 0.699243
1.04971 0.332366 0.699113
1.04966 0.329818 0.699039
1.04928 0.327243 0.699066
1.04938 0.324706 0.69895
1.04904 0.322136 0.698963
1.04866 0.319563 0.69899
1.04895 0.31704 0.698816
1.04827 0.314449 0.69893
1.04808 0.311893 0.698899
1.04837 0.309368 0.698726
1.04833 0.306821 0.698652
1.04944 0.304345 0.698234
1.04891 0.301767 0.698304
1.0491 0.299232 0.698159
1.04939 0.296702 0.697985
1.04829 0.294096 0.698228
1.04886 0.291581 0.697968
1.04954 0.289069 0.697679
1.04819 0.286456 0.697994
1.04848 0.283924 0.69782
1.04844 0.281376 0.697746
1.04844 0.27883 0.697659
1.04969 0.276335 0.697196
1.04892 0.273756 0.697339
1.04772 0.271163 0.697612
1.04767 0.268616 0.697538
1.04714 0.266052 0.697609
1.0471 0.263506 0.697536
1.04628 0.260936 0.697693
1.0459 0.258382 0.697721
1.04585 0.255838 0.697648
1.04494 0.253272 0.697834
1.0445 0.25072 0.697876
1.0446 0.248181 0.69776
1.04393 0.245627 0.697874
1.04408 0.243089 0.697744
1.04249 0.240523 0.698132
1.04249 0.237985 0.698045
1.04264 0.235449 0.697914
1.04259 0.232909 0.697841
1.04307 0.230375 0.697609
1.04351 0.227838 0.697391
1.04332 0.225296 0.697362
1.04327 0.222756 0.697289
1.04303 0.220215 0.697273
1.04284 0.217674 0.697244
1.04294 0.215134 0.697127
1.0427 0.212594 0.697112
1.04227 0.210057 0.697154
1.04241 0.207516 0.697024
1.04217 0.204978 0.697008
1.04227 0.202437 0.696892
1.04155 0.199907 0.697021
1.0402 0.197388 0.697339
1.04016 0.194852 0.697266
1.03944 0.192329 0.697396
1.03819 0.189819 0.697686
1.03814 0.187286 0.697613
1.03718 0.184776 0.697815
1.03728 0.182241 0.697699
1.03622 0.179738 0.697931
1.03637 0.177203 0.6978
1.03632 0.174673 0.697727
1.0357 0.172163 0.697828
1.03551 0.16964 0.697799
1.03546 0.167111 0.697726
1.03541 0.164583 0.697654
1.03556 0.162047 0.697523
1.03551 0.159518 0.69745
1.036 0.156966 0.697217
1.03624 0.154423 0.697057
1.03605 0.1519 0.697028
1.03653 0.149343 0.696795
1.03682 0.146795 0.696621
1.03692 0.144256 0.696504
1.03726 0.141703 0.696315
1.03721 0.13917 0.696242
1.03798 0.13659 0.695922
1.03793 0.134056 0.695849
1.03755 0.131543 0.695878
1.03712 0.129034 0.695922
1.03707 0.126502 0.695849
1.03683 0.123982 0.695834
1.03679 0.12145 0.695761
1.03592 0.118976 0.695936
1.03463 0.116537 0.696242
1.03487 0.113987 0.696082
1.03453 0.11148 0.696096
1.03449 0.108952 0.696023
1.03382 0.106474 0.69614
1.03194 0.104097 0.696621
1.0319 0.101573 0.696549
1.0307 0.0991486 0.696826
1.02969 0.0967114 0.697045
1.02964 0.0941912 0.696973
1.02825 0.0917946 0.697309
1.02821 0.0892768 0.697236
1.02691 0.0868784 0.697543
1.02576 0.0844704 0.697806
1.02571 0.081957 0.697734
1.02394 0.0796182 0.698187
1.02264 0.0772363 0.698495
1.0226 0.0747283 0.698423
1.02188 0.0722919 0.698555
1.02183 0.0697851 0.698483
1.02054 0.0674158 0.698791
1.02006 0.0649597 0.69885
1.0203 0.0624232 0.69869
1.01958 0.0599967 0.698823
1.01881 0.0575782 0.69897
1.01896 0.0550536 0.69884
1.01848 0.0526039 0.698899
1.01877 0.0500613 0.698725
1.01844 0.0475954 0.698741
1.01844 0.045088 0.698654
1.01897 0.0425126 0.698407
1.01801 0.0401289 0.698613
1.01797 0.0376281 0.698541
1.01826 0.0350822 0.698366
1.01739 0.0326916 0.698543
1.01754 0.0301652 0.698413
1.01677 0.0277653 0.698561
1.01726 0.0251917 0.698327
1.01769 0.0226231 0.698109
1.01707 0.0202057 0.698213
1.01678 0.0177412 0.698214
1.01703 0.015199 0.698054
1.01655 0.0127642 0.698114
1.01679 0.0102213 0.697954
1.01598 0.00783996 0.698117
1.01535 0.00543152 0.698221
1.0155 0.00290411 0.698091
1.01425 0.000598005 0.698386
1.01378 -0.00182756 0.698446
1.01402 -0.00436904 0.698287
1.0132 -0.00673742 0.69845
1.01316 -0.00923104 0.698378
1.01119 -0.0114009 0.698894
1.00985 -0.0136701 0.699219
1.00981 -0.0161579 0.699148
1.00818 -0.0183698 0.699561
1.00756 -0.0207533 0.699666
1.00693 -0.0231347 0.699771
1.00559 -0.0253848 0.700097
1.00555 -0.0278652 0.700025
1.00368 -0.0300113 0.700513
1.00258 -0.032293 0.700766
1.00253 -0.0347681 0.700694
1.001 -0.0369624 0.70108
1.00081 -0.0394073 0.701053
0.999184 -0.0415748 0.701467
0.997939 -0.043811 0.701765
0.997894 -0.0462781 0.701694
0.996746 -0.0485267 0.701961
0.995357 -0.0507235 0.702303
0.995312 -0.053186 0.702232
0.993109 -0.0552094 0.702825
0.993064 -0.0576681 0.702754
0.991724 -0.0598585 0.703081
0.990912 -0.0621544 0.703247
0.991011 -0.0646396 0.703132
0.990103 -0.0669112 0.703327
0.989051 -0.0691487 0.703566
0.989005 -0.0716005 0.703496
0.988337 -0.0739162 0.703617
0.988292 -0.0763668 0.703546
0.988055 -0.0787748 0.703535
0.98849 -0.0813323 0.703317
0.989068 -0.083924 0.703054
0.988879 -0.0863435 0.703028
0.989457 -0.0889384 0.702765
0.989412 -0.0913915 0.702694
0.989367 -0.0938447 0.702624
0.990377 -0.0965453 0.702228
0.990332 -0.0990003 0.702157
0.99043 -0.10149 0.702042
0.990816 -0.104049 0.701839
0.990771 -0.106505 0.701768
0.991109 -0.109054 0.701579
0.991735 -0.111676 0.701301
0.991354 -0.114051 0.701334
0.991453 -0.116544 0.701219
0.991121 -0.11893 0.701237
0.991363 -0.12146 0.701077
0.992084 -0.124113 0.700769
0.992039 -0.126572 0.700699
0.992425 -0.129142 0.700495
0.992715 -0.13169 0.70032
0.992479 -0.1341 0.700308
0.992769 -0.136649 0.700134
0.99258 -0.139071 0.700108
0.99172 -0.141314 0.700289
0.991675 -0.143773 0.700218
0.990576 -0.145946 0.700474
0.990052 -0.148272 0.700551
0.990151 -0.150767 0.700436
0.988956 -0.152906 0.700722
0.988911 -0.15536 0.700651
0.988196 -0.157626 0.700788
0.986762 -0.159687 0.701148
0.986717 -0.162137 0.701078
0.986337 -0.164492 0.701111
0.986387 -0.16697 0.701011
0.986342 -0.16942 0.700941
0.986441 -0.171912 0.700825
0.986923 -0.174517 0.700591
0.986543 -0.176869 0.700625
0.986785 -0.179405 0.700465
0.98674 -0.181857 0.700395
0.984732 -0.183717 0.700934
0.984543 -0.186122 0.700908
0.982919 -0.188088 0.701329
0.980959 -0.189946 0.701854
0.980914 -0.192387 0.701784
1.04642 0.408411 0.700064
1.0498 0.406328 0.698972
1.04975 0.40378 0.698899
1.05207 0.40154 0.698121
1.05347 0.399173 0.697617
1.05323 0.396593 0.697601
1.05429 0.394177 0.697197
1.05487 0.391697 0.696937
1.05415 0.389057 0.697064
1.0541 0.386501 0.696991
1.05247 0.383757 0.697392
1.05256 0.38122 0.697275
1.05348 0.378775 0.696914
1.0531 0.376182 0.696941
1.0529 0.37361 0.696911
1.0532 0.371092 0.696736
1.05267 0.368485 0.696807
1.05262 0.36593 0.696733
1.0517 0.363286 0.696919
1.05127 0.360694 0.69696
1.05151 0.35817 0.696801
1.0507 0.355542 0.696958
1.05002 0.35293 0.697072
1.05012 0.350393 0.696955
1.04988 0.347825 0.696939
1.04983 0.345274 0.696866
1.04926 0.342677 0.696951
1.04907 0.340115 0.696921
1.04902 0.337566 0.696847
1.0483 0.334961 0.696976
1.04844 0.332429 0.696845
1.0484 0.32988 0.696772
1.04782 0.327291 0.696857
1.04792 0.324755 0.696741
1.04753 0.322182 0.696768
1.04734 0.319625 0.696738
1.04768 0.317105 0.696549
1.04715 0.314525 0.696621
1.04711 0.311978 0.696547
1.0474 0.309454 0.696373
1.04735 0.306907 0.6963
1.04846 0.30443 0.695879
1.04793 0.301853 0.695951
1.04812 0.299318 0.695805
1.04842 0.296788 0.69563
1.04731 0.294181 0.695875
1.04789 0.291667 0.695614
1.04856 0.289155 0.695323
1.04722 0.286541 0.695641
1.04751 0.28401 0.695466
1.04746 0.281461 0.695393
1.04746 0.278915 0.695305
1.04871 0.276421 0.694841
1.04761 0.273828 0.695086
1.04674 0.271249 0.695259
1.0467 0.268702 0.695185
1.04617 0.266138 0.695257
1.04612 0.263592 0.695184
1.04531 0.261022 0.695343
1.04454 0.258456 0.695487
1.04449 0.255913 0.695414
1.04377 0.253352 0.695544
1.04334 0.250801 0.695586
1.04344 0.248262 0.69547
1.04296 0.245712 0.695527
1.0431 0.243174 0.695396
1.04137 0.240606 0.695831
1.04132 0.238068 0.695758
1.04166 0.235534 0.695569
1.04162 0.232995 0.695496
1.04191 0.230459 0.695321
1.04205 0.22792 0.69519
1.04181 0.225379 0.695175
1.04177 0.222839 0.695102
1.04153 0.220299 0.695087
1.04134 0.21776 0.695057
1.04163 0.21522 0.694882
1.04105 0.212683 0.694969
1.041 0.210144 0.694896
1.04096 0.207605 0.694823
1.04091 0.205066 0.69475
1.04086 0.202527 0.694677
1.03961 0.200005 0.694968
1.03875 0.19748 0.695143
1.0387 0.194945 0.69507
1.03774 0.192427 0.695274
1.03669 0.189915 0.695507
1.03664 0.187383 0.695434
1.03568 0.184874 0.695638
1.03563 0.182344 0.695565
1.03511 0.179827 0.695638
1.03511 0.177297 0.695551
1.03506 0.174768 0.695478
1.03458 0.172253 0.695536
1.03454 0.169725 0.695464
1.03449 0.167196 0.695391
1.03444 0.164668 0.695318
1.03459 0.162132 0.695187
1.03454 0.159603 0.695114
1.03488 0.157057 0.694925
1.03512 0.154515 0.694764
1.03508 0.151985 0.694691
1.03537 0.149438 0.694516
1.03566 0.14689 0.694341
1.03575 0.144351 0.694224
1.03628 0.141788 0.693976
1.03624 0.139255 0.693903
1.03701 0.136675 0.693582
1.03696 0.134141 0.693509
1.03658 0.131628 0.693538
1.036 0.129129 0.693626
1.03596 0.126596 0.693553
1.03538 0.1241 0.693642
1.03534 0.121568 0.693569
1.03462 0.119085 0.693701
1.03347 0.116636 0.693965
1.03371 0.114086 0.693804
1.03323 0.111591 0.693863
1.03304 0.109074 0.693834
1.03237 0.106597 0.693952
1.03083 0.104194 0.694334
1.03079 0.10167 0.694261
1.02973 0.0992334 0.694497
1.02844 0.0968216 0.694805
1.02839 0.0943019 0.694733
1.027 0.0919057 0.695071
1.02695 0.0893884 0.694999
1.0258 0.0869767 0.695264
1.02451 0.084583 0.695573
1.02446 0.08207 0.6955
1.02283 0.0797171 0.695913
1.02154 0.0773354 0.696222
1.02149 0.0748277 0.69615
1.02077 0.0723915 0.696284
1.02073 0.0698849 0.696211
1.01943 0.0675159 0.696521
1.0191 0.0650439 0.696538
1.0192 0.0625237 0.696421
1.01848 0.0600975 0.696555
1.01786 0.0576623 0.69666
1.018 0.0551378 0.696529
1.01752 0.052688 0.696589
1.01781 0.0501454 0.696414
1.01748 0.0476795 0.69643
1.01748 0.0451721 0.696344
1.01772 0.0426337 0.696183
1.01677 0.0402505 0.696391
1.01686 0.0377312 0.696275
1.01696 0.0352113 0.696159
1.01644 0.0327756 0.696234
1.01658 0.0302493 0.696103
1.01582 0.0278493 0.696252
1.0163 0.0252758 0.696018
1.01673 0.0227072 0.695799
1.01611 0.0202898 0.695904
1.01583 0.0178252 0.695906
1.01592 0.0153045 0.695789
1.01545 0.0128699 0.69585
1.01569 0.0103272 0.69569
1.01473 0.0079683 0.695898
1.01425 0.00553792 0.695959
1.0144 0.00301077 0.695828
1.0133 0.000681903 0.696081
1.01282 -0.00174368 0.696142
1.01292 -0.00426167 0.696026
1.01225 -0.00665358 0.696146
1.0122 -0.0091472 0.696075
1.01024 -0.0113172 0.696594
1.0089 -0.0135865 0.696921
1.00885 -0.0160742 0.69685
1.00723 -0.0182863 0.697266
1.0066 -0.0206698 0.697372
1.00598 -0.0230513 0.697478
1.00464 -0.0253014 0.697806
1.0046 -0.0277818 0.697734
1.00273 -0.029928 0.698225
1.00163 -0.0322097 0.698479
1.00159 -0.0346849 0.698408
1.00005 -0.0368793 0.698796
0.999864 -0.0393242 0.698769
0.998238 -0.0414918 0.699187
0.996994 -0.0437281 0.699486
0.996949 -0.0461951 0.699415
0.995801 -0.0484439 0.699685
0.994414 -0.0506407 0.700029
0.994368 -0.0531032 0.699958
0.992167 -0.0551268 0.700554
0.992122 -0.0575854 0.700483
0.990783 -0.0597759 0.700813
0.989971 -0.0620718 0.700979
0.99007 -0.064557 0.700864
0.989162 -0.0668287 0.70106
0.988111 -0.0690663 0.701301
0.988066 -0.071518 0.701231
0.987398 -0.0738338 0.701353
0.987353 -0.0762844 0.701283
0.987116 -0.0786924 0.701272
0.98755 -0.0812499 0.701053
0.987984 -0.0838091 0.700834
0.987796 -0.0862284 0.700808
0.988373 -0.0888229 0.700544
0.988472 -0.0913091 0.700429
0.988427 -0.0937622 0.700358
0.989292 -0.096429 0.700005
0.989247 -0.0988838 0.699934
0.989489 -0.101407 0.699774
0.989875 -0.103966 0.69957
0.98983 -0.106422 0.699499
0.990168 -0.108972 0.69931
0.990793 -0.111593 0.699031
0.990413 -0.113968 0.699064
0.990511 -0.116462 0.698949
0.990179 -0.118847 0.698967
0.990421 -0.121377 0.698807
0.991142 -0.12403 0.698498
0.991097 -0.126489 0.698427
0.991482 -0.12906 0.698222
0.991772 -0.131607 0.698047
0.991536 -0.134017 0.698036
0.991826 -0.136566 0.697861
0.991637 -0.138988 0.697835
0.990778 -0.141231 0.698018
0.990733 -0.14369 0.697947
0.989635 -0.145863 0.698204
0.989111 -0.148189 0.698283
0.989209 -0.150685 0.698167
0.988016 -0.152823 0.698455
0.987971 -0.155277 0.698384
0.987255 -0.157544 0.698522
0.985823 -0.159604 0.698885
0.985778 -0.162055 0.698814
0.985398 -0.16441 0.698848
0.985448 -0.166887 0.698748
0.985403 -0.169337 0.698677
0.985502 -0.171829 0.698562
0.985983 -0.174434 0.698327
0.985603 -0.176787 0.698361
0.985845 -0.179323 0.698201
0.9858 -0.181774 0.698131
0.983794 -0.183635 0.698673
0.983605 -0.186039 0.698648
0.981982 -0.188006 0.699071
0.980024 -0.189863 0.699599
0.979979 -0.192304 0.699529
1.04646 0.408634 0.697413
1.04984 0.406549 0.696315
1.04979 0.403999 0.696242
1.0523 0.401783 0.695403
1.05307 0.399333 0.695084
1.05283 0.396753 0.695068
1.05351 0.394287 0.694778
1.05442 0.391849 0.694415
1.05351 0.389184 0.694601
1.05346 0.386627 0.694528
1.05226 0.383933 0.694801
1.05187 0.381339 0.694829
1.0525 0.378861 0.694553
1.05226 0.376284 0.694537
1.05255 0.373766 0.694362
1.05284 0.371246 0.694188
1.05207 0.368612 0.694331
1.05217 0.366072 0.694214
1.05159 0.363461 0.6943
1.05097 0.360848 0.6944
1.05121 0.358323 0.69424
1.0503 0.355684 0.694427
1.04962 0.353071 0.694542
1.04972 0.350534 0.694425
1.04948 0.347964 0.69441
1.04958 0.345426 0.694293
1.04891 0.342818 0.694408
1.04838 0.340226 0.694479
1.04833 0.337676 0.694406
1.0478 0.335087 0.694478
1.0478 0.332542 0.69439
1.04776 0.329993 0.694316
1.04704 0.327392 0.694446
1.04728 0.324866 0.694286
1.04704 0.322303 0.694271
1.04723 0.319773 0.694125
1.04757 0.317252 0.693935
1.0468 0.314653 0.69408
1.04743 0.312151 0.693803
1.04786 0.309633 0.693584
1.04748 0.307062 0.693613
1.04816 0.304558 0.693321
1.04796 0.301998 0.693291
1.04777 0.29944 0.693262
1.0484 0.296928 0.692985
1.04816 0.294366 0.692969
1.04807 0.291813 0.692911
1.0484 0.289282 0.692721
1.04807 0.286716 0.692735
1.04817 0.284172 0.692617
1.04735 0.281586 0.692777
1.0473 0.279036 0.692704
1.04841 0.276535 0.692281
1.04731 0.273941 0.692528
1.04639 0.271358 0.692717
1.04635 0.26881 0.692643
1.04548 0.266234 0.692818
1.04543 0.263687 0.692744
1.04452 0.261113 0.692934
1.0439 0.258552 0.693035
1.04385 0.256007 0.692962
1.04323 0.253449 0.693064
1.0427 0.250894 0.693137
1.0428 0.248355 0.69302
1.04246 0.245807 0.693034
1.04256 0.243267 0.692917
1.04093 0.2407 0.693326
1.04054 0.238156 0.693355
1.04069 0.235619 0.693224
1.04064 0.23308 0.69315
1.04093 0.230544 0.692975
1.04108 0.228006 0.692844
1.04084 0.225464 0.692829
1.04079 0.222925 0.692756
1.04075 0.220385 0.692683
1.04036 0.217845 0.692712
1.04065 0.215306 0.692537
1.04027 0.212767 0.692566
1.04022 0.210228 0.692493
1.04018 0.207689 0.69242
1.03994 0.205152 0.692405
1.03989 0.202613 0.692332
1.03883 0.200087 0.692567
1.03778 0.197566 0.692801
1.03788 0.195028 0.692684
1.03711 0.192506 0.692831
1.03625 0.189989 0.693007
1.0362 0.187456 0.692934
1.03519 0.184947 0.693154
1.03515 0.182416 0.693082
1.03462 0.179899 0.693155
1.03428 0.177378 0.693171
1.03424 0.174848 0.693098
1.03405 0.172324 0.693069
1.03386 0.169799 0.69304
1.034 0.167263 0.692909
1.03396 0.164734 0.692836
1.03458 0.162178 0.692558
1.03453 0.159647 0.692485
1.03492 0.157098 0.69228
1.03507 0.154558 0.692148
1.03473 0.15204 0.692164
1.03483 0.149502 0.692047
1.03584 0.146916 0.691651
1.03579 0.144382 0.691578
1.03632 0.141817 0.691328
1.03628 0.139283 0.691255
1.03671 0.13672 0.691035
1.03714 0.134156 0.690815
1.0369 0.131632 0.690801
1.03633 0.12913 0.69089
1.03628 0.126596 0.690817
1.03489 0.124152 0.691156
1.03485 0.12162 0.691083
1.03451 0.119108 0.691099
1.03389 0.116619 0.691203
1.03403 0.114074 0.691071
1.03317 0.111606 0.691248
1.03265 0.109114 0.691323
1.03193 0.10664 0.691457
1.03116 0.104172 0.691605
1.03111 0.101645 0.691532
1.02968 0.0992395 0.691887
1.02829 0.0968343 0.692227
1.02824 0.0943132 0.692155
1.02651 0.0919462 0.692598
1.02647 0.0894281 0.692526
1.02556 0.0869925 0.692719
1.02465 0.0845601 0.692912
1.0246 0.0820451 0.69284
1.02321 0.0796659 0.693181
1.02249 0.0772224 0.693315
1.02245 0.0747112 0.693243
1.02139 0.0723072 0.693481
1.02135 0.0697978 0.693409
1.0201 0.0674204 0.693706
1.01958 0.0649669 0.693782
1.01972 0.0624387 0.69365
1.01896 0.0600152 0.6938
1.01867 0.057538 0.693802
1.01863 0.0550331 0.69373
1.01844 0.0525455 0.693702
1.01916 0.0499465 0.693393
1.01839 0.0475302 0.693543
1.01835 0.0450255 0.693471
1.0183 0.0425207 0.693399
1.01753 0.0401096 0.693549
1.0173 0.0376315 0.693536
1.01739 0.0351091 0.693419
1.01735 0.0326058 0.693347
1.01749 0.030076 0.693216
1.01726 0.027599 0.693203
1.01678 0.0251566 0.693265
1.01769 0.0225168 0.692896
1.01697 0.0201098 0.693032
1.01626 0.0177052 0.693167
1.01636 0.0151819 0.693051
1.01545 0.0128096 0.693246
1.0154 0.0103091 0.693174
1.01507 0.00785283 0.693191
1.01478 0.00539014 0.693193
1.01526 0.00280735 0.692958
1.01421 0.000467467 0.693198
1.01345 -0.0019152 0.693348
1.0134 -0.00441257 0.693276
1.01244 -0.00675964 0.693487
1.0124 -0.00925537 0.693415
1.01096 -0.0115166 0.693774
1.00972 -0.0138053 0.694074
1.00967 -0.0162963 0.694002
1.00833 -0.0185618 0.694332
1.00719 -0.0208564 0.694602
1.0068 -0.0232833 0.694634
1.00532 -0.0255109 0.695009
1.00528 -0.0279943 0.694938
1.00384 -0.0302227 0.695297
1.00279 -0.0325171 0.695539
1.00274 -0.0349962 0.695467
1.00073 -0.0371039 0.696006
1.0004 -0.0395245 0.696024
0.999542 -0.0418425 0.696206
0.997677 -0.0439619 0.696701
0.997632 -0.0464319 0.69663
0.99591 -0.0485698 0.69708
0.995146 -0.0508931 0.697232
0.995101 -0.0533588 0.697162
0.993523 -0.0555123 0.697567
0.993478 -0.0579752 0.697497
0.991709 -0.0600805 0.697962
0.99085 -0.0623699 0.698145
0.990805 -0.0648281 0.698074
0.989562 -0.0670316 0.698377
0.988943 -0.0693643 0.698485
0.988898 -0.0718192 0.698414
0.988565 -0.0742114 0.698433
0.98852 -0.0766659 0.698362
0.98814 -0.0790459 0.698396
0.98776 -0.0814247 0.69843
0.988289 -0.0840076 0.69818
0.988244 -0.0864619 0.69811
0.988343 -0.0889492 0.697994
0.988872 -0.0915365 0.697744
0.988827 -0.093992 0.697674
0.989691 -0.0966613 0.697319
0.989646 -0.0991186 0.697248
0.989792 -0.101622 0.697118
0.990034 -0.104148 0.696957
0.989989 -0.106606 0.696887
0.990662 -0.10924 0.696591
0.991334 -0.111876 0.696296
0.991146 -0.114301 0.69627
0.991244 -0.116797 0.696155
0.991199 -0.119258 0.696084
0.991489 -0.121804 0.695908
0.991874 -0.124375 0.695703
0.991829 -0.126837 0.695632
0.99207 -0.129373 0.695471
0.992695 -0.132011 0.69519
0.992506 -0.134437 0.695164
0.992796 -0.136989 0.694989
0.992129 -0.139288 0.695113
0.99194 -0.141713 0.695087
0.991895 -0.144175 0.695016
0.990654 -0.146313 0.69532
0.989795 -0.148551 0.695504
0.989894 -0.15105 0.695388
0.988653 -0.153178 0.695693
0.988608 -0.155635 0.695622
0.987941 -0.157918 0.695746
0.987035 -0.160131 0.695946
0.98699 -0.162585 0.695875
